1610
-0.062309 -0.181919 0.997506 
-0.060798 -0.182447 1.000401 
-0.059329 -0.183132 1.004156 
-0.057837 -0.183787 1.007750 
-0.056326 -0.184416 1.011196 
-0.054755 -0.184883 1.013756 
-0.053115 -0.185140 1.015168 
-0.051428 -0.185246 1.015749 
-0.049727 -0.185307 1.016084 
-0.048015 -0.185328 1.016197 
-0.046302 -0.185349 1.016314 
-0.044589 -0.185370 1.016428 
-0.042875 -0.185389 1.016533 
-0.041157 -0.185389 1.016533 
-0.039438 -0.185389 1.016533 
-0.037732 -0.185448 1.016858 
-0.036033 -0.185555 1.017444 
-0.034334 -0.185669 1.018071 
-0.032648 -0.185867 1.019155 
-0.030972 -0.186146 1.020686 
-0.029288 -0.186416 1.022167 
-0.027604 -0.186711 1.023783 
-0.025913 -0.187000 1.025367 
-0.024211 -0.187243 1.026698 
-0.022494 -0.187397 1.027544 
-0.020771 -0.187526 1.028251 
-0.019048 -0.187676 1.029074 
-0.017329 -0.187895 1.030277 
-0.015608 -0.188148 1.031661 
-0.013887 -0.188468 1.033418 
-0.012165 -0.188849 1.035504 
-0.010436 -0.189234 1.037615 
-0.008698 -0.189602 1.039635 
-0.006955 -0.189990 1.041761 
-0.005203 -0.190313 1.043535 
-0.003447 -0.190762 1.045995 
-0.001684 -0.191444 1.049735 
0.000091 -0.192768 1.056992 
0.001891 -0.194120 1.064406 
0.003717 -0.195536 1.072170 
0.005562 -0.196666 1.078369 
0.007413 -0.197419 1.082497 
0.009248 -0.197514 1.083020 
0.011081 -0.197560 1.083267 
0.012917 -0.197627 1.083637 
0.014761 -0.197794 1.084552 
0.016627 -0.198183 1.086683 
0.018523 -0.198810 1.090125 
0.020442 -0.199556 1.094214 
0.022371 -0.200259 1.098069 
0.024300 -0.200866 1.101396 
0.026217 -0.201286 1.103702 
-0.095416 -0.182267 1.008789 
-0.093680 -0.182207 1.008461 
-0.091915 -0.182087 1.007795 
-0.090125 -0.181914 1.006839 
-0.088339 -0.181742 1.005886 
-0.086531 -0.181515 1.004632 
-0.084689 -0.181209 1.002934 
-0.082839 -0.180872 1.001069 
-0.081001 -0.180546 0.999265 
-0.079138 -0.180152 0.997083 
-0.077327 -0.179860 0.995472 
-0.075557 -0.179651 0.994314 
-0.073832 -0.179545 0.993728 
-0.072114 -0.179449 0.993196 
-0.070434 -0.179449 0.993196 
-0.068762 -0.179467 0.993297 
-0.067091 -0.179487 0.993406 
-0.065454 -0.179604 0.994051 
-0.063831 -0.179768 0.994958 
-0.062263 -0.180096 0.996777 
-0.060772 -0.180674 0.999976 
-0.059325 -0.181417 1.004089 
-0.057851 -0.182123 1.007993 
-0.056359 -0.182808 1.011788 
-0.054799 -0.183311 1.014571 
-0.053150 -0.183541 1.015845 
-0.051456 -0.183626 1.016314 
-0.049749 -0.183666 1.016533 
-0.048031 -0.183666 1.016533 
-0.046312 -0.183666 1.016533 
-0.044593 -0.183666 1.016533 
-0.042875 -0.183666 1.016533 
-0.041157 -0.183666 1.016533 
-0.039438 -0.183666 1.016533 
-0.037732 -0.183727 1.016870 
-0.036034 -0.183834 1.017463 
-0.034336 -0.183950 1.018105 
-0.032649 -0.184144 1.019182 
-0.030973 -0.184422 1.020719 
-0.029289 -0.184689 1.022195 
-0.027602 -0.184959 1.023692 
-0.025907 -0.185219 1.025132 
-0.024205 -0.185452 1.026417 
-0.022488 -0.185603 1.027256 
-0.020764 -0.185717 1.027888 
-0.019042 -0.185869 1.028730 
-0.017323 -0.186084 1.029919 
-0.015599 -0.186292 1.031069 
-0.013878 -0.186584 1.032684 
-0.012156 -0.186960 1.034763 
-0.010428 -0.187339 1.036863 
-0.008692 -0.187703 1.038876 
-0.006950 -0.188086 1.040998 
-0.005199 -0.188404 1.042757 
-0.003444 -0.188865 1.045308 
-0.001682 -0.189404 1.048292 
0.000091 -0.190724 1.055598 
0.001889 -0.192124 1.063344 
0.003714 -0.193567 1.071333 
0.005558 -0.194707 1.077642 
0.007414 -0.195610 1.082643 
0.009250 -0.195723 1.083268 
0.011084 -0.195768 1.083517 
0.012920 -0.195840 1.083912 
0.014767 -0.196031 1.084969 
0.016634 -0.196421 1.087132 
0.018531 -0.197048 1.090599 
0.020451 -0.197791 1.094709 
0.022386 -0.198538 1.098845 
0.024323 -0.199187 1.102441 
0.026249 -0.199655 1.105028 
-0.095461 -0.180642 1.009266 
-0.093718 -0.180570 1.008866 
-0.091955 -0.180459 1.008244 
-0.090166 -0.180289 1.007293 
-0.088379 -0.180117 1.006335 
-0.086570 -0.179893 1.005083 
-0.084727 -0.179589 1.003381 
-0.082875 -0.179252 1.001498 
-0.081027 -0.178910 0.999587 
-0.079163 -0.178518 0.997399 
-0.077344 -0.178212 0.995690 
-0.075573 -0.178004 0.994528 
-0.073840 -0.177880 0.993837 
-0.072121 -0.177784 0.993297 
-0.070434 -0.177766 0.993196 
-0.068755 -0.177766 0.993196 
-0.067076 -0.177766 0.993196 
-0.065432 -0.177861 0.993728 
-0.063797 -0.177984 0.994416 
-0.062221 -0.178287 0.996109 
-0.060751 -0.178915 0.999620 
-0.059318 -0.179694 1.003972 
-0.057861 -0.180443 1.008153 
-0.056381 -0.181164 1.012181 
-0.054825 -0.181678 1.015054 
-0.053163 -0.181862 1.016084 
-0.051462 -0.181924 1.016428 
-0.049749 -0.181943 1.016533 
-0.048031 -0.181943 1.016533 
-0.046312 -0.181943 1.016533 
-0.044593 -0.181943 1.016533 
-0.042875 -0.181943 1.016533 
-0.041157 -0.181943 1.016533 
-0.039438 -0.181943 1.016533 
-0.037732 -0.182004 1.016878 
-0.036031 -0.182092 1.017370 
-0.034332 -0.182206 1.018006 
-0.032645 -0.182398 1.019077 
-0.030969 -0.182671 1.020604 
-0.029286 -0.182935 1.022076 
-0.027598 -0.183200 1.023560 
-0.025901 -0.183436 1.024875 
-0.024196 -0.183644 1.026037 
-0.022479 -0.183794 1.026876 
-0.020757 -0.183910 1.027524 
-0.019035 -0.184063 1.028381 
-0.017317 -0.184275 1.029565 
-0.015593 -0.184476 1.030685 
-0.013871 -0.184741 1.032166 
-0.012149 -0.185091 1.034123 
-0.010421 -0.185466 1.036217 
-0.008687 -0.185828 1.038240 
-0.006946 -0.186206 1.040354 
-0.005195 -0.186518 1.042095 
-0.003443 -0.186996 1.044768 
-0.001681 -0.187512 1.047648 
0.000091 -0.188842 1.055079 
0.001888 -0.190251 1.062956 
0.003714 -0.191702 1.071060 
0.005557 -0.192837 1.077399 
0.007415 -0.193796 1.082759 
0.009252 -0.193933 1.083527 
0.011088 -0.194004 1.083922 
0.012928 -0.194123 1.084585 
0.014780 -0.194360 1.085908 
0.016647 -0.194728 1.087968 
0.018545 -0.195346 1.091419 
0.020467 -0.196079 1.095515 
0.022403 -0.196817 1.099640 
0.024342 -0.197470 1.103287 
0.026275 -0.197982 1.106145 
-0.095508 -0.179018 1.009757 
-0.093766 -0.178952 1.009385 
-0.092013 -0.178862 1.008878 
-0.090238 -0.178725 1.008103 
-0.088432 -0.178520 1.006945 
-0.086611 -0.178274 1.005559 
-0.084764 -0.177966 1.003825 
-0.082902 -0.177613 1.001829 
-0.081046 -0.177257 0.999822 
-0.079191 -0.176889 0.997746 
-0.077379 -0.176603 0.996135 
-0.075599 -0.176379 0.994873 
-0.073857 -0.176237 0.994070 
-0.072137 -0.176138 0.993515 
-0.070442 -0.176100 0.993297 
-0.068755 -0.176082 0.993196 
-0.067076 -0.176082 0.993196 
-0.065432 -0.176176 0.993728 
-0.063803 -0.176316 0.994518 
-0.062235 -0.176637 0.996326 
-0.060778 -0.177301 1.000072 
-0.059353 -0.178099 1.004574 
-0.057902 -0.178862 1.008875 
-0.056415 -0.179557 1.012794 
-0.054850 -0.180040 1.015523 
-0.053175 -0.180181 1.016314 
-0.051467 -0.180219 1.016533 
-0.049749 -0.180219 1.016533 
-0.048031 -0.180219 1.016533 
-0.046312 -0.180219 1.016533 
-0.044593 -0.180219 1.016533 
-0.042875 -0.180219 1.016533 
-0.041157 -0.180219 1.016533 
-0.039438 -0.180219 1.016533 
-0.037732 -0.180279 1.016870 
-0.036026 -0.180345 1.017243 
-0.034327 -0.180455 1.017864 
-0.032637 -0.180624 1.018817 
-0.030958 -0.180874 1.020224 
-0.029272 -0.181115 1.021587 
-0.027584 -0.181376 1.023057 
-0.025886 -0.181593 1.024284 
-0.024182 -0.181801 1.025451 
-0.022469 -0.181970 1.026405 
-0.020749 -0.182104 1.027164 
-0.019029 -0.182257 1.028024 
-0.017311 -0.182466 1.029204 
-0.015587 -0.182659 1.030292 
-0.013864 -0.182900 1.031654 
-0.012141 -0.183225 1.033489 
-0.010416 -0.183620 1.035714 
-0.008683 -0.183980 1.037747 
-0.006942 -0.184357 1.039869 
-0.005193 -0.184665 1.041606 
-0.003441 -0.185157 1.044386 
-0.001681 -0.185765 1.047813 
0.000091 -0.187098 1.055333 
0.001889 -0.188518 1.063343 
0.003715 -0.189984 1.071611 
0.005560 -0.191118 1.078004 
0.007417 -0.192005 1.083010 
0.009257 -0.192190 1.084056 
0.011096 -0.192309 1.084727 
0.012940 -0.192455 1.085551 
0.014795 -0.192716 1.087018 
0.016662 -0.193056 1.088938 
0.018556 -0.193615 1.092089 
0.020471 -0.194261 1.095737 
0.022404 -0.194963 1.099692 
0.024344 -0.195614 1.103367 
0.026282 -0.196158 1.106436 
-0.095586 -0.177453 1.010589 
-0.093837 -0.177375 1.010146 
-0.092091 -0.177301 1.009727 
-0.090324 -0.177183 1.009056 
-0.088497 -0.176942 1.007680 
-0.086654 -0.176658 1.006066 
-0.084804 -0.176346 1.004289 
-0.082931 -0.175976 1.002179 
-0.081067 -0.175607 1.000079 
-0.079221 -0.175264 0.998125 
-0.077416 -0.174998 0.996609 
-0.075628 -0.174759 0.995251 
-0.073876 -0.174596 0.994324 
-0.072154 -0.174495 0.993747 
-0.070449 -0.174435 0.993406 
-0.068755 -0.174398 0.993196 
-0.067076 -0.174398 0.993196 
-0.065432 -0.174492 0.993728 
-0.063817 -0.174669 0.994738 
-0.062264 -0.175031 0.996799 
-0.060816 -0.175716 1.000699 
-0.059398 -0.176529 1.005330 
-0.057944 -0.177281 1.009610 
-0.056442 -0.177925 1.013281 
-0.054863 -0.178361 1.015761 
-0.053180 -0.178478 1.016428 
-0.051467 -0.178496 1.016533 
-0.049754 -0.178515 1.016639 
-0.048036 -0.178516 1.016647 
-0.046317 -0.178517 1.016650 
-0.044599 -0.178516 1.016647 
-0.042879 -0.178515 1.016639 
-0.041157 -0.178496 1.016533 
-0.039438 -0.178496 1.016533 
-0.037728 -0.178535 1.016753 
-0.036017 -0.178577 1.016993 
-0.034318 -0.178680 1.017581 
-0.032624 -0.178827 1.018415 
-0.030942 -0.179057 1.019724 
-0.029257 -0.179294 1.021075 
-0.027574 -0.179572 1.022661 
-0.025876 -0.179790 1.023903 
-0.024173 -0.179999 1.025089 
-0.022464 -0.180186 1.026154 
-0.020746 -0.180336 1.027011 
-0.019024 -0.180470 1.027772 
-0.017306 -0.180677 1.028955 
-0.015583 -0.180868 1.030039 
-0.013859 -0.181086 1.031285 
-0.012137 -0.181408 1.033117 
-0.010413 -0.181801 1.035352 
-0.008679 -0.182140 1.037281 
-0.006939 -0.182513 1.039410 
-0.005191 -0.182837 1.041252 
-0.003439 -0.183290 1.043836 
-0.001682 -0.184103 1.048466 
0.000091 -0.185442 1.056090 
0.001891 -0.186885 1.064305 
0.003719 -0.188361 1.072713 
0.005567 -0.189526 1.079349 
0.007420 -0.190265 1.083555 
0.009265 -0.190520 1.085007 
0.011109 -0.190687 1.085958 
0.012953 -0.190811 1.086667 
0.014810 -0.191069 1.088135 
0.016675 -0.191360 1.089791 
0.018561 -0.191817 1.092393 
0.020468 -0.192374 1.095568 
0.022394 -0.193015 1.099215 
0.024331 -0.193638 1.102765 
0.026269 -0.194187 1.105894 
0.028362 -0.197617 1.114667 
0.028193 -0.194564 1.108037 
-0.093961 -0.175894 1.011480 
-0.092208 -0.175813 1.011011 
-0.090421 -0.175662 1.010145 
-0.088581 -0.175400 1.008638 
-0.086724 -0.175093 1.006873 
-0.084861 -0.174762 1.004970 
-0.082979 -0.174377 1.002754 
-0.081106 -0.173995 1.000560 
-0.079258 -0.173653 0.998593 
-0.077452 -0.173390 0.997077 
-0.075655 -0.173135 0.995614 
-0.073896 -0.172957 0.994588 
-0.072171 -0.172852 0.993983 
-0.070457 -0.172771 0.993518 
-0.068755 -0.172715 0.993196 
-0.067083 -0.172732 0.993297 
-0.065446 -0.172844 0.993938 
-0.063846 -0.173061 0.995185 
-0.062315 -0.173482 0.997608 
-0.060875 -0.174189 1.001674 
-0.059456 -0.174996 1.006313 
-0.057992 -0.175713 1.010435 
-0.056473 -0.176305 1.013842 
-0.054875 -0.176677 1.015979 
-0.053192 -0.176791 1.016639 
-0.051473 -0.176793 1.016647 
-0.049766 -0.176832 1.016870 
-0.048047 -0.176835 1.016887 
-0.046333 -0.176853 1.016995 
-0.044609 -0.176835 1.016887 
-0.042894 -0.176850 1.016976 
-0.041166 -0.176813 1.016761 
-0.039447 -0.176812 1.016756 
-0.037732 -0.176830 1.016858 
-0.036017 -0.176849 1.016972 
-0.034313 -0.176931 1.017439 
-0.032616 -0.177055 1.018155 
-0.030931 -0.177264 1.019356 
-0.029243 -0.177479 1.020593 
-0.027563 -0.177773 1.022280 
-0.025867 -0.177988 1.023521 
-0.024165 -0.178199 1.024731 
-0.022458 -0.178403 1.025907 
-0.020743 -0.178572 1.026876 
-0.019020 -0.178686 1.027535 
-0.017303 -0.178893 1.028722 
-0.015582 -0.179101 1.029919 
-0.013857 -0.179318 1.031168 
-0.012136 -0.179638 1.033009 
-0.010412 -0.180025 1.035233 
-0.008678 -0.180358 1.037150 
-0.006938 -0.180708 1.039161 
-0.005190 -0.181028 1.041001 
-0.003438 -0.181436 1.043345 
-0.001683 -0.182449 1.049175 
0.000091 -0.183793 1.056900 
0.001893 -0.185273 1.065414 
0.003724 -0.186778 1.074066 
0.005576 -0.188010 1.081152 
0.007427 -0.188601 1.084551 
0.009275 -0.188900 1.086268 
0.011123 -0.189085 1.087332 
0.012969 -0.189205 1.088026 
0.014827 -0.189441 1.089378 
0.016690 -0.189680 1.090753 
0.018569 -0.190038 1.092814 
0.020465 -0.190490 1.095415 
0.022382 -0.191046 1.098609 
0.024314 -0.191636 1.102004 
0.026252 -0.192186 1.105163 
0.028179 -0.192585 1.107458 
-0.094129 -0.174493 1.013298 
-0.092359 -0.174385 1.012672 
-0.090537 -0.174172 1.011434 
-0.088674 -0.173872 1.009691 
-0.086794 -0.173527 1.007687 
-0.084919 -0.173177 1.005658 
-0.083026 -0.172776 1.003326 
-0.081136 -0.172363 1.000928 
-0.079294 -0.172038 0.999040 
-0.077486 -0.171775 0.997514 
-0.075681 -0.171505 0.995949 
-0.073914 -0.171312 0.994824 
-0.072187 -0.171205 0.994205 
-0.070465 -0.171105 0.993627 
-0.068755 -0.171031 0.993196 
-0.067091 -0.171067 0.993406 
-0.065461 -0.171199 0.994169 
-0.063876 -0.171454 0.995654 
-0.062359 -0.171914 0.998322 
-0.060920 -0.172617 1.002407 
-0.059492 -0.173395 1.006925 
-0.058018 -0.174080 1.010901 
-0.056485 -0.174625 1.014064 
-0.054875 -0.174954 1.015979 
-0.053198 -0.175088 1.016753 
-0.051485 -0.175109 1.016879 
-0.049783 -0.175171 1.017234 
-0.048070 -0.175194 1.017370 
-0.046361 -0.175234 1.017602 
-0.044635 -0.175212 1.017476 
-0.042919 -0.175228 1.017568 
-0.041189 -0.175189 1.017343 
-0.039469 -0.175188 1.017337 
-0.037749 -0.175187 1.017330 
-0.036029 -0.175187 1.017330 
-0.034321 -0.175246 1.017674 
-0.032616 -0.175331 1.018167 
-0.030928 -0.175518 1.019249 
-0.029237 -0.175709 1.020359 
-0.027557 -0.175998 1.022038 
-0.025861 -0.176212 1.023280 
-0.024159 -0.176421 1.024496 
-0.022453 -0.176624 1.025675 
-0.020741 -0.176810 1.026756 
-0.019018 -0.176925 1.027419 
-0.017301 -0.177130 1.028614 
-0.015583 -0.177375 1.030036 
-0.013859 -0.177592 1.031298 
-0.012137 -0.177911 1.033146 
-0.010413 -0.178290 1.035351 
-0.008678 -0.178617 1.037247 
-0.006937 -0.178938 1.039114 
-0.005189 -0.179237 1.040850 
-0.003436 -0.179593 1.042916 
-0.001682 -0.180563 1.048546 
0.000091 -0.181930 1.056484 
0.001893 -0.183445 1.065284 
0.003725 -0.185025 1.074459 
0.005581 -0.186339 1.082088 
0.007438 -0.187025 1.086072 
0.009289 -0.187323 1.087803 
0.011140 -0.187525 1.088978 
0.012987 -0.187620 1.089530 
0.014845 -0.187825 1.090720 
0.016706 -0.188017 1.091833 
0.018580 -0.188302 1.093489 
0.020469 -0.188678 1.095671 
0.022381 -0.189175 1.098561 
0.024306 -0.189711 1.101671 
0.026237 -0.190206 1.104546 
0.028162 -0.190599 1.106827 
-0.096071 -0.173188 1.015717 
-0.094270 -0.173033 1.014810 
-0.092488 -0.172909 1.014084 
-0.090634 -0.172642 1.012520 
-0.088748 -0.172304 1.010535 
-0.086855 -0.171939 1.008396 
-0.084969 -0.171573 1.006248 
-0.083057 -0.171139 1.003702 
-0.081156 -0.170708 1.001174 
-0.079311 -0.170382 0.999264 
-0.077502 -0.170119 0.997718 
-0.075689 -0.169836 0.996058 
-0.073922 -0.169644 0.994936 
-0.072195 -0.169538 0.994314 
-0.070472 -0.169438 0.993728 
-0.068755 -0.169348 0.993196 
-0.067098 -0.169402 0.993518 
-0.065484 -0.169572 0.994511 
-0.063920 -0.169884 0.996342 
-0.062417 -0.170379 0.999244 
-0.060975 -0.171074 1.003319 
-0.059538 -0.171821 1.007699 
-0.058049 -0.172457 1.011430 
-0.056497 -0.172941 1.014270 
-0.054880 -0.173250 1.016085 
-0.053210 -0.173404 1.016984 
-0.051503 -0.173448 1.017243 
-0.049813 -0.173551 1.017846 
-0.048104 -0.173593 1.018097 
-0.046394 -0.173635 1.018340 
-0.044667 -0.173613 1.018211 
-0.042954 -0.173648 1.018416 
-0.041219 -0.173591 1.018084 
-0.039498 -0.173592 1.018090 
-0.037776 -0.173589 1.018069 
-0.036055 -0.173587 1.018060 
-0.034338 -0.173609 1.018192 
-0.032632 -0.173688 1.018654 
-0.030939 -0.173851 1.019608 
-0.029240 -0.174000 1.020484 
-0.027557 -0.174265 1.022037 
-0.025860 -0.174475 1.023267 
-0.024157 -0.174665 1.024380 
-0.022448 -0.174849 1.025460 
-0.020739 -0.175050 1.026640 
-0.019015 -0.175163 1.027300 
-0.017299 -0.175367 1.028498 
-0.015583 -0.175631 1.030049 
-0.013861 -0.175868 1.031435 
-0.012139 -0.176186 1.033301 
-0.010414 -0.176559 1.035488 
-0.008680 -0.176898 1.037479 
-0.006938 -0.177196 1.039225 
-0.005190 -0.177490 1.040952 
-0.003436 -0.177818 1.042876 
-0.001681 -0.178667 1.047852 
0.000091 -0.179835 1.054704 
0.003722 -0.183030 1.073444 
0.005579 -0.184444 1.081733 
0.007442 -0.185289 1.086691 
0.009304 -0.185782 1.089584 
0.011156 -0.185958 1.090616 
0.013004 -0.186008 1.090909 
0.014860 -0.186166 1.091831 
0.016721 -0.186332 1.092809 
0.018592 -0.186567 1.094182 
0.020475 -0.186874 1.095987 
0.022381 -0.187316 1.098579 
0.024300 -0.187797 1.101400 
0.026224 -0.188239 1.103990 
0.028145 -0.188603 1.106127 
-0.096160 -0.171624 1.016654 
-0.094353 -0.171464 1.015707 
-0.092558 -0.171319 1.014850 
-0.090690 -0.171031 1.013144 
-0.088792 -0.170676 1.011042 
-0.086879 -0.170277 1.008677 
-0.084981 -0.169890 1.006385 
-0.083067 -0.169458 1.003826 
-0.081156 -0.169012 1.001183 
-0.079312 -0.168690 0.999272 
-0.077502 -0.168427 0.997718 
-0.075689 -0.168147 0.996058 
-0.073922 -0.167958 0.994936 
-0.072195 -0.167853 0.994314 
-0.070472 -0.167754 0.993728 
-0.068755 -0.167664 0.993196 
-0.067105 -0.167737 0.993627 
-0.065513 -0.167961 0.994954 
-0.063958 -0.168295 0.996934 
-0.062455 -0.168789 0.999858 
-0.061011 -0.169473 1.003911 
-0.059564 -0.170187 1.008145 
-0.058055 -0.170761 1.011540 
-0.056497 -0.171222 1.014270 
-0.054886 -0.171547 1.016199 
-0.053228 -0.171738 1.017331 
-0.051534 -0.171824 1.017841 
-0.049855 -0.171968 1.018692 
-0.048156 -0.172051 1.019185 
-0.046448 -0.172109 1.019528 
-0.044720 -0.172089 1.019409 
-0.043009 -0.172141 1.019719 
-0.041269 -0.172071 1.019304 
-0.039541 -0.172053 1.019194 
-0.037813 -0.172030 1.019059 
-0.036086 -0.172007 1.018924 
-0.034359 -0.171989 1.018815 
-0.032652 -0.172067 1.019277 
-0.030957 -0.172224 1.020207 
-0.029257 -0.172370 1.021073 
-0.027570 -0.172612 1.022505 
-0.025869 -0.172799 1.023616 
-0.024162 -0.172966 1.024603 
-0.022451 -0.173127 1.025559 
-0.020738 -0.173308 1.026628 
-0.019015 -0.173418 1.027284 
-0.017299 -0.173621 1.028486 
-0.015585 -0.173904 1.030158 
-0.013864 -0.174160 1.031675 
-0.012142 -0.174477 1.033556 
-0.010417 -0.174848 1.035752 
-0.008683 -0.175203 1.037854 
-0.006940 -0.175482 1.039510 
-0.005191 -0.175754 1.041120 
-0.003437 -0.176061 1.042938 
-0.001680 -0.176799 1.047310 
0.000091 -0.177774 1.053083 
0.003718 -0.181027 1.072354 
0.005576 -0.182517 1.081182 
0.007445 -0.183514 1.087087 
0.009317 -0.184190 1.091091 
0.011169 -0.184324 1.091885 
0.013017 -0.184351 1.092043 
0.014874 -0.184482 1.092819 
0.016734 -0.184621 1.093648 
0.018604 -0.184832 1.094894 
0.020486 -0.185114 1.096565 
0.022387 -0.185507 1.098891 
0.024301 -0.185935 1.101427 
0.026218 -0.186326 1.103745 
0.028128 -0.186618 1.105476 
0.030247 -0.190066 1.114707 
0.030034 -0.186846 1.106824 
-0.096215 -0.169998 1.017237 
-0.094411 -0.169846 1.016327 
-0.092606 -0.169688 1.015381 
-0.090731 -0.169391 1.013603 
-0.088822 -0.169020 1.011384 
-0.086898 -0.168603 1.008892 
-0.084989 -0.168201 1.006482 
-0.083074 -0.167771 1.003911 
-0.081155 -0.167312 1.001163 
-0.079311 -0.166994 0.999264 
-0.077502 -0.166736 0.997718 
-0.075697 -0.166475 0.996159 
-0.073938 -0.166306 0.995146 
-0.072211 -0.166204 0.994535 
-0.070488 -0.166106 0.993949 
-0.068770 -0.166015 0.993406 
-0.067126 -0.166103 0.993931 
-0.065549 -0.166365 0.995498 
-0.064010 -0.166739 0.997738 
-0.062515 -0.167253 1.000809 
-0.061068 -0.167928 1.004848 
-0.059605 -0.168593 1.008827 
-0.058074 -0.169101 1.011870 
-0.056503 -0.169520 1.014374 
-0.054893 -0.169844 1.016316 
-0.053246 -0.170073 1.017684 
-0.051565 -0.170203 1.018462 
-0.049892 -0.170367 1.019447 
-0.048203 -0.170489 1.020173 
-0.046503 -0.170582 1.020734 
-0.044778 -0.170582 1.020731 
-0.043071 -0.170655 1.021168 
-0.041328 -0.170587 1.020764 
-0.039593 -0.170549 1.020534 
-0.037853 -0.170482 1.020136 
-0.036115 -0.170418 1.019750 
-0.034380 -0.170362 1.019413 
-0.032671 -0.170440 1.019884 
-0.030976 -0.170597 1.020822 
-0.029275 -0.170745 1.021708 
-0.027583 -0.170964 1.023016 
-0.025879 -0.171128 1.023996 
-0.024168 -0.171270 1.024846 
-0.022453 -0.171407 1.025671 
-0.020738 -0.171566 1.026621 
-0.019017 -0.171692 1.027374 
-0.017300 -0.171896 1.028596 
-0.015589 -0.172195 1.030384 
-0.013869 -0.172470 1.032027 
-0.012146 -0.172785 1.033916 
-0.010421 -0.173155 1.036126 
-0.008688 -0.173526 1.038348 
-0.006943 -0.173807 1.040029 
-0.005193 -0.174062 1.041553 
-0.003439 -0.174405 1.043606 
-0.001680 -0.174970 1.046987 
0.000091 -0.175744 1.051618 
0.003714 -0.179016 1.071202 
0.005572 -0.180548 1.080369 
0.007447 -0.181727 1.087423 
0.009328 -0.182569 1.092457 
0.011179 -0.182634 1.092850 
0.013027 -0.182636 1.092863 
0.014883 -0.182745 1.093514 
0.016744 -0.182882 1.094334 
0.018616 -0.183094 1.095598 
0.020497 -0.183350 1.097130 
0.022396 -0.183717 1.099329 
0.024304 -0.184092 1.101572 
0.026218 -0.184452 1.103726 
0.028121 -0.184698 1.105196 
0.030018 -0.184876 1.106264 
-0.096250 -0.168334 1.017603 
-0.094437 -0.168169 1.016606 
-0.092626 -0.168002 1.015593 
-0.090739 -0.167688 1.013697 
-0.088820 -0.167300 1.011353 
-0.086877 -0.166853 1.008648 
-0.084967 -0.166452 1.006227 
-0.083053 -0.166026 1.003653 
-0.081136 -0.165576 1.000930 
-0.079302 -0.165282 0.999150 
-0.077502 -0.165045 0.997718 
-0.075697 -0.164788 0.996167 
-0.073939 -0.164623 0.995166 
-0.072213 -0.164523 0.994562 
-0.070490 -0.164426 0.993976 
-0.068764 -0.164318 0.993325 
-0.067113 -0.164386 0.993737 
-0.065543 -0.164663 0.995411 
-0.064013 -0.165057 0.997791 
-0.062521 -0.165574 1.000915 
-0.061081 -0.166258 1.005052 
-0.059621 -0.166927 1.009098 
-0.058081 -0.167407 1.012001 
-0.056503 -0.167801 1.014382 
-0.054899 -0.168140 1.016430 
-0.053259 -0.168388 1.017929 
-0.051595 -0.168575 1.019060 
-0.049929 -0.168764 1.020203 
-0.048254 -0.168940 1.021267 
-0.046559 -0.169053 1.021946 
-0.044841 -0.169091 1.022177 
-0.043128 -0.169151 1.022541 
-0.041392 -0.169118 1.022342 
-0.039650 -0.169059 1.021986 
-0.037901 -0.168967 1.021426 
-0.036155 -0.168878 1.020890 
-0.034414 -0.168801 1.020426 
-0.032697 -0.168846 1.020695 
-0.030998 -0.168988 1.021555 
-0.029296 -0.169135 1.022442 
-0.027598 -0.169318 1.023548 
-0.025889 -0.169458 1.024398 
-0.024174 -0.169574 1.025099 
-0.022456 -0.169689 1.025793 
-0.020738 -0.169827 1.026628 
-0.019019 -0.169973 1.027509 
-0.017303 -0.170175 1.028732 
-0.015591 -0.170472 1.030524 
-0.013872 -0.170762 1.032278 
-0.012149 -0.171075 1.034170 
-0.010423 -0.171442 1.036392 
-0.008691 -0.171828 1.038724 
-0.006947 -0.172126 1.040525 
-0.005195 -0.172362 1.041952 
-0.003441 -0.172739 1.044233 
-0.001679 -0.173151 1.046720 
0.000090 -0.173740 1.050281 
0.005568 -0.178568 1.079466 
0.007448 -0.179901 1.087525 
0.009339 -0.180915 1.093658 
0.011190 -0.180954 1.093889 
0.013038 -0.180936 1.093780 
0.014896 -0.181043 1.094432 
0.016758 -0.181178 1.095245 
0.018629 -0.181368 1.096393 
0.020509 -0.181601 1.097806 
0.022410 -0.181964 1.099996 
0.024316 -0.182310 1.102089 
0.026226 -0.182642 1.104097 
0.028123 -0.182838 1.105283 
0.030200 -0.184110 1.112971 
-0.096233 -0.166581 1.017430 
-0.094424 -0.166423 1.016467 
-0.092605 -0.166242 1.015363 
-0.090708 -0.165912 1.013347 
-0.088788 -0.165527 1.010992 
-0.086845 -0.165083 1.008282 
-0.084937 -0.164688 1.005867 
-0.083033 -0.164286 1.003411 
-0.081126 -0.163859 1.000808 
-0.079294 -0.163570 0.999039 
-0.077494 -0.163337 0.997617 
-0.075689 -0.163082 0.996061 
-0.073931 -0.162919 0.995064 
-0.072206 -0.162823 0.994476 
-0.070484 -0.162728 0.993898 
-0.068765 -0.162634 0.993327 
-0.067098 -0.162667 0.993522 
-0.065534 -0.162954 0.995276 
-0.064012 -0.163363 0.997774 
-0.062522 -0.163878 1.000919 
-0.061083 -0.164561 1.005094 
-0.059635 -0.165256 1.009335 
-0.058088 -0.165710 1.012114 
-0.056503 -0.166082 1.014386 
-0.054905 -0.166434 1.016536 
-0.053271 -0.166700 1.018157 
-0.051619 -0.166925 1.019534 
-0.049958 -0.167135 1.020812 
-0.048294 -0.167348 1.022113 
-0.046603 -0.167480 1.022922 
-0.044890 -0.167540 1.023286 
-0.043176 -0.167603 1.023672 
-0.041442 -0.167590 1.023592 
-0.039693 -0.167510 1.023103 
-0.037938 -0.167397 1.022412 
-0.036185 -0.167287 1.021742 
-0.034439 -0.167191 1.021159 
-0.032720 -0.167233 1.021411 
-0.031020 -0.167374 1.022276 
-0.029317 -0.167520 1.023164 
-0.027614 -0.167682 1.024155 
-0.025901 -0.167800 1.024874 
-0.024182 -0.167894 1.025450 
-0.022461 -0.167989 1.026033 
-0.020741 -0.168108 1.026760 
-0.019022 -0.168255 1.027653 
-0.017305 -0.168454 1.028872 
-0.015591 -0.168732 1.030566 
-0.013874 -0.169034 1.032415 
-0.012151 -0.169345 1.034313 
-0.010425 -0.169708 1.036530 
-0.008693 -0.170107 1.038966 
-0.006949 -0.170419 1.040874 
-0.005196 -0.170635 1.042195 
-0.003442 -0.171027 1.044588 
-0.001681 -0.171491 1.047423 
0.000090 -0.171891 1.049860 
0.001883 -0.175317 1.059815 
0.001883 -0.173489 1.059620 
0.003711 -0.177040 1.070233 
0.003710 -0.175214 1.070161 
0.005568 -0.176753 1.079560 
0.007447 -0.178048 1.087470 
0.009348 -0.179237 1.094733 
0.011198 -0.179232 1.094701 
0.013047 -0.179214 1.094587 
0.014905 -0.179301 1.095122 
0.016769 -0.179435 1.095941 
0.018641 -0.179621 1.097076 
0.020522 -0.179852 1.098489 
0.022421 -0.180191 1.100559 
0.024325 -0.180512 1.102520 
0.026233 -0.180817 1.104379 
0.028123 -0.180964 1.105276 
-0.096201 -0.164801 1.017087 
-0.094395 -0.164650 1.016155 
-0.092568 -0.164457 1.014965 
-0.090676 -0.164137 1.012993 
-0.088756 -0.163755 1.010632 
-0.086814 -0.163315 1.007918 
-0.084899 -0.162910 1.005419 
-0.082997 -0.162513 1.002970 
-0.081099 -0.162109 1.000474 
-0.079260 -0.161807 0.998613 
-0.077461 -0.161576 0.997187 
-0.075664 -0.161339 0.995723 
-0.073913 -0.161192 0.994818 
-0.072189 -0.161097 0.994231 
-0.070475 -0.161022 0.993766 
-0.068764 -0.160949 0.993314 
-0.067096 -0.160977 0.993491 
-0.065530 -0.161256 0.995211 
-0.064006 -0.161656 0.997682 
-0.062517 -0.162168 1.000837 
-0.061079 -0.162847 1.005030 
-0.059633 -0.163539 1.009300 
-0.058087 -0.163993 1.012104 
-0.056503 -0.164362 1.014382 
-0.054905 -0.164711 1.016536 
-0.053277 -0.164991 1.018264 
-0.051637 -0.165252 1.019874 
-0.049976 -0.165464 1.021180 
-0.048323 -0.165714 1.022723 
-0.046641 -0.165880 1.023749 
-0.044932 -0.165961 1.024246 
-0.043208 -0.165988 1.024417 
-0.041481 -0.166010 1.024549 
-0.039726 -0.165913 1.023954 
-0.037967 -0.165789 1.023190 
-0.036209 -0.165664 1.022414 
-0.034464 -0.165584 1.021921 
-0.032737 -0.165586 1.021937 
-0.031035 -0.165721 1.022765 
-0.029330 -0.165862 1.023635 
-0.027624 -0.166003 1.024508 
-0.025907 -0.166102 1.025116 
-0.024190 -0.166211 1.025789 
-0.022468 -0.166306 1.026376 
-0.020746 -0.166409 1.027011 
-0.019028 -0.166570 1.028009 
-0.017311 -0.166767 1.029220 
-0.015595 -0.167022 1.030794 
-0.013877 -0.167321 1.032642 
-0.012154 -0.167628 1.034539 
-0.010426 -0.167971 1.036652 
-0.008693 -0.168347 1.038973 
-0.006948 -0.168635 1.040753 
-0.005195 -0.168828 1.041944 
-0.003441 -0.169215 1.044333 
-0.001680 -0.169677 1.047185 
0.000090 -0.170094 1.049758 
0.003712 -0.173493 1.070732 
0.005572 -0.175041 1.080285 
0.007453 -0.176343 1.088320 
0.009356 -0.177537 1.095690 
0.011205 -0.177493 1.095421 
0.013056 -0.177478 1.095328 
0.014915 -0.177564 1.095859 
0.016780 -0.177696 1.096673 
0.018653 -0.177875 1.097780 
0.020535 -0.178106 1.099203 
0.022436 -0.178441 1.101268 
0.024339 -0.178742 1.103127 
0.026244 -0.179020 1.104844 
0.028131 -0.179141 1.105591 
-0.096160 -0.163008 1.016658 
-0.094347 -0.162844 1.015638 
-0.092526 -0.162661 1.014494 
-0.090644 -0.162362 1.012633 
-0.088725 -0.161985 1.010278 
-0.086803 -0.161585 1.007785 
-0.084897 -0.161202 1.005397 
-0.082995 -0.160810 1.002952 
-0.081106 -0.160426 1.000558 
-0.079265 -0.160125 0.998681 
-0.077457 -0.159879 0.997145 
-0.075660 -0.159643 0.995675 
-0.073908 -0.159496 0.994755 
-0.072185 -0.159403 0.994178 
-0.070472 -0.159331 0.993728 
-0.068762 -0.159262 0.993297 
-0.067095 -0.159291 0.993478 
-0.065523 -0.159551 0.995099 
-0.063990 -0.159924 0.997423 
-0.062506 -0.160444 1.000666 
-0.061069 -0.161117 1.004866 
-0.059625 -0.161807 1.009166 
-0.058087 -0.162276 1.012093 
-0.056509 -0.162658 1.014478 
-0.054905 -0.162988 1.016536 
-0.053277 -0.163265 1.018264 
-0.051637 -0.163525 1.019882 
-0.049977 -0.163735 1.021192 
-0.048324 -0.163984 1.022747 
-0.046642 -0.164149 1.023774 
-0.044933 -0.164228 1.024270 
-0.043203 -0.164235 1.024314 
-0.041481 -0.164274 1.024553 
-0.039731 -0.164197 1.024074 
-0.037976 -0.164097 1.023453 
-0.036223 -0.163995 1.022814 
-0.034481 -0.163934 1.022432 
-0.032753 -0.163932 1.022423 
-0.031046 -0.164045 1.023129 
-0.029338 -0.164167 1.023886 
-0.027627 -0.164286 1.024630 
-0.025910 -0.164382 1.025227 
-0.024190 -0.164474 1.025800 
-0.022469 -0.164569 1.026396 
-0.020747 -0.164673 1.027045 
-0.019029 -0.164830 1.028025 
-0.017311 -0.165023 1.029225 
-0.015594 -0.165271 1.030776 
-0.013877 -0.165569 1.032635 
-0.012154 -0.165874 1.034536 
-0.010426 -0.166213 1.036652 
-0.008692 -0.166566 1.038854 
-0.006947 -0.166848 1.040612 
-0.005194 -0.167037 1.041788 
-0.003441 -0.167420 1.044177 
-0.001680 -0.167877 1.047025 
0.000090 -0.168327 1.049834 
0.005567 -0.173061 1.079360 
0.007448 -0.174381 1.087591 
0.009351 -0.175586 1.095109 
0.011213 -0.175753 1.096149 
0.013066 -0.175757 1.096172 
0.014928 -0.175862 1.096829 
0.016797 -0.176014 1.097778 
0.018674 -0.176213 1.099020 
0.020561 -0.176462 1.100570 
0.022461 -0.176774 1.102515 
0.024360 -0.177031 1.104118 
0.026261 -0.177261 1.105555 
0.028145 -0.177357 1.106150 
-0.094291 -0.161028 1.015042 
-0.092479 -0.160860 1.013982 
-0.090612 -0.160588 1.012272 
-0.088694 -0.160217 1.009928 
-0.086792 -0.159858 1.007668 
-0.084898 -0.159499 1.005405 
-0.082996 -0.159112 1.002968 
-0.081114 -0.158746 1.000657 
-0.079272 -0.158446 0.998765 
-0.077456 -0.158186 0.997128 
-0.075651 -0.157936 0.995553 
-0.073892 -0.157775 0.994538 
-0.072169 -0.157683 0.993954 
-0.070457 -0.157612 0.993507 
-0.068748 -0.157546 0.993095 
-0.067084 -0.157579 0.993301 
-0.065511 -0.157837 0.994926 
-0.063965 -0.158173 0.997046 
-0.062473 -0.158665 1.000144 
-0.061030 -0.159311 1.004220 
-0.059586 -0.159992 1.008512 
-0.058055 -0.160474 1.011549 
-0.056490 -0.160887 1.014153 
-0.054893 -0.161230 1.016318 
-0.053271 -0.161522 1.018159 
-0.051637 -0.161794 1.019874 
-0.049976 -0.162002 1.021180 
-0.048323 -0.162247 1.022723 
-0.046636 -0.162391 1.023633 
-0.044921 -0.162449 1.024003 
-0.043187 -0.162436 1.023920 
-0.041469 -0.162488 1.024246 
-0.039723 -0.162431 1.023887 
-0.037979 -0.162374 1.023527 
-0.036235 -0.162312 1.023137 
-0.034500 -0.162288 1.022985 
-0.032771 -0.162289 1.022990 
-0.031060 -0.162384 1.023590 
-0.029347 -0.162485 1.024224 
-0.027633 -0.162585 1.024858 
-0.025913 -0.162661 1.025339 
-0.024190 -0.162735 1.025800 
-0.022469 -0.162829 1.026396 
-0.020747 -0.162932 1.027045 
-0.019027 -0.163070 1.027912 
-0.017309 -0.163259 1.029103 
-0.015591 -0.163488 1.030549 
-0.013874 -0.163781 1.032395 
-0.012151 -0.164083 1.034302 
-0.010425 -0.164438 1.036534 
-0.008690 -0.164769 1.038622 
-0.006946 -0.165062 1.040469 
-0.005193 -0.165245 1.041626 
-0.003440 -0.165626 1.044026 
-0.001679 -0.166046 1.046674 
0.000090 -0.166505 1.049570 
0.001881 -0.169786 1.058934 
0.001878 -0.167705 1.057128 
0.007438 -0.172294 1.086057 
0.009341 -0.173555 1.094007 
0.011220 -0.174004 1.096836 
0.013080 -0.174088 1.097364 
0.014947 -0.174217 1.098178 
0.016822 -0.174410 1.099398 
0.018702 -0.174616 1.100695 
0.020592 -0.174862 1.102244 
0.022490 -0.175131 1.103939 
0.024388 -0.175355 1.105356 
0.026281 -0.175518 1.106381 
0.028162 -0.175588 1.106819 
-0.094198 -0.159150 1.014040 
-0.092405 -0.159014 1.013171 
-0.090569 -0.158797 1.011791 
-0.088664 -0.158451 1.009586 
-0.086792 -0.158150 1.007666 
-0.084909 -0.157816 1.005537 
-0.083018 -0.157453 1.003226 
-0.081143 -0.157107 1.001022 
-0.079301 -0.156810 0.999128 
-0.077476 -0.156535 0.997378 
-0.075670 -0.156288 0.995803 
-0.073910 -0.156127 0.994779 
-0.072178 -0.156018 0.994084 
-0.070465 -0.155947 0.993630 
-0.068770 -0.155912 0.993406 
-0.067120 -0.155979 0.993838 
-0.065542 -0.156223 0.995392 
-0.063988 -0.156539 0.997404 
-0.062487 -0.157003 1.000359 
-0.061021 -0.157586 1.004074 
-0.059559 -0.158209 1.008047 
-0.058028 -0.158684 1.011073 
-0.056471 -0.159112 1.013796 
-0.054880 -0.159470 1.016080 
-0.053265 -0.159779 1.018045 
-0.051631 -0.160047 1.019755 
-0.049970 -0.160249 1.021045 
-0.048310 -0.160470 1.022452 
-0.046618 -0.160595 1.023245 
-0.044898 -0.160631 1.023478 
-0.043164 -0.160616 1.023383 
-0.041442 -0.160649 1.023593 
-0.039703 -0.160613 1.023364 
-0.037964 -0.160576 1.023128 
-0.036226 -0.160539 1.022887 
-0.034496 -0.160537 1.022874 
-0.032775 -0.160574 1.023113 
-0.031064 -0.160671 1.023728 
-0.029352 -0.160772 1.024374 
-0.027637 -0.160868 1.024989 
-0.025915 -0.160941 1.025450 
-0.024190 -0.160994 1.025789 
-0.022468 -0.161086 1.026376 
-0.020746 -0.161186 1.027011 
-0.019024 -0.161307 1.027781 
-0.017307 -0.161493 1.028967 
-0.015587 -0.161701 1.030293 
-0.013869 -0.161974 1.032032 
-0.012146 -0.162272 1.033935 
-0.010422 -0.162641 1.036283 
-0.008687 -0.162952 1.038267 
-0.006945 -0.163261 1.040231 
-0.005193 -0.163478 1.041614 
-0.003441 -0.163877 1.044158 
-0.001679 -0.164275 1.046693 
0.000090 -0.164745 1.049686 
0.001876 -0.165698 1.055758 
0.009311 -0.171145 1.090466 
0.011201 -0.171862 1.095037 
0.013079 -0.172207 1.097232 
0.014960 -0.172512 1.099174 
0.016838 -0.172713 1.100458 
0.018723 -0.172940 1.101902 
0.020615 -0.173183 1.103454 
0.022509 -0.173405 1.104869 
0.024402 -0.173580 1.105985 
0.026291 -0.173710 1.106809 
0.028169 -0.173754 1.107091 
-0.094110 -0.157283 1.013089 
-0.092325 -0.157161 1.012297 
-0.090525 -0.157007 1.011309 
-0.088633 -0.156685 1.009233 
-0.086774 -0.156408 1.007449 
-0.084902 -0.156098 1.005453 
-0.083021 -0.155759 1.003269 
-0.081148 -0.155419 1.001080 
-0.079298 -0.155111 0.999097 
-0.077472 -0.154838 0.997336 
-0.075665 -0.154591 0.995746 
-0.073905 -0.154430 0.994713 
-0.072173 -0.154322 0.994015 
-0.070467 -0.154266 0.993653 
-0.068771 -0.154231 0.993425 
-0.067135 -0.154330 0.994067 
-0.065551 -0.154558 0.995534 
-0.063990 -0.154853 0.997433 
-0.062493 -0.155322 1.000452 
-0.061018 -0.155876 1.004022 
-0.059542 -0.156456 1.007761 
-0.058018 -0.156942 1.010888 
-0.056467 -0.157382 1.013724 
-0.054873 -0.157727 1.015945 
-0.053265 -0.158051 1.018034 
-0.051625 -0.158300 1.019640 
-0.049964 -0.158499 1.020917 
-0.048298 -0.158698 1.022202 
-0.046601 -0.158803 1.022874 
-0.044877 -0.158820 1.022985 
-0.043143 -0.158804 1.022886 
-0.041418 -0.158820 1.022985 
-0.039684 -0.158803 1.022874 
-0.037951 -0.158785 1.022763 
-0.036214 -0.158752 1.022545 
-0.034489 -0.158767 1.022648 
-0.032768 -0.158807 1.022903 
-0.031055 -0.158888 1.023421 
-0.029343 -0.158986 1.024056 
-0.027631 -0.159097 1.024770 
-0.025910 -0.159169 1.025235 
-0.024187 -0.159237 1.025673 
-0.022468 -0.159344 1.026364 
-0.020746 -0.159442 1.026995 
-0.019024 -0.159561 1.027760 
-0.017306 -0.159745 1.028947 
-0.015587 -0.159950 1.030265 
-0.013868 -0.160218 1.031991 
-0.012146 -0.160511 1.033880 
-0.010422 -0.160879 1.036247 
-0.008686 -0.161171 1.038131 
-0.006943 -0.161461 1.040000 
-0.005193 -0.161695 1.041504 
-0.003440 -0.162094 1.044073 
-0.001679 -0.162455 1.046398 
0.000090 -0.162935 1.049491 
0.001873 -0.163651 1.054101 
0.011161 -0.169394 1.091094 
0.013056 -0.170045 1.095288 
0.014956 -0.170602 1.098874 
0.016854 -0.171009 1.101498 
0.018742 -0.171250 1.103047 
0.020636 -0.171490 1.104597 
0.022526 -0.171665 1.105723 
0.024414 -0.171795 1.106561 
0.026304 -0.171916 1.107341 
0.028179 -0.171939 1.107485 
-0.094068 -0.155497 1.012640 
-0.092281 -0.155371 1.011818 
-0.090492 -0.155235 1.010934 
-0.088611 -0.154935 1.008978 
-0.086753 -0.154664 1.007212 
-0.084900 -0.154390 1.005431 
-0.083038 -0.154089 1.003469 
-0.081166 -0.153756 1.001301 
-0.079324 -0.153469 0.999429 
-0.077498 -0.153197 0.997660 
-0.075688 -0.152949 0.996044 
-0.073920 -0.152775 0.994910 
-0.072188 -0.152668 0.994215 
-0.070475 -0.152600 0.993771 
-0.068779 -0.152564 0.993536 
-0.067136 -0.152647 0.994080 
-0.065552 -0.152873 0.995549 
-0.063984 -0.153148 0.997342 
-0.062492 -0.153623 1.000437 
-0.061017 -0.154170 1.003996 
-0.059540 -0.154743 1.007729 
-0.058017 -0.155226 1.010875 
-0.056471 -0.155677 1.013812 
-0.054872 -0.156003 1.015937 
-0.053265 -0.156325 1.018034 
-0.051619 -0.156556 1.019533 
-0.049958 -0.156750 1.020802 
-0.048288 -0.156931 1.021976 
-0.046586 -0.157017 1.022537 
-0.044857 -0.157017 1.022537 
-0.043128 -0.157017 1.022537 
-0.041400 -0.157017 1.022537 
-0.039667 -0.157000 1.022430 
-0.037934 -0.156983 1.022316 
-0.036198 -0.156947 1.022083 
-0.034469 -0.156945 1.022071 
-0.032753 -0.156999 1.022418 
-0.031039 -0.157076 1.022924 
-0.029332 -0.157192 1.023676 
-0.027624 -0.157320 1.024513 
-0.025907 -0.157410 1.025099 
-0.024182 -0.157465 1.025458 
-0.022466 -0.157589 1.026260 
-0.020744 -0.157686 1.026892 
-0.019020 -0.157786 1.027548 
-0.017303 -0.157968 1.028730 
-0.015585 -0.158185 1.030145 
-0.013867 -0.158450 1.031871 
-0.012144 -0.158741 1.033764 
-0.010422 -0.159119 1.036229 
-0.008686 -0.159410 1.038124 
-0.006943 -0.159697 1.039988 
-0.005192 -0.159928 1.041495 
-0.003440 -0.160323 1.044067 
-0.001679 -0.160665 1.046293 
0.000090 -0.161139 1.049381 
0.001870 -0.161592 1.052328 
0.003679 -0.164748 1.061172 
0.003667 -0.162415 1.057694 
0.011118 -0.166891 1.086838 
0.013030 -0.167859 1.093146 
0.014952 -0.168694 1.098579 
0.016875 -0.169348 1.102839 
0.018763 -0.169563 1.104244 
0.020656 -0.169777 1.105634 
0.022542 -0.169911 1.106504 
0.024426 -0.169999 1.107077 
0.026313 -0.170100 1.107735 
0.028370 -0.171216 1.115004 
-0.094066 -0.153777 1.012615 
-0.092267 -0.153632 1.011661 
-0.090470 -0.153485 1.010691 
-0.088588 -0.153185 1.008719 
-0.086722 -0.152902 1.006853 
-0.084870 -0.152632 1.005075 
-0.083017 -0.152349 1.003216 
-0.081163 -0.152053 1.001264 
-0.079322 -0.151770 0.999397 
-0.077495 -0.151501 0.997631 
-0.075685 -0.151255 0.996007 
-0.073917 -0.151082 0.994867 
-0.072179 -0.150964 0.994093 
-0.070467 -0.150897 0.993653 
-0.068779 -0.150879 0.993534 
-0.067135 -0.150960 0.994067 
-0.065544 -0.151166 0.995420 
-0.063975 -0.151436 0.997202 
-0.062477 -0.151892 1.000207 
-0.061005 -0.152438 1.003798 
-0.059531 -0.153012 1.007581 
-0.058014 -0.153505 1.010823 
-0.056475 -0.153968 1.013874 
-0.054880 -0.154303 1.016078 
-0.053271 -0.154619 1.018163 
-0.051625 -0.154845 1.019647 
-0.049963 -0.155036 1.020908 
-0.048288 -0.155198 1.021976 
-0.046581 -0.155267 1.022430 
-0.044847 -0.155250 1.022316 
-0.043114 -0.155232 1.022197 
-0.041385 -0.155231 1.022189 
-0.039649 -0.155198 1.021976 
-0.037921 -0.155196 1.021959 
-0.036184 -0.155158 1.021712 
-0.034456 -0.155152 1.021672 
-0.032735 -0.155184 1.021881 
-0.031023 -0.155260 1.022379 
-0.029313 -0.155358 1.023024 
-0.027610 -0.155504 1.023988 
-0.025897 -0.155616 1.024727 
-0.024177 -0.155692 1.025228 
-0.022464 -0.155834 1.026160 
-0.020744 -0.155948 1.026910 
-0.019022 -0.156062 1.027663 
-0.017305 -0.156242 1.028851 
-0.015587 -0.156459 1.030277 
-0.013869 -0.156722 1.032011 
-0.012146 -0.157011 1.033914 
-0.010422 -0.157369 1.036267 
-0.008686 -0.157654 1.038143 
-0.006942 -0.157916 1.039869 
-0.005192 -0.158141 1.041352 
-0.003439 -0.158510 1.043786 
-0.001678 -0.158830 1.045890 
0.000090 -0.159280 1.048856 
0.001868 -0.159709 1.051677 
0.003659 -0.160275 1.055404 
0.005483 -0.163227 1.062976 
0.005463 -0.160836 1.059100 
0.012979 -0.165352 1.088838 
0.014920 -0.166470 1.096202 
0.016866 -0.167390 1.102259 
0.018777 -0.167815 1.105058 
0.020666 -0.167984 1.106170 
0.022548 -0.168076 1.106772 
0.024428 -0.168141 1.107202 
0.026316 -0.168243 1.107874 
-0.094053 -0.152040 1.012480 
-0.092247 -0.151884 1.011440 
-0.090442 -0.151724 1.010377 
-0.088567 -0.151439 1.008476 
-0.086691 -0.151140 1.006488 
-0.084831 -0.150859 1.004614 
-0.082987 -0.150595 1.002857 
-0.081143 -0.150318 1.001016 
-0.079303 -0.150040 0.999165 
-0.077478 -0.149778 0.997414 
-0.075685 -0.149565 0.996000 
-0.073916 -0.149393 0.994854 
-0.072179 -0.149279 0.994093 
-0.070466 -0.149212 0.993645 
-0.068792 -0.149223 0.993720 
-0.067141 -0.149287 0.994148 
-0.065549 -0.149490 0.995501 
-0.063980 -0.149757 0.997279 
-0.062489 -0.150226 1.000402 
-0.061018 -0.150770 1.004025 
-0.059553 -0.151360 1.007952 
-0.058037 -0.151851 1.011222 
-0.056502 -0.152323 1.014364 
-0.054906 -0.152651 1.016552 
-0.053290 -0.152948 1.018524 
-0.051638 -0.153153 1.019891 
-0.049974 -0.153340 1.021136 
-0.048288 -0.153466 1.021976 
-0.046570 -0.153500 1.022201 
-0.044831 -0.153463 1.021956 
-0.043093 -0.153426 1.021707 
-0.041361 -0.153408 1.021588 
-0.039626 -0.153375 1.021368 
-0.037898 -0.153373 1.021356 
-0.036163 -0.153334 1.021095 
-0.034431 -0.153311 1.020943 
-0.032708 -0.153325 1.021037 
-0.030997 -0.153397 1.021514 
-0.029288 -0.153494 1.022164 
-0.027590 -0.153658 1.023258 
-0.025885 -0.153806 1.024243 
-0.024171 -0.153917 1.024981 
-0.022461 -0.154076 1.026038 
-0.020744 -0.154204 1.026892 
-0.019022 -0.154320 1.027665 
-0.017305 -0.154500 1.028860 
-0.015589 -0.154733 1.030410 
-0.013869 -0.154979 1.032052 
-0.012147 -0.155265 1.033954 
-0.010421 -0.155599 1.036181 
-0.008685 -0.155878 1.038036 
-0.006940 -0.156101 1.039526 
-0.005190 -0.156336 1.041092 
-0.003438 -0.156682 1.043394 
-0.001677 -0.156994 1.045473 
0.000090 -0.157403 1.048193 
0.001867 -0.157821 1.050980 
0.003652 -0.158165 1.053270 
0.005444 -0.158505 1.055533 
0.007285 -0.161546 1.063776 
0.007251 -0.158992 1.058777 
0.014878 -0.164151 1.093131 
0.016843 -0.165302 1.100795 
0.018778 -0.165958 1.105163 
0.020667 -0.166121 1.106251 
0.022548 -0.166203 1.106799 
0.024426 -0.166245 1.107077 
0.026316 -0.166365 1.107875 
-0.094075 -0.150358 1.012714 
-0.092239 -0.150157 1.011355 
-0.090423 -0.149980 1.010167 
-0.088545 -0.149692 1.008228 
-0.086650 -0.149364 1.006014 
-0.084793 -0.149088 1.004158 
-0.082959 -0.148844 1.002514 
-0.081124 -0.148587 1.000783 
-0.079287 -0.148315 0.998951 
-0.077471 -0.148074 0.997325 
-0.075687 -0.147881 0.996025 
-0.073925 -0.147726 0.994983 
-0.072187 -0.147611 0.994211 
-0.070474 -0.147544 0.993759 
-0.068800 -0.147555 0.993833 
-0.067135 -0.147589 0.994058 
-0.065543 -0.147789 0.995411 
-0.063974 -0.148053 0.997183 
-0.062489 -0.148530 1.000399 
-0.061026 -0.149086 1.004146 
-0.059573 -0.149701 1.008284 
-0.058063 -0.150204 1.011677 
-0.056534 -0.150688 1.014937 
-0.054937 -0.151016 1.017143 
-0.053316 -0.151295 1.019021 
-0.051656 -0.151479 1.020264 
-0.049986 -0.151645 1.021381 
-0.048293 -0.151749 1.022083 
-0.046564 -0.151748 1.022070 
-0.044820 -0.151691 1.021688 
-0.043071 -0.151616 1.021185 
-0.041335 -0.151579 1.020932 
-0.039596 -0.151530 1.020605 
-0.037871 -0.151532 1.020618 
-0.036134 -0.151481 1.020278 
-0.034404 -0.151460 1.020136 
-0.032678 -0.151456 1.020103 
-0.030968 -0.151525 1.020573 
-0.029261 -0.151622 1.021224 
-0.027571 -0.151818 1.022542 
-0.025873 -0.151997 1.023753 
-0.024167 -0.152159 1.024839 
-0.022461 -0.152334 1.026023 
-0.020746 -0.152479 1.026995 
-0.019026 -0.152610 1.027880 
-0.017309 -0.152789 1.029083 
-0.015593 -0.153023 1.030658 
-0.013872 -0.153264 1.032284 
-0.012149 -0.153545 1.034174 
-0.010421 -0.153840 1.036163 
-0.008685 -0.154113 1.038001 
-0.006938 -0.154301 1.039268 
-0.005189 -0.154518 1.040729 
-0.003436 -0.154824 1.042794 
-0.001676 -0.155112 1.044733 
0.000090 -0.155492 1.047289 
0.001865 -0.155887 1.049954 
0.003648 -0.156209 1.052118 
0.005437 -0.156525 1.054246 
0.007235 -0.156858 1.056489 
0.009091 -0.159876 1.064663 
0.009060 -0.157536 1.061061 
0.016797 -0.162985 1.097757 
0.018749 -0.163832 1.103461 
0.020654 -0.164139 1.105528 
0.022541 -0.164270 1.106411 
0.024414 -0.164288 1.106538 
0.026475 -0.165482 1.114574 
-0.094090 -0.148665 1.012870 
-0.092262 -0.148479 1.011607 
-0.090441 -0.148298 1.010369 
-0.088562 -0.148012 1.008421 
-0.086657 -0.147671 1.006099 
-0.084799 -0.147398 1.004239 
-0.082958 -0.147143 1.002500 
-0.081131 -0.146904 1.000872 
-0.079303 -0.146652 0.999160 
-0.077497 -0.146431 0.997651 
-0.075721 -0.146258 0.996477 
-0.073967 -0.146122 0.995549 
-0.072229 -0.146010 0.994783 
-0.070514 -0.145942 0.994320 
-0.068838 -0.145952 0.994392 
-0.067172 -0.145986 0.994617 
-0.065581 -0.146186 0.995980 
-0.064003 -0.146429 0.997641 
-0.062504 -0.146870 1.000642 
-0.061038 -0.147414 1.004351 
-0.059579 -0.148007 1.008389 
-0.058069 -0.148506 1.011790 
-0.056548 -0.149004 1.015181 
-0.054964 -0.149363 1.017625 
-0.053337 -0.149625 1.019414 
-0.051676 -0.149807 1.020656 
-0.049998 -0.149950 1.021629 
-0.048293 -0.150018 1.022091 
-0.046554 -0.149980 1.021834 
-0.044803 -0.149903 1.021310 
-0.043045 -0.149795 1.020574 
-0.041305 -0.149739 1.020190 
-0.039567 -0.149690 1.019856 
-0.037840 -0.149677 1.019768 
-0.036108 -0.149646 1.019553 
-0.034383 -0.149641 1.019523 
-0.032659 -0.149638 1.019501 
-0.030953 -0.149722 1.020077 
-0.029250 -0.149832 1.020822 
-0.027560 -0.150029 1.022166 
-0.025866 -0.150225 1.023501 
-0.024165 -0.150404 1.024719 
-0.022458 -0.150580 1.025920 
-0.020746 -0.150740 1.027011 
-0.019026 -0.150870 1.027897 
-0.017309 -0.151046 1.029097 
-0.015591 -0.151259 1.030547 
-0.013869 -0.151480 1.032051 
-0.012146 -0.151754 1.033920 
-0.010417 -0.152025 1.035768 
-0.008681 -0.152297 1.037616 
-0.006936 -0.152498 1.038989 
-0.005188 -0.152733 1.040591 
-0.003435 -0.153021 1.042551 
-0.001676 -0.153303 1.044474 
0.000090 -0.153641 1.046777 
0.001864 -0.154011 1.049295 
0.003645 -0.154311 1.051341 
0.005434 -0.154627 1.053494 
0.007231 -0.154978 1.055882 
0.009046 -0.155496 1.059410 
0.010936 -0.158733 1.069120 
0.010909 -0.156523 1.066410 
0.016737 -0.160546 1.093818 
0.018705 -0.161577 1.100842 
0.020623 -0.162027 1.103913 
0.022521 -0.162251 1.105436 
0.024557 -0.163366 1.113031 
-0.094083 -0.146937 1.012795 
-0.092253 -0.146749 1.011502 
-0.090431 -0.146569 1.010258 
-0.088563 -0.146304 1.008431 
-0.086659 -0.145968 1.006120 
-0.084801 -0.145698 1.004259 
-0.082967 -0.145460 1.002616 
-0.081150 -0.145241 1.001104 
-0.079322 -0.144993 0.999396 
-0.077524 -0.144791 0.998006 
-0.075748 -0.144621 0.996830 
-0.073995 -0.144489 0.995922 
-0.072256 -0.144378 0.995161 
-0.070550 -0.144329 0.994818 
-0.068872 -0.144338 0.994883 
-0.067212 -0.144385 0.995207 
-0.065613 -0.144568 0.996466 
-0.064034 -0.144807 0.998113 
-0.062520 -0.145210 1.000891 
-0.061045 -0.145729 1.004468 
-0.059578 -0.146296 1.008375 
-0.058075 -0.146806 1.011891 
-0.056555 -0.147302 1.015313 
-0.054978 -0.147677 1.017898 
-0.053350 -0.147935 1.019677 
-0.051689 -0.148113 1.020903 
-0.049999 -0.148220 1.021641 
-0.048283 -0.148254 1.021873 
-0.046533 -0.148183 1.021384 
-0.044778 -0.148090 1.020745 
-0.043012 -0.147949 1.019774 
-0.041271 -0.147891 1.019370 
-0.039539 -0.147856 1.019134 
-0.037817 -0.147860 1.019157 
-0.036091 -0.147846 1.019060 
-0.034374 -0.147873 1.019250 
-0.032650 -0.147869 1.019223 
-0.030945 -0.147954 1.019804 
-0.029246 -0.148080 1.020678 
-0.027557 -0.148277 1.022035 
-0.025863 -0.148473 1.023386 
-0.024167 -0.148684 1.024839 
-0.022461 -0.148861 1.026055 
-0.020749 -0.149021 1.027164 
-0.019031 -0.149163 1.028136 
-0.017313 -0.149335 1.029327 
-0.015591 -0.149513 1.030552 
-0.013867 -0.149711 1.031914 
-0.012144 -0.149978 1.033756 
-0.010413 -0.150214 1.035381 
-0.008678 -0.150483 1.037236 
-0.006935 -0.150700 1.038732 
-0.005187 -0.150950 1.040459 
-0.003435 -0.151237 1.042433 
-0.001676 -0.151532 1.044466 
0.000090 -0.151864 1.046759 
0.001864 -0.152245 1.049387 
0.003646 -0.152545 1.051453 
0.005434 -0.152859 1.053618 
0.007233 -0.153228 1.056156 
0.009039 -0.153574 1.058547 
0.010886 -0.154390 1.064168 
0.018640 -0.159152 1.096994 
0.020571 -0.159751 1.101121 
0.022481 -0.160094 1.103482 
-0.094056 -0.145179 1.012508 
-0.092229 -0.144997 1.011238 
-0.090421 -0.144840 1.010146 
-0.088577 -0.144618 1.008596 
-0.086682 -0.144301 1.006383 
-0.084823 -0.144033 1.004514 
-0.082996 -0.143811 1.002967 
-0.081171 -0.143580 1.001360 
-0.079350 -0.143350 0.999753 
-0.077560 -0.143166 0.998471 
-0.075791 -0.143012 0.997396 
-0.074038 -0.142883 0.996497 
-0.072305 -0.142789 0.995838 
-0.070598 -0.142741 0.995504 
-0.068913 -0.142737 0.995477 
-0.067253 -0.142784 0.995809 
-0.065651 -0.142962 0.997047 
