1614
-0.038511 -0.145295 1.037858 
-0.036760 -0.145310 1.037968 
-0.035025 -0.145393 1.038557 
-0.033290 -0.145483 1.039200 
-0.031554 -0.145577 1.039875 
-0.029824 -0.145714 1.040851 
-0.028094 -0.145866 1.041938 
-0.026355 -0.145993 1.042843 
-0.024622 -0.146170 1.044112 
-0.022887 -0.146365 1.045503 
-0.021150 -0.146576 1.047006 
-0.019404 -0.146754 1.048283 
-0.017651 -0.146916 1.049435 
-0.015896 -0.147090 1.050681 
-0.014135 -0.147249 1.051818 
-0.012374 -0.147462 1.053337 
-0.010614 -0.147749 1.055386 
-0.008848 -0.148043 1.057489 
-0.007073 -0.148322 1.059479 
-0.005293 -0.148623 1.061633 
-0.003502 -0.148774 1.062711 
-0.001707 -0.148916 1.063726 
0.000092 -0.149058 1.064739 
0.001895 -0.149309 1.066533 
0.003704 -0.149559 1.068316 
0.005524 -0.149934 1.070992 
0.007352 -0.150290 1.073535 
0.009191 -0.150692 1.076411 
0.011033 -0.150996 1.078582 
0.012881 -0.151279 1.080604 
0.014736 -0.151577 1.082729 
0.016609 -0.151964 1.085498 
0.018498 -0.152407 1.088659 
0.020412 -0.152957 1.092585 
0.022352 -0.153599 1.097176 
0.024300 -0.154188 1.101383 
0.026248 -0.154697 1.105020 
0.028184 -0.155070 1.107679 
0.030103 -0.155307 1.109374 
0.032006 -0.155443 1.110346 
0.033904 -0.155537 1.111021 
0.035796 -0.155597 1.111447 
-0.107161 -0.143835 1.040022 
-0.105346 -0.143757 1.039458 
-0.103555 -0.143710 1.039122 
-0.101745 -0.143635 1.038579 
-0.099913 -0.143525 1.037782 
-0.098100 -0.143440 1.037166 
-0.096252 -0.143299 1.036149 
-0.094353 -0.143076 1.034532 
-0.092490 -0.142899 1.033253 
-0.090665 -0.142776 1.032364 
-0.088869 -0.142695 1.031777 
-0.087126 -0.142696 1.031788 
-0.085440 -0.142795 1.032499 
-0.083765 -0.142915 1.033369 
-0.082118 -0.143089 1.034627 
-0.080475 -0.143278 1.035993 
-0.078854 -0.143514 1.037705 
-0.077202 -0.143705 1.039081 
-0.075571 -0.143944 1.040813 
-0.073910 -0.144137 1.042207 
-0.072236 -0.144312 1.043472 
-0.070508 -0.144386 1.044004 
-0.068735 -0.144369 1.043885 
-0.066921 -0.144263 1.043118 
-0.065071 -0.144072 1.041734 
-0.063225 -0.143879 1.040340 
-0.061392 -0.143704 1.039077 
-0.059592 -0.143601 1.038328 
-0.057804 -0.143519 1.037740 
-0.056044 -0.143504 1.037626 
-0.054289 -0.143503 1.037621 
-0.052535 -0.143504 1.037626 
-0.050787 -0.143519 1.037740 
-0.049033 -0.143520 1.037748 
-0.047284 -0.143536 1.037858 
-0.045529 -0.143536 1.037858 
-0.043774 -0.143536 1.037858 
-0.042020 -0.143536 1.037858 
-0.040265 -0.143536 1.037858 
-0.038511 -0.143536 1.037858 
-0.036756 -0.143536 1.037858 
-0.035021 -0.143616 1.038438 
-0.033286 -0.143704 1.039077 
-0.031550 -0.143798 1.039756 
-0.029821 -0.143935 1.040745 
-0.028094 -0.144101 1.041944 
-0.026358 -0.144241 1.042957 
-0.024625 -0.144419 1.044244 
-0.022893 -0.144627 1.045751 
-0.021155 -0.144837 1.047267 
-0.019409 -0.145013 1.048541 
-0.017655 -0.145172 1.049691 
-0.015899 -0.145344 1.050937 
-0.014137 -0.145486 1.051960 
-0.012373 -0.145663 1.053243 
-0.010612 -0.145924 1.055128 
-0.008844 -0.146193 1.057076 
-0.007070 -0.146467 1.059057 
-0.005290 -0.146752 1.061111 
-0.003501 -0.146933 1.062427 
-0.001707 -0.147091 1.063568 
0.000092 -0.147233 1.064593 
0.001895 -0.147498 1.066506 
0.003704 -0.147764 1.068434 
0.005524 -0.148136 1.071118 
0.007352 -0.148469 1.073530 
0.009190 -0.148845 1.076251 
0.011027 -0.149090 1.078022 
0.012871 -0.149334 1.079785 
0.014720 -0.149573 1.081516 
0.016582 -0.149882 1.083745 
0.018458 -0.150239 1.086326 
0.020362 -0.150737 1.089930 
0.022301 -0.151388 1.094638 
0.024257 -0.152050 1.099425 
0.026222 -0.152673 1.103924 
0.028178 -0.153158 1.107437 
0.030114 -0.153483 1.109787 
0.032022 -0.153636 1.110892 
0.033920 -0.153726 1.111539 
0.035804 -0.153747 1.111690 
-0.107097 -0.141986 1.039394 
-0.105310 -0.141947 1.039108 
-0.103559 -0.141955 1.039164 
-0.101782 -0.141925 1.038949 
-0.099996 -0.141884 1.038645 
-0.098204 -0.141832 1.038269 
-0.096377 -0.141727 1.037498 
-0.094487 -0.141523 1.036005 
-0.092623 -0.141350 1.034737 
-0.090784 -0.141211 1.033722 
-0.088984 -0.141128 1.033113 
-0.087228 -0.141113 1.033003 
-0.085541 -0.141210 1.033711 
-0.083856 -0.141316 1.034488 
-0.082188 -0.141455 1.035504 
-0.080534 -0.141625 1.036747 
-0.078892 -0.141824 1.038210 
-0.077231 -0.141997 1.039473 
-0.075600 -0.142235 1.041214 
-0.073947 -0.142442 1.042732 
-0.072273 -0.142616 1.044006 
-0.070551 -0.142703 1.044642 
-0.068769 -0.142670 1.044399 
-0.066945 -0.142546 1.043495 
-0.065093 -0.142354 1.042085 
-0.063239 -0.142147 1.040570 
-0.061399 -0.141960 1.039200 
-0.059592 -0.141841 1.038329 
-0.057797 -0.141742 1.037609 
-0.056024 -0.141694 1.037252 
-0.054269 -0.141692 1.037238 
-0.052517 -0.141694 1.037252 
-0.050775 -0.141727 1.037499 
-0.049027 -0.141745 1.037630 
-0.047284 -0.141776 1.037858 
-0.045529 -0.141776 1.037858 
-0.043774 -0.141776 1.037858 
-0.042020 -0.141776 1.037858 
-0.040265 -0.141776 1.037858 
-0.038511 -0.141776 1.037858 
-0.036756 -0.141776 1.037858 
-0.035021 -0.141856 1.038438 
-0.033286 -0.141943 1.039077 
-0.031550 -0.142036 1.039756 
-0.029824 -0.142186 1.040860 
-0.028097 -0.142352 1.042071 
-0.026364 -0.142508 1.043214 
-0.024631 -0.142683 1.044498 
-0.022901 -0.142907 1.046132 
-0.021161 -0.143098 1.047535 
-0.019414 -0.143273 1.048816 
-0.017660 -0.143429 1.049957 
-0.015904 -0.143599 1.051203 
-0.014139 -0.143725 1.052121 
-0.012375 -0.143897 1.053385 
-0.010611 -0.144121 1.055020 
-0.008841 -0.144352 1.056715 
-0.007068 -0.144620 1.058674 
-0.005288 -0.144887 1.060631 
-0.003499 -0.145069 1.061959 
-0.001706 -0.145257 1.063338 
0.000092 -0.145412 1.064476 
0.001894 -0.145661 1.066293 
0.003704 -0.145937 1.068316 
0.005524 -0.146303 1.070992 
0.007350 -0.146615 1.073276 
0.009186 -0.146953 1.075754 
0.011022 -0.147189 1.077484 
0.012863 -0.147410 1.079098 
0.014707 -0.147610 1.080562 
0.016562 -0.147861 1.082402 
0.018428 -0.148155 1.084555 
0.020318 -0.148568 1.087579 
0.022254 -0.149220 1.092350 
0.024216 -0.149935 1.097582 
0.026197 -0.150654 1.102844 
0.028173 -0.151253 1.107229 
0.030130 -0.151681 1.110365 
0.032039 -0.151832 1.111472 
0.033929 -0.151884 1.111852 
0.035804 -0.151865 1.111709 
-0.105318 -0.140195 1.039179 
-0.103584 -0.140227 1.039415 
-0.101825 -0.140224 1.039393 
-0.100068 -0.140224 1.039393 
-0.098278 -0.140177 1.039048 
-0.096461 -0.140089 1.038392 
-0.094591 -0.139920 1.037140 
-0.092735 -0.139766 1.035999 
-0.090896 -0.139631 1.034994 
-0.089102 -0.139562 1.034486 
-0.087343 -0.139546 1.034364 
-0.085635 -0.139612 1.034856 
-0.083938 -0.139699 1.035504 
-0.082250 -0.139804 1.036282 
-0.080583 -0.139952 1.037380 
-0.078931 -0.140133 1.038715 
-0.077270 -0.140306 1.039998 
-0.075639 -0.140543 1.041757 
-0.073995 -0.140765 1.043403 
-0.072320 -0.140938 1.044683 
-0.070597 -0.141024 1.045325 
-0.068820 -0.141004 1.045177 
-0.066994 -0.140879 1.044250 
-0.065139 -0.140687 1.042827 
-0.063277 -0.140466 1.041185 
-0.061428 -0.140263 1.039680 
-0.059606 -0.140112 1.038560 
-0.057802 -0.139996 1.037700 
-0.056014 -0.139912 1.037084 
-0.054260 -0.139910 1.037064 
-0.052507 -0.139911 1.037071 
-0.050768 -0.139949 1.037353 
-0.049022 -0.139970 1.037508 
-0.047284 -0.140017 1.037858 
-0.045529 -0.140017 1.037858 
-0.043774 -0.140017 1.037858 
-0.042020 -0.140017 1.037858 
-0.040265 -0.140017 1.037858 
-0.038511 -0.140017 1.037858 
-0.036756 -0.140017 1.037858 
-0.035021 -0.140095 1.038438 
-0.033286 -0.140181 1.039077 
-0.031550 -0.140273 1.039756 
-0.029824 -0.140423 1.040869 
-0.028097 -0.140587 1.042084 
-0.026362 -0.140728 1.043127 
-0.024629 -0.140900 1.044404 
-0.022901 -0.141136 1.046154 
-0.021161 -0.141326 1.047562 
-0.019414 -0.141500 1.048854 
-0.017664 -0.141684 1.050213 
-0.015907 -0.141852 1.051459 
-0.014142 -0.141976 1.052377 
-0.012378 -0.142146 1.053642 
-0.010613 -0.142365 1.055263 
-0.008842 -0.142577 1.056835 
-0.007069 -0.142842 1.058797 
-0.005288 -0.143091 1.060644 
-0.003499 -0.143269 1.061961 
-0.001706 -0.143456 1.063350 
0.000092 -0.143610 1.064490 
0.001894 -0.143838 1.066184 
0.003704 -0.144109 1.068190 
0.005523 -0.144453 1.070736 
0.007347 -0.144743 1.072891 
0.009181 -0.145060 1.075242 
0.011017 -0.145292 1.076956 
0.012855 -0.145491 1.078432 
0.014698 -0.145687 1.079890 
0.016548 -0.145902 1.081477 
0.018406 -0.146137 1.083223 
0.020298 -0.146581 1.086511 
0.022235 -0.147241 1.091406 
0.024202 -0.147986 1.096928 
0.026196 -0.148782 1.102825 
0.028190 -0.149466 1.107896 
0.030147 -0.149884 1.110995 
0.032056 -0.150031 1.112083 
0.033948 -0.150081 1.112453 
0.035818 -0.150039 1.112148 
0.037928 -0.152850 1.118920 
0.037707 -0.150074 1.112406 
-0.105377 -0.138511 1.039763 
-0.103650 -0.138552 1.040071 
-0.101900 -0.138564 1.040157 
-0.100151 -0.138577 1.040257 
-0.098359 -0.138530 1.039905 
-0.096542 -0.138445 1.039268 
-0.094682 -0.138295 1.038141 
-0.092836 -0.138160 1.037126 
-0.091005 -0.138042 1.036241 
-0.089211 -0.137976 1.035745 
-0.087450 -0.137960 1.035627 
-0.085739 -0.138025 1.036111 
-0.084039 -0.138110 1.036747 
-0.082337 -0.138194 1.037380 
-0.080666 -0.138337 1.038453 
-0.079012 -0.138514 1.039781 
-0.077350 -0.138686 1.041075 
-0.075719 -0.138922 1.042848 
-0.074074 -0.139144 1.044515 
-0.072389 -0.139300 1.045682 
-0.070657 -0.139370 1.046207 
-0.068871 -0.139336 1.045951 
-0.067037 -0.139199 1.044927 
-0.065181 -0.139009 1.043498 
-0.063310 -0.138774 1.041732 
-0.061452 -0.138556 1.040098 
-0.059620 -0.138385 1.038818 
-0.057809 -0.138252 1.037819 
-0.056014 -0.138152 1.037068 
-0.054259 -0.138148 1.037033 
-0.052506 -0.138150 1.037048 
-0.050767 -0.138188 1.037336 
-0.049021 -0.138210 1.037500 
-0.047284 -0.138258 1.037858 
-0.045529 -0.138258 1.037858 
-0.043770 -0.138243 1.037748 
-0.042015 -0.138242 1.037740 
-0.040261 -0.138241 1.037736 
-0.038506 -0.138242 1.037740 
-0.036752 -0.138243 1.037748 
-0.035021 -0.138335 1.038438 
-0.033286 -0.138420 1.039077 
-0.031550 -0.138511 1.039756 
-0.029827 -0.138673 1.040980 
-0.028101 -0.138836 1.042203 
-0.026365 -0.138975 1.043242 
-0.024631 -0.139144 1.044510 
-0.022906 -0.139390 1.046361 
-0.021163 -0.139565 1.047670 
-0.019416 -0.139738 1.048970 
-0.017668 -0.139935 1.050447 
-0.015911 -0.140101 1.051693 
-0.014146 -0.140225 1.052624 
-0.012381 -0.140395 1.053899 
-0.010616 -0.140611 1.055524 
-0.008843 -0.140804 1.056973 
-0.007069 -0.141062 1.058909 
-0.005288 -0.141291 1.060631 
-0.003499 -0.141468 1.061959 
-0.001706 -0.141668 1.063462 
0.000092 -0.141822 1.064614 
0.001894 -0.142031 1.066182 
0.003703 -0.142295 1.068167 
0.005522 -0.142614 1.070558 
0.007345 -0.142886 1.072603 
0.009178 -0.143183 1.074833 
0.011012 -0.143412 1.076547 
0.012848 -0.143590 1.077889 
0.014691 -0.143786 1.079361 
0.016536 -0.143966 1.080708 
0.018388 -0.144163 1.082186 
0.020286 -0.144648 1.085827 
0.022227 -0.145337 1.090999 
0.024200 -0.146116 1.096847 
0.026202 -0.146944 1.103065 
0.028208 -0.147684 1.108620 
0.030163 -0.148079 1.111581 
0.032073 -0.148225 1.112680 
0.033966 -0.148274 1.113047 
0.035841 -0.148249 1.112857 
0.037727 -0.148264 1.112975 
-0.103685 -0.136836 1.040425 
-0.101942 -0.136857 1.040588 
-0.100200 -0.136880 1.040762 
-0.098417 -0.136848 1.040515 
-0.096599 -0.136765 1.039884 
-0.094760 -0.136647 1.038992 
-0.092924 -0.136530 1.038101 
-0.091103 -0.136432 1.037351 
-0.089308 -0.136369 1.036873 
-0.087555 -0.136369 1.036873 
-0.085842 -0.136432 1.037351 
-0.084129 -0.136499 1.037861 
-0.082415 -0.136566 1.038371 
-0.080751 -0.136720 1.039542 
-0.079096 -0.136897 1.040886 
-0.077442 -0.137084 1.042314 
-0.075819 -0.137336 1.044226 
-0.074178 -0.137567 1.045982 
-0.072481 -0.137703 1.047020 
-0.070738 -0.137755 1.047414 
-0.068936 -0.137692 1.046933 
-0.067093 -0.137543 1.045802 
-0.065231 -0.137344 1.044290 
-0.063350 -0.137096 1.042399 
-0.061483 -0.136862 1.040621 
-0.059643 -0.136676 1.039207 
-0.057823 -0.136527 1.038080 
-0.056022 -0.136415 1.037228 
-0.054261 -0.136397 1.037084 
-0.052508 -0.136396 1.037084 
-0.050768 -0.136432 1.037353 
-0.049022 -0.136452 1.037508 
-0.047284 -0.136498 1.037858 
-0.045529 -0.136498 1.037858 
-0.043765 -0.136468 1.037630 
-0.042010 -0.136466 1.037609 
-0.040255 -0.136464 1.037598 
-0.038502 -0.136466 1.037609 
-0.036748 -0.136468 1.037630 
-0.035021 -0.136575 1.038438 
-0.033286 -0.136659 1.039077 
-0.031550 -0.136748 1.039756 
-0.029827 -0.136909 1.040980 
-0.028101 -0.137070 1.042203 
-0.026362 -0.137190 1.043118 
-0.024628 -0.137355 1.044370 
-0.022902 -0.137596 1.046202 
-0.021161 -0.137770 1.047529 
-0.019416 -0.137958 1.048959 
-0.017670 -0.138170 1.050569 
-0.015915 -0.138349 1.051932 
-0.014150 -0.138489 1.052994 
-0.012387 -0.138673 1.054395 
-0.010621 -0.138891 1.056049 
-0.008848 -0.139079 1.057478 
-0.007072 -0.139317 1.059291 
-0.005289 -0.139523 1.060859 
-0.003500 -0.139682 1.062063 
-0.001706 -0.139865 1.063453 
0.000092 -0.140017 1.064614 
0.001894 -0.140207 1.066056 
0.003703 -0.140466 1.068027 
0.005520 -0.140762 1.070280 
0.007343 -0.141030 1.072315 
0.009174 -0.141306 1.074411 
0.011009 -0.141549 1.076258 
0.012845 -0.141726 1.077609 
0.014689 -0.141937 1.079210 
0.016532 -0.142098 1.080437 
0.018381 -0.142274 1.081776 
0.020286 -0.142809 1.085839 
0.022234 -0.143534 1.091351 
0.024214 -0.144343 1.097504 
0.026222 -0.145183 1.103892 
0.028237 -0.145953 1.109749 
0.030184 -0.146299 1.112375 
0.032093 -0.146428 1.113358 
0.033987 -0.146478 1.113735 
0.035864 -0.146456 1.113571 
0.037751 -0.146473 1.113698 
-0.103769 -0.135182 1.041273 
-0.102004 -0.135176 1.041220 
-0.100249 -0.135182 1.041273 
-0.098462 -0.135146 1.040990 
-0.096644 -0.135065 1.040366 
-0.094817 -0.134967 1.039615 
-0.093000 -0.134881 1.038951 
-0.091189 -0.134800 1.038330 
-0.089402 -0.134754 1.037971 
-0.087658 -0.134769 1.038089 
-0.085934 -0.134817 1.038461 
-0.084210 -0.134869 1.038860 
-0.082486 -0.134922 1.039267 
-0.080821 -0.135075 1.040448 
-0.079167 -0.135254 1.041821 
-0.077522 -0.135457 1.043392 
-0.075898 -0.135708 1.045320 
-0.074254 -0.135934 1.047061 
-0.072546 -0.136050 1.047953 
-0.070790 -0.136080 1.048187 
-0.068978 -0.136000 1.047569 
-0.067133 -0.135851 1.046425 
-0.065269 -0.135652 1.044894 
-0.063388 -0.135408 1.043013 
-0.061513 -0.135163 1.041123 
-0.059671 -0.134978 1.039702 
-0.057844 -0.134817 1.038461 
-0.056043 -0.134708 1.037619 
-0.054276 -0.134676 1.037369 
-0.052517 -0.134661 1.037261 
-0.050769 -0.134677 1.037381 
-0.049016 -0.134679 1.037399 
-0.047268 -0.134694 1.037512 
-0.045514 -0.134694 1.037508 
-0.043750 -0.134662 1.037269 
-0.041995 -0.134659 1.037243 
-0.040245 -0.134671 1.037332 
-0.038496 -0.134689 1.037471 
-0.036744 -0.134694 1.037508 
-0.035021 -0.134814 1.038438 
-0.033286 -0.134897 1.039077 
-0.031550 -0.134985 1.039756 
-0.029824 -0.135130 1.040869 
-0.028097 -0.135288 1.042084 
-0.026356 -0.135390 1.042875 
-0.024622 -0.135552 1.044117 
-0.022897 -0.135790 1.045951 
-0.021158 -0.135977 1.047396 
-0.019416 -0.136180 1.048960 
-0.017672 -0.136407 1.050703 
-0.015919 -0.136600 1.052196 
-0.014156 -0.136755 1.053387 
-0.012393 -0.136954 1.054918 
-0.010625 -0.137156 1.056473 
-0.008851 -0.137340 1.057893 
-0.007074 -0.137557 1.059567 
-0.005290 -0.137743 1.060995 
-0.003500 -0.137883 1.062072 
-0.001706 -0.138062 1.063453 
0.000092 -0.138213 1.064614 
0.001894 -0.138385 1.065939 
0.003703 -0.138639 1.067901 
0.005519 -0.138930 1.070141 
0.007343 -0.139194 1.072175 
0.009172 -0.139452 1.074158 
0.011008 -0.139706 1.076116 
0.012843 -0.139881 1.077469 
0.014687 -0.140090 1.079079 
0.016530 -0.140250 1.080307 
0.018393 -0.140533 1.082484 
0.020317 -0.141188 1.087533 
0.022279 -0.141971 1.093567 
0.024268 -0.142796 1.099916 
0.026277 -0.143616 1.106237 
0.028278 -0.144283 1.111375 
0.030205 -0.144514 1.113153 
0.032112 -0.144628 1.114029 
0.034008 -0.144681 1.114440 
0.035892 -0.144681 1.114442 
0.037780 -0.144696 1.114557 
-0.102070 -0.133497 1.041897 
-0.100289 -0.133471 1.041690 
-0.098497 -0.133428 1.041360 
-0.096689 -0.133364 1.040856 
-0.094872 -0.133283 1.040224 
-0.093067 -0.133216 1.039699 
-0.091276 -0.133167 1.039318 
-0.089498 -0.133136 1.039077 
-0.087761 -0.133166 1.039311 
-0.086035 -0.133214 1.039687 
-0.084311 -0.133267 1.040099 
-0.082584 -0.133318 1.040496 
-0.080926 -0.133485 1.041801 
-0.079280 -0.133678 1.043309 
-0.077644 -0.133900 1.045040 
-0.076018 -0.134148 1.046977 
-0.074364 -0.134357 1.048609 
-0.072635 -0.134437 1.049233 
-0.070860 -0.134435 1.049213 
-0.069035 -0.134335 1.048438 
-0.067180 -0.134171 1.047153 
-0.065306 -0.133957 1.045490 
-0.063423 -0.133715 1.043597 
-0.061541 -0.133459 1.041595 
-0.059693 -0.133264 1.040079 
-0.057865 -0.133104 1.038827 
-0.056069 -0.133011 1.038099 
-0.054296 -0.132964 1.037740 
-0.052535 -0.132949 1.037618 
-0.050780 -0.132948 1.037609 
-0.049016 -0.132919 1.037382 
-0.047256 -0.132902 1.037250 
-0.045497 -0.132885 1.037122 
-0.043733 -0.132854 1.036873 
-0.041980 -0.132852 1.036860 
-0.040235 -0.132880 1.037080 
-0.038492 -0.132914 1.037348 
-0.036744 -0.132934 1.037500 
-0.035021 -0.133054 1.038438 
-0.033286 -0.133136 1.039077 
-0.031550 -0.133223 1.039756 
-0.029821 -0.133350 1.040749 
-0.028094 -0.133504 1.041951 
-0.026349 -0.133590 1.042624 
-0.024616 -0.133749 1.043865 
-0.022889 -0.133971 1.045596 
-0.021153 -0.134171 1.047155 
-0.019412 -0.134374 1.048737 
-0.017671 -0.134613 1.050603 
-0.015919 -0.134823 1.052245 
-0.014161 -0.135020 1.053778 
-0.012399 -0.135236 1.055465 
-0.010632 -0.135448 1.057126 
-0.008858 -0.135647 1.058674 
-0.007078 -0.135843 1.060202 
-0.005292 -0.135995 1.061389 
-0.003500 -0.136114 1.062324 
-0.001707 -0.136275 1.063577 
0.000092 -0.136408 1.064614 
0.001894 -0.136578 1.065939 
0.003703 -0.136829 1.067901 
0.005519 -0.137117 1.070150 
0.007343 -0.137378 1.072189 
0.009172 -0.137633 1.074175 
0.011008 -0.137883 1.076130 
0.012843 -0.138056 1.077478 
0.014687 -0.138262 1.079082 
0.016530 -0.138420 1.080319 
0.018411 -0.138835 1.083559 
0.020361 -0.139641 1.089845 
0.022334 -0.140467 1.096292 
0.024334 -0.141317 1.102927 
0.026346 -0.142113 1.109143 
0.028326 -0.142642 1.113267 
0.030229 -0.142738 1.114018 
0.032137 -0.142847 1.114869 
0.034035 -0.142903 1.115305 
0.035929 -0.142938 1.115579 
0.037819 -0.142954 1.115705 
-0.102130 -0.131808 1.042502 
-0.100349 -0.131783 1.042310 
-0.098565 -0.131754 1.042082 
-0.096768 -0.131707 1.041706 
-0.094951 -0.131629 1.041089 
-0.093146 -0.131566 1.040589 
-0.091364 -0.131532 1.040327 
-0.089586 -0.131504 1.040098 
-0.087848 -0.131535 1.040348 
-0.086131 -0.131598 1.040842 
-0.084421 -0.131676 1.041461 
-0.082710 -0.131754 1.042080 
-0.081069 -0.131951 1.043633 
-0.079429 -0.132158 1.045278 
-0.077801 -0.132394 1.047140 
-0.076163 -0.132625 1.048971 
-0.074488 -0.132800 1.050354 
-0.072730 -0.132833 1.050614 
-0.070936 -0.132799 1.050344 
-0.069086 -0.132656 1.049212 
-0.067213 -0.132462 1.047675 
-0.065323 -0.132220 1.045761 
-0.063439 -0.131978 1.043850 
-0.061556 -0.131725 1.041846 
-0.059708 -0.131534 1.040337 
-0.057879 -0.131375 1.039081 
-0.056088 -0.131295 1.038446 
-0.054307 -0.131234 1.037968 
-0.052541 -0.131205 1.037736 
-0.050781 -0.131189 1.037610 
-0.049009 -0.131141 1.037234 
-0.047238 -0.131094 1.036862 
-0.045473 -0.131060 1.036588 
-0.043706 -0.131016 1.036238 
-0.041959 -0.131031 1.036357 
-0.040221 -0.131077 1.036722 
-0.038484 -0.131128 1.037125 
-0.036740 -0.131162 1.037399 
-0.035021 -0.131294 1.038438 
-0.033286 -0.131374 1.039077 
-0.031550 -0.131460 1.039756 
-0.029817 -0.131570 1.040626 
-0.028087 -0.131706 1.041701 
-0.026340 -0.131774 1.042235 
-0.024604 -0.131917 1.043371 
-0.022876 -0.132122 1.044989 
-0.021143 -0.132334 1.046667 
-0.019405 -0.132549 1.048364 
-0.017668 -0.132815 1.050471 
-0.015921 -0.133055 1.052369 
-0.014166 -0.133282 1.054163 
-0.012406 -0.133513 1.055990 
-0.010638 -0.133738 1.057770 
-0.008863 -0.133935 1.059328 
-0.007082 -0.134113 1.060734 
-0.005294 -0.134247 1.061800 
-0.003501 -0.134346 1.062583 
-0.001707 -0.134488 1.063705 
0.000092 -0.134603 1.064614 
0.001894 -0.134771 1.065939 
0.003703 -0.135019 1.067901 
0.005520 -0.135320 1.070281 
0.007344 -0.135580 1.072337 
0.009174 -0.135833 1.074343 
0.011010 -0.136078 1.076278 
0.012845 -0.136246 1.077608 
0.014687 -0.136434 1.079092 
0.016530 -0.136592 1.080342 
0.018432 -0.137156 1.084801 
0.020392 -0.138006 1.091525 
0.022378 -0.138879 1.098431 
0.024385 -0.139739 1.105237 
0.026398 -0.140509 1.111328 
0.028353 -0.140889 1.114331 
0.030253 -0.140962 1.114906 
0.032162 -0.141068 1.115743 
0.034058 -0.141111 1.116084 
0.035958 -0.141162 1.116493 
0.037854 -0.141194 1.116742 
-0.102163 -0.130083 1.042848 
-0.100390 -0.130070 1.042737 
-0.098617 -0.130057 1.042633 
-0.096840 -0.130037 1.042475 
-0.095032 -0.129975 1.041978 
-0.093237 -0.129928 1.041600 
-0.091464 -0.129910 1.041461 
-0.089694 -0.129897 1.041351 
-0.087964 -0.129942 1.041716 
-0.086245 -0.130006 1.042226 
-0.084545 -0.130100 1.042982 
-0.082841 -0.130194 1.043736 
-0.081208 -0.130405 1.045425 
-0.079559 -0.130599 1.046984 
-0.077926 -0.130830 1.048834 
-0.076267 -0.131026 1.050402 
-0.074579 -0.131180 1.051642 
-0.072802 -0.131181 1.051649 
-0.070996 -0.131130 1.051236 
-0.069136 -0.130973 1.049982 
-0.067255 -0.130767 1.048330 
-0.065348 -0.130498 1.046173 
-0.063461 -0.130255 1.044225 
-0.061570 -0.129990 1.042097 
-0.059715 -0.129787 1.040472 
-0.057886 -0.129630 1.039216 
-0.056095 -0.129550 1.038570 
-0.054308 -0.129476 1.037976 
-0.052541 -0.129446 1.037740 
-0.050780 -0.129430 1.037609 
-0.049003 -0.129369 1.037122 
-0.047226 -0.129305 1.036604 
-0.045461 -0.129266 1.036298 
-0.043694 -0.129222 1.035945 
-0.041948 -0.129239 1.036081 
-0.040217 -0.129304 1.036603 
-0.038483 -0.129369 1.037120 
-0.036740 -0.129404 1.037402 
-0.035021 -0.129533 1.038438 
-0.033286 -0.129613 1.039077 
-0.031550 -0.129698 1.039756 
-0.029814 -0.129791 1.040507 
-0.028080 -0.129909 1.041449 
-0.026330 -0.129958 1.041844 
-0.024592 -0.130083 1.042847 
-0.022862 -0.130270 1.044340 
-0.021130 -0.130479 1.046021 
-0.019397 -0.130718 1.047932 
-0.017666 -0.131014 1.050309 
-0.015924 -0.131297 1.052577 
-0.014173 -0.131558 1.054667 
-0.012416 -0.131830 1.056852 
-0.010647 -0.132057 1.058672 
-0.008870 -0.132250 1.060215 
-0.007086 -0.132396 1.061389 
-0.005296 -0.132511 1.062311 
-0.003503 -0.132592 1.062960 
-0.001707 -0.132716 1.063953 
0.000092 -0.132815 1.064743 
0.001894 -0.132979 1.066064 
0.003703 -0.133223 1.068017 
0.005521 -0.133521 1.070408 
0.007345 -0.133779 1.072478 
0.009176 -0.134045 1.074610 
0.011012 -0.134287 1.076546 
0.012849 -0.134467 1.077986 
0.014694 -0.134666 1.079587 
0.016542 -0.134854 1.081090 
0.018464 -0.135547 1.086650 
0.020436 -0.136451 1.093899 
0.022434 -0.137359 1.101175 
0.024445 -0.138207 1.107974 
0.026458 -0.138938 1.113830 
0.028390 -0.139178 1.115753 
0.030283 -0.139212 1.116026 
0.032187 -0.139285 1.116615 
0.034081 -0.139310 1.116817 
0.035982 -0.139363 1.117237 
0.037884 -0.139411 1.117624 
0.039985 -0.142058 1.123579 
0.039774 -0.139413 1.117639 
-0.102263 -0.128441 1.043864 
-0.100478 -0.128415 1.043652 
-0.098710 -0.128410 1.043615 
-0.096955 -0.128422 1.043712 
-0.095147 -0.128364 1.043238 
-0.093350 -0.128318 1.042868 
-0.091593 -0.128326 1.042932 
-0.089830 -0.128326 1.042932 
-0.088091 -0.128361 1.043219 
-0.086371 -0.128426 1.043744 
-0.084677 -0.128533 1.044615 
-0.082982 -0.128644 1.045513 
-0.081342 -0.128845 1.047151 
-0.079691 -0.129039 1.048727 
-0.078044 -0.129247 1.050421 
-0.076361 -0.129405 1.051701 
-0.074644 -0.129510 1.052553 
-0.072847 -0.129479 1.052305 
-0.071025 -0.129400 1.051662 
-0.069155 -0.129229 1.050267 
-0.067265 -0.129009 1.048485 
-0.065350 -0.128728 1.046203 
-0.063463 -0.128488 1.044246 
-0.061571 -0.128225 1.042109 
-0.059716 -0.128024 1.040479 
-0.057888 -0.127871 1.039234 
-0.056095 -0.127790 1.038577 
-0.054308 -0.127717 1.037980 
-0.052542 -0.127688 1.037748 
-0.050781 -0.127672 1.037618 
-0.048999 -0.127599 1.037021 
-0.047216 -0.127519 1.036371 
-0.045450 -0.127480 1.036060 
-0.043688 -0.127449 1.035807 
-0.041943 -0.127469 1.035964 
-0.040216 -0.127546 1.036596 
-0.038488 -0.127625 1.037231 
-0.036744 -0.127659 1.037508 
-0.035018 -0.127759 1.038328 
-0.033282 -0.127837 1.038959 
-0.031546 -0.127920 1.039634 
-0.029807 -0.127999 1.040277 
-0.028071 -0.128100 1.041096 
-0.026320 -0.128145 1.041458 
-0.024579 -0.128249 1.042306 
-0.022845 -0.128403 1.043559 
-0.021114 -0.128608 1.045225 
-0.019385 -0.128860 1.047269 
-0.017659 -0.129185 1.049916 
-0.015923 -0.129500 1.052476 
-0.014179 -0.129821 1.055082 
-0.012424 -0.130121 1.057522 
-0.010655 -0.130361 1.059470 
-0.008877 -0.130549 1.061002 
-0.007090 -0.130679 1.062052 
-0.005298 -0.130759 1.062707 
-0.003504 -0.130837 1.063336 
-0.001708 -0.130944 1.064206 
0.000092 -0.131028 1.064888 
0.001894 -0.131189 1.066202 
0.003703 -0.131428 1.068141 
0.005521 -0.131721 1.070526 
0.007345 -0.131977 1.072605 
0.009177 -0.132241 1.074750 
0.011014 -0.132479 1.076687 
0.012853 -0.132672 1.078250 
0.014698 -0.132871 1.079872 
0.016548 -0.133074 1.081521 
0.018491 -0.133898 1.088217 
0.020472 -0.134833 1.095814 
0.022477 -0.135752 1.103284 
0.024491 -0.136585 1.110057 
0.026505 -0.137295 1.115827 
0.028415 -0.137407 1.116737 
0.030306 -0.137422 1.116860 
0.032211 -0.137494 1.117439 
0.034110 -0.137534 1.117766 
0.036018 -0.137603 1.118332 
0.037926 -0.137669 1.118866 
0.039828 -0.137706 1.119166 
-0.102355 -0.126785 1.044803 
-0.100575 -0.126767 1.044656 
-0.098811 -0.126771 1.044683 
-0.097061 -0.126791 1.044854 
-0.095252 -0.126735 1.044390 
-0.093443 -0.126676 1.043906 
-0.091684 -0.126685 1.043974 
-0.089920 -0.126685 1.043974 
-0.088179 -0.126719 1.044261 
-0.086467 -0.126798 1.044907 
-0.084791 -0.126933 1.046018 
-0.083113 -0.127071 1.047162 
-0.081472 -0.127273 1.048824 
-0.079809 -0.127450 1.050279 
-0.078156 -0.127649 1.051926 
-0.076451 -0.127771 1.052929 
-0.074705 -0.127830 1.053416 
-0.072899 -0.127785 1.053044 
-0.071073 -0.127704 1.052377 
-0.069194 -0.127519 1.050851 
-0.067288 -0.127274 1.048832 
-0.065363 -0.126980 1.046411 
-0.063468 -0.126728 1.044334 
-0.061570 -0.126456 1.042089 
-0.059709 -0.126246 1.040361 
-0.057886 -0.126107 1.039216 
-0.056095 -0.126029 1.038570 
-0.054308 -0.125957 1.037976 
-0.052542 -0.125929 1.037748 
-0.050776 -0.125900 1.037512 
-0.048998 -0.125841 1.037020 
-0.047221 -0.125777 1.036495 
-0.045456 -0.125741 1.036201 
-0.043699 -0.125725 1.036070 
-0.041959 -0.125759 1.036345 
-0.040226 -0.125820 1.036847 
-0.038492 -0.125882 1.037361 
-0.036748 -0.125913 1.037618 
-0.035014 -0.125985 1.038209 
-0.033278 -0.126060 1.038827 
-0.031542 -0.126141 1.039495 
-0.029804 -0.126220 1.040145 
-0.028064 -0.126306 1.040858 
-0.026314 -0.126349 1.041206 
-0.024570 -0.126435 1.041914 
-0.022831 -0.126557 1.042921 
-0.021099 -0.126743 1.044454 
-0.019373 -0.127006 1.046623 
-0.017652 -0.127358 1.049524 
-0.015922 -0.127707 1.052401 
-0.014184 -0.128084 1.055503 
-0.012432 -0.128413 1.058221 
-0.010663 -0.128663 1.060276 
-0.008883 -0.128834 1.061690 
-0.007094 -0.128942 1.062580 
-0.005300 -0.128990 1.062972 
-0.003505 -0.129065 1.063588 
-0.001708 -0.129157 1.064352 
0.000092 -0.129242 1.065053 
0.001895 -0.129414 1.066464 
0.003704 -0.129648 1.068396 
0.005522 -0.129922 1.070656 
0.007346 -0.130174 1.072731 
0.009179 -0.130448 1.074989 
0.011015 -0.130671 1.076822 
0.012856 -0.130878 1.078534 
0.014703 -0.131092 1.080291 
0.016557 -0.131311 1.082098 
0.018503 -0.132142 1.088950 
0.020488 -0.133080 1.096681 
0.022494 -0.133986 1.104144 
0.024510 -0.134806 1.110903 
0.026525 -0.135507 1.116679 
0.028436 -0.135615 1.117570 
0.030325 -0.135615 1.117571 
0.032227 -0.135669 1.118010 
0.034123 -0.135692 1.118202 
0.036031 -0.135759 1.118757 
0.037937 -0.135812 1.119189 
0.039846 -0.135868 1.119650 
-0.100677 -0.125124 1.045720 
-0.098915 -0.125131 1.045779 
-0.097156 -0.125142 1.045875 
-0.095347 -0.125089 1.045428 
-0.093535 -0.125029 1.044931 
-0.091763 -0.125021 1.044864 
-0.089986 -0.125007 1.044743 
-0.088235 -0.125029 1.044931 
-0.086522 -0.125107 1.045577 
-0.084853 -0.125251 1.046786 
-0.083192 -0.125416 1.048162 
-0.081551 -0.125617 1.049838 
-0.079887 -0.125791 1.051298 
-0.078221 -0.125971 1.052797 
-0.076495 -0.126059 1.053539 
-0.074731 -0.126088 1.053781 
-0.072924 -0.126044 1.053414 
-0.071091 -0.125952 1.052643 
-0.069210 -0.125768 1.051104 
-0.067301 -0.125522 1.049046 
-0.065369 -0.125216 1.046494 
-0.063466 -0.124955 1.044307 
-0.061568 -0.124686 1.042064 
-0.059708 -0.124480 1.040339 
-0.057886 -0.124344 1.039200 
-0.056094 -0.124267 1.038557 
-0.054307 -0.124196 1.037968 
-0.052536 -0.124156 1.037630 
-0.050764 -0.124113 1.037271 
-0.048987 -0.124053 1.036772 
-0.047216 -0.124005 1.036374 
-0.045458 -0.123988 1.036229 
-0.043707 -0.123991 1.036254 
-0.041971 -0.124037 1.036641 
-0.040237 -0.124096 1.037131 
-0.038497 -0.124140 1.037499 
-0.036748 -0.124156 1.037630 
-0.035009 -0.124210 1.038087 
-0.033274 -0.124282 1.038688 
-0.031537 -0.124360 1.039338 
-0.029800 -0.124440 1.040007 
-0.028058 -0.124514 1.040625 
-0.026308 -0.124556 1.040976 
-0.024562 -0.124626 1.041560 
-0.022822 -0.124744 1.042546 
-0.021091 -0.124927 1.044071 
-0.019370 -0.125213 1.046466 
-0.017652 -0.125577 1.049511 
-0.015925 -0.125952 1.052641 
-0.014189 -0.126341 1.055893 
-0.012438 -0.126683 1.058754 
-0.010669 -0.126932 1.060828 
-0.008887 -0.127099 1.062226 
-0.007097 -0.127188 1.062972 
-0.005301 -0.127231 1.063335 
-0.003506 -0.127305 1.063952 
-0.001708 -0.127385 1.064618 
0.000092 -0.127469 1.065323 
0.001895 -0.127651 1.066844 
0.003705 -0.127869 1.068660 
0.005523 -0.128125 1.070803 
0.007347 -0.128372 1.072871 
0.009181 -0.128656 1.075239 
0.011018 -0.128876 1.077075 
0.012862 -0.129111 1.079040 
0.014712 -0.129340 1.080958 
0.016573 -0.129602 1.083148 
0.018521 -0.130425 1.090022 
0.020506 -0.131335 1.097628 
0.022511 -0.132211 1.104954 
0.024525 -0.133002 1.111562 
0.026535 -0.133665 1.117106 
0.028447 -0.133775 1.118019 
0.030338 -0.133777 1.118041 
0.032236 -0.133812 1.118334 
0.034132 -0.133833 1.118507 
0.036037 -0.133883 1.118928 
0.037943 -0.133934 1.119354 
0.039856 -0.134005 1.119949 
-0.100780 -0.123477 1.046787 
-0.099006 -0.123471 1.046740 
-0.097228 -0.123461 1.046653 
-0.095416 -0.123406 1.046184 
-0.093602 -0.123346 1.045679 
-0.091827 -0.123336 1.045595 
-0.090047 -0.123320 1.045458 
-0.088294 -0.123340 1.045629 
-0.086571 -0.123403 1.046164 
-0.084901 -0.123546 1.047374 
-0.083240 -0.123710 1.048760 
-0.081589 -0.123895 1.050329 
-0.079915 -0.124053 1.051672 
-0.078239 -0.124215 1.053048 
-0.076504 -0.124289 1.053668 
-0.074732 -0.124304 1.053800 
-0.072933 -0.124274 1.053546 
-0.071101 -0.124185 1.052792 
-0.069229 -0.124020 1.051388 
-0.067327 -0.123790 1.049442 
-0.065400 -0.123501 1.046994 
-0.063488 -0.123226 1.044663 
-0.061583 -0.122948 1.042306 
-0.059714 -0.122729 1.040448 
-0.057885 -0.122581 1.039188 
-0.056088 -0.122492 1.038438 
-0.054302 -0.122424 1.037858 
-0.052535 -0.122395 1.037618 
-0.050762 -0.122351 1.037240 
-0.048990 -0.122303 1.036831 
-0.047225 -0.122271 1.036566 
-0.045473 -0.122274 1.036585 
-0.043728 -0.122294 1.036759 
-0.041991 -0.122340 1.037145 
-0.040252 -0.122382 1.037508 
-0.038506 -0.122410 1.037740 
-0.036752 -0.122411 1.037748 
-0.035005 -0.122437 1.037968 
-0.033270 -0.122506 1.038557 
-0.031533 -0.122582 1.039200 
-0.029796 -0.122662 1.039875 
-0.028055 -0.122736 1.040506 
-0.026308 -0.122792 1.040976 
-0.024562 -0.122860 1.041560 
-0.022822 -0.122977 1.042546 
-0.021091 -0.123158 1.044080 
-0.019372 -0.123454 1.046592 
-0.017652 -0.123800 1.049527 
-0.015927 -0.124181 1.052758 
-0.014193 -0.124579 1.056127 
-0.012442 -0.124931 1.059111 
-0.010673 -0.125179 1.061213 
-0.008892 -0.125358 1.062730 
-0.007100 -0.125444 1.063464 
-0.005304 -0.125487 1.063824 
-0.003507 -0.125561 1.064450 
-0.001709 -0.125627 1.065013 
0.000092 -0.125708 1.065705 
0.001896 -0.125888 1.067223 
0.003706 -0.126088 1.068923 
0.005524 -0.126330 1.070970 
0.007348 -0.126571 1.073018 
0.009183 -0.126863 1.075491 
0.011019 -0.127067 1.077220 
0.012866 -0.127316 1.079333 
0.014718 -0.127557 1.081373 
0.016584 -0.127846 1.083823 
0.018522 -0.128585 1.090095 
0.020506 -0.129477 1.097651 
0.022510 -0.130336 1.104934 
0.024524 -0.131116 1.111547 
0.026533 -0.131762 1.117021 
0.028462 -0.131947 1.118591 
0.030354 -0.131951 1.118626 
0.032250 -0.131970 1.118792 
0.034141 -0.131971 1.118793 
0.036040 -0.131999 1.119037 
0.037937 -0.132017 1.119189 
0.039841 -0.132056 1.119513 
-0.102715 -0.121899 1.048473 
-0.100896 -0.121842 1.047991 
-0.099106 -0.121820 1.047800 
-0.097307 -0.121785 1.047499 
-0.095482 -0.121716 1.046905 
-0.093646 -0.121631 1.046176 
-0.091869 -0.121620 1.046075 
-0.090088 -0.121602 1.045924 
-0.088323 -0.121607 1.045967 
-0.086598 -0.121668 1.046494 
-0.084928 -0.121811 1.047716 
-0.083267 -0.121972 1.049106 
-0.081608 -0.122143 1.050572 
-0.079933 -0.122298 1.051910 
-0.078248 -0.122444 1.053166 
-0.076512 -0.122515 1.053773 
-0.074731 -0.122516 1.053781 
-0.072941 -0.122502 1.053661 
-0.071111 -0.122417 1.052932 
-0.069240 -0.122257 1.051561 
-0.067346 -0.122046 1.049744 
-0.065420 -0.121763 1.047311 
-0.063501 -0.121480 1.044870 
-0.061593 -0.121202 1.042480 
-0.059722 -0.120981 1.040585 
-0.057885 -0.120820 1.039197 
-0.056088 -0.120732 1.038438 
-0.054302 -0.120664 1.037858 
-0.052535 -0.120637 1.037618 
-0.050757 -0.120579 1.037122 
-0.048989 -0.120543 1.036815 
-0.047229 -0.120526 1.036670 
-0.045478 -0.120530 1.036705 
-0.043739 -0.120566 1.037013 
-0.042006 -0.120624 1.037508 
-0.040261 -0.120652 1.037748 
-0.038511 -0.120664 1.037858 
-0.036756 -0.120664 1.037858 
-0.035002 -0.120664 1.037858 
-0.033266 -0.120732 1.038438 
-0.031530 -0.120806 1.039077 
-0.029792 -0.120885 1.039756 
-0.028052 -0.120959 1.040396 
-0.026311 -0.121040 1.041087 
-0.024565 -0.121109 1.041679 
-0.022825 -0.121225 1.042682 
-0.021096 -0.121418 1.044344 
-0.019378 -0.121713 1.046879 
-0.017653 -0.122027 1.049581 
-0.015927 -0.122398 1.052768 
-0.014194 -0.122797 1.056205 
-0.012442 -0.123133 1.059092 
-0.010674 -0.123394 1.061339 
-0.008895 -0.123600 1.063108 
-0.007103 -0.123701 1.063973 
-0.005306 -0.123745 1.064357 
-0.003510 -0.123832 1.065107 
-0.001710 -0.123885 1.065557 
0.000092 -0.123962 1.066220 
0.001897 -0.124137 1.067728 
0.003707 -0.124321 1.069308 
0.005525 -0.124546 1.071242 
0.007350 -0.124782 1.073274 
0.009185 -0.125056 1.075627 
0.011019 -0.125243 1.077237 
0.012866 -0.125490 1.079362 
0.014717 -0.125714 1.081294 
0.016582 -0.126000 1.083747 
0.018505 -0.126622 1.089097 
0.020489 -0.127508 1.096720 
0.022493 -0.128363 1.104073 
0.024512 -0.129167 1.110990 
0.026528 -0.129843 1.116802 
0.028483 -0.130148 1.119429 
0.030377 -0.130153 1.119469 
0.032274 -0.130170 1.119620 
0.034161 -0.130151 1.119455 
0.036052 -0.130146 1.119410 
0.037940 -0.130129 1.119268 
0.039828 -0.130118 1.119166 
-0.102811 -0.120234 1.049460 
-0.100981 -0.120167 1.048873 
-0.099156 -0.120104 1.048325 
-0.097342 -0.120053 1.047881 
-0.095515 -0.119983 1.047270 
-0.093679 -0.119900 1.046540 
-0.091894 -0.119879 1.046358 
-0.090111 -0.119861 1.046199 
-0.088355 -0.119878 1.046349 
-0.086630 -0.119938 1.046874 
-0.084950 -0.120065 1.047986 
-0.083288 -0.120224 1.049371 
-0.081627 -0.120390 1.050818 
-0.079942 -0.120529 1.052031 
-0.078248 -0.120658 1.053157 
-0.076519 -0.120740 1.053874 
-0.074738 -0.120741 1.053886 
-0.072957 -0.120741 1.053886 
-0.071134 -0.120672 1.053279 
-0.069279 -0.120542 1.052148 
-0.067379 -0.120326 1.050259 
-0.065453 -0.120050 1.047848 
-0.063519 -0.119744 1.045178 
-0.061602 -0.119453 1.042640 
-0.059716 -0.119207 1.040490 
-0.057879 -0.119045 1.039082 
-0.056082 -0.118959 1.038328 
-0.054302 -0.118905 1.037858 
-0.052536 -0.118879 1.037630 
-0.050752 -0.118810 1.037032 
-0.048990 -0.118789 1.036844 
-0.047236 -0.118784 1.036803 
-0.045485 -0.118790 1.036856 
-0.043745 -0.118824 1.037150 
-0.042015 -0.118892 1.037740 
-0.040270 -0.118918 1.037968 
-0.038519 -0.118931 1.038087 
-0.036769 -0.118945 1.038209 
-0.035018 -0.118959 1.038328 
-0.033281 -0.119025 1.038908 
-0.031540 -0.119085 1.039429 
-0.029799 -0.119149 1.039985 
-0.028055 -0.119208 1.040506 
-0.026314 -0.119289 1.041206 
-0.024570 -0.119371 1.041923 
-0.022836 -0.119514 1.043174 
-0.021109 -0.119721 1.044975 
-0.019390 -0.120012 1.047517 
-0.017660 -0.120292 1.049965 
-0.015931 -0.120640 1.052999 
-0.014193 -0.121005 1.056183 
-0.012440 -0.121322 1.058956 
-0.010674 -0.121596 1.061345 
-0.008897 -0.121829 1.063378 
-0.007106 -0.121946 1.064404 
-0.005310 -0.122019 1.065034 
-0.003512 -0.122121 1.065927 
-0.001711 -0.122170 1.066356 
0.000092 -0.122245 1.067009 
0.001898 -0.122415 1.068493 
0.003709 -0.122568 1.069831 
0.005527 -0.122774 1.071627 
0.007352 -0.122991 1.073526 
0.009187 -0.123259 1.075862 
0.011022 -0.123445 1.077481 
0.012869 -0.123689 1.079611 
0.014718 -0.123893 1.081398 
0.016583 -0.124171 1.083820 
0.018488 -0.124661 1.088097 
0.020466 -0.125509 1.095496 
0.022467 -0.126344 1.102788 
0.024492 -0.127181 1.110095 
0.026514 -0.127879 1.116185 
0.028495 -0.128306 1.119916 
0.030393 -0.128325 1.120076 
0.032291 -0.128341 1.120218 
0.034171 -0.128290 1.119777 
0.036053 -0.128252 1.119444 
0.037931 -0.128201 1.119000 
0.039803 -0.128139 1.118457 
-0.102874 -0.118528 1.050101 
-0.101045 -0.118465 1.049544 
-0.099220 -0.118404 1.049007 
-0.097410 -0.118360 1.048614 
-0.095581 -0.118290 1.047993 
-0.093744 -0.118208 1.047271 
-0.091950 -0.118177 1.046997 
-0.090166 -0.118159 1.046839 
-0.088409 -0.118176 1.046986 
-0.086674 -0.118223 1.047406 
-0.084994 -0.118350 1.048523 
-0.083331 -0.118506 1.049908 
-0.081657 -0.118652 1.051206 
-0.079970 -0.118786 1.052390 
-0.078265 -0.118899 1.053392 
-0.076537 -0.118982 1.054122 
-0.074765 -0.118997 1.054258 
-0.072983 -0.118998 1.054265 
-0.071152 -0.118916 1.053541 
-0.069296 -0.118787 1.052397 
-0.067394 -0.118571 1.050489 
-0.065460 -0.118286 1.047962 
-0.063520 -0.117972 1.045182 
-0.061601 -0.117683 1.042614 
-0.059708 -0.117427 1.040346 
-0.057859 -0.117243 1.038719 
-0.056056 -0.117146 1.037860 
-0.054277 -0.117093 1.037390 
-0.052518 -0.117081 1.037281 
-0.050741 -0.117028 1.036813 
-0.048986 -0.117022 1.036763 
-0.047237 -0.117031 1.036837 
-0.045491 -0.117048 1.036991 
-0.043745 -0.117067 1.037162 
-0.042015 -0.117133 1.037748 
-0.040274 -0.117172 1.038087 
-0.038524 -0.117187 1.038227 
-0.036774 -0.117203 1.038369 
-0.035027 -0.117230 1.038607 
-0.033290 -0.117296 1.039188 
-0.031545 -0.117341 1.039589 
-0.029803 -0.117402 1.040125 
-0.028058 -0.117458 1.040625 
-0.026317 -0.117538 1.041330 
-0.024576 -0.117634 1.042183 
-0.022848 -0.117805 1.043697 
-0.021122 -0.118022 1.045621 
-0.019401 -0.118308 1.048159 
-0.017666 -0.118556 1.050350 
-0.015934 -0.118881 1.053230 
-0.014193 -0.119213 1.056169 
-0.012439 -0.119513 1.058834 
-0.010674 -0.119798 1.061356 
-0.008899 -0.120056 1.063644 
-0.007109 -0.120189 1.064820 
-0.005313 -0.120290 1.065716 
-0.003515 -0.120405 1.066735 
-0.001712 -0.120454 1.067169 
0.000092 -0.120529 1.067831 
0.001900 -0.120694 1.069291 
0.003712 -0.120831 1.070510 
0.005530 -0.121017 1.072157 
0.007354 -0.121215 1.073912 
0.009189 -0.121463 1.076107 
0.011024 -0.121645 1.077718 
0.012870 -0.121872 1.079730 
0.014718 -0.122059 1.081383 
0.016583 -0.122326 1.083757 
0.018469 -0.122685 1.086929 
0.020438 -0.123479 1.093969 
0.022435 -0.124296 1.101209 
0.024466 -0.125166 1.108911 
0.026493 -0.125887 1.115306 
0.028501 -0.126431 1.120122 
0.030406 -0.126480 1.120556 
0.032308 -0.126510 1.120819 
0.034190 -0.126461 1.120390 
0.036069 -0.126409 1.119924 
0.037941 -0.126339 1.119306 
0.039803 -0.126242 1.118447 
-0.104780 -0.116894 1.051418 
-0.102954 -0.116838 1.050913 
-0.101107 -0.116757 1.050187 
-0.099280 -0.116697 1.049642 
-0.097469 -0.116653 1.049253 
-0.095639 -0.116585 1.048635 
-0.093804 -0.116507 1.047933 
-0.092018 -0.116488 1.047769 
-0.090233 -0.116471 1.047614 
-0.088463 -0.116473 1.047628 
-0.086717 -0.116506 1.047932 
-0.085037 -0.116632 1.049059 
-0.083373 -0.116785 1.050438 
-0.081698 -0.116929 1.051730 
-0.080017 -0.117072 1.053017 
-0.078312 -0.117183 1.054020 
-0.076584 -0.117266 1.054763 
-0.074811 -0.117283 1.054915 
-0.073029 -0.117285 1.054934 
-0.071195 -0.117202 1.054184 
-0.069336 -0.117071 1.053014 
-0.067424 -0.116843 1.050962 
-0.065481 -0.116547 1.048295 
-0.063523 -0.116207 1.045239 
-0.061597 -0.115908 1.042546 
-0.059691 -0.115630 1.040046 
-0.057837 -0.115438 1.038323 
-0.056029 -0.115330 1.037351 
-0.054256 -0.115289 1.036982 
-0.052503 -0.115290 1.036991 
-0.050740 -0.115266 1.036776 
-0.048997 -0.115289 1.036981 
-0.047253 -0.115312 1.037186 
-0.045506 -0.115329 1.037340 
-0.043755 -0.115334 1.037390 
-0.042020 -0.115386 1.037858 
-0.040279 -0.115425 1.038209 
-0.038534 -0.115455 1.038479 
-0.036788 -0.115487 1.038766 
-0.035045 -0.115528 1.039135 
-0.033307 -0.115593 1.039715 
-0.031557 -0.115623 1.039985 
-0.029810 -0.115667 1.040378 
-0.028064 -0.115720 1.040858 
-0.026323 -0.115799 1.041568 
-0.024585 -0.115909 1.042562 
-0.022859 -0.116094 1.044221 
-0.021133 -0.116310 1.046165 
-0.019409 -0.116578 1.048579 
-0.017671 -0.116805 1.050615 
-0.015936 -0.117109 1.053355 
-0.014193 -0.117422 1.056169 
-0.012439 -0.117718 1.058834 
-0.010675 -0.118012 1.061472 
-0.008901 -0.118281 1.063893 
-0.007111 -0.118426 1.065202 
-0.005316 -0.118542 1.066240 
-0.003517 -0.118670 1.067388 
-0.001713 -0.118721 1.067852 
0.000092 -0.118794 1.068511 
0.001901 -0.118959 1.069991 
0.003714 -0.119093 1.071195 
0.005533 -0.119262 1.072713 
0.007358 -0.119454 1.074445 
0.009192 -0.119683 1.076502 
0.011027 -0.119848 1.077989 
0.012871 -0.120045 1.079759 
0.014718 -0.120227 1.081400 
0.016577 -0.120447 1.083380 
0.018444 -0.120683 1.085495 
0.020392 -0.121355 1.091542 
0.022383 -0.122147 1.098664 
0.024413 -0.123019 1.106514 
0.026448 -0.123788 1.113431 
0.028482 -0.124450 1.119385 
0.030414 -0.124614 1.120861 
0.032324 -0.124673 1.121389 
0.034208 -0.124628 1.120978 
0.036084 -0.124562 1.120390 
0.037952 -0.124478 1.119629 
0.039809 -0.124364 1.118609 
-0.101158 -0.115034 1.050712 
-0.099332 -0.114977 1.050191 
-0.097530 -0.114946 1.049908 
-0.095700 -0.114880 1.049301 
-0.093874 -0.114817 1.048724 
-0.092077 -0.114787 1.048449 
-0.090289 -0.114766 1.048260 
-0.088515 -0.114764 1.048247 
-0.086768 -0.114797 1.048541 
-0.085068 -0.114896 1.049445 
-0.083404 -0.115047 1.050828 
-0.081729 -0.115190 1.052134 
-0.080049 -0.115332 1.053428 
-0.078344 -0.115444 1.054457 
-0.076625 -0.115540 1.055334 
-0.074860 -0.115570 1.055604 
-0.073068 -0.115558 1.055497 
-0.071233 -0.115476 1.054742 
-0.069364 -0.115333 1.053436 
-0.067435 -0.115080 1.051129 
-0.065475 -0.114759 1.048193 
-0.063508 -0.114408 1.044988 
-0.061574 -0.114098 1.042164 
-0.059662 -0.113812 1.039546 
-0.057809 -0.113623 1.037821 
-0.056000 -0.113513 1.036816 
-0.054227 -0.113472 1.036437 
-0.052476 -0.113473 1.036450 
-0.050726 -0.113478 1.036494 
-0.048991 -0.113518 1.036866 
-0.047254 -0.113556 1.037211 
-0.045512 -0.113585 1.037471 
-0.043760 -0.113589 1.037508 
-0.042020 -0.113627 1.037858 
-0.040284 -0.113679 1.038328 
-0.038543 -0.113722 1.038726 
-0.036802 -0.113768 1.039144 
-0.035061 -0.113821 1.039630 
-0.033323 -0.113885 1.040210 
-0.031569 -0.113901 1.040364 
-0.029817 -0.113930 1.040625 
-0.028074 -0.113994 1.041208 
-0.026335 -0.114085 1.042044 
-0.024600 -0.114210 1.043185 
-0.022876 -0.114406 1.044975 
-0.021148 -0.114618 1.046910 
-0.019418 -0.114855 1.049076 
-0.017675 -0.115052 1.050869 
-0.015938 -0.115337 1.053475 
-0.014193 -0.115632 1.056169 
-0.012439 -0.115924 1.058834 
-0.010675 -0.116212 1.061472 
-0.008902 -0.116490 1.064009 
-0.007112 -0.116634 1.065326 
-0.005317 -0.116762 1.066493 
-0.003518 -0.116902 1.067768 
-0.001714 -0.116967 1.068365 
0.000092 -0.117053 1.069151 
0.001902 -0.117230 1.070770 
0.003717 -0.117364 1.071989 
0.005536 -0.117519 1.073406 
0.007363 -0.117707 1.075122 
0.009196 -0.117904 1.076923 
0.011031 -0.118065 1.078397 
0.012874 -0.118246 1.080043 
0.014722 -0.118426 1.081687 
0.016577 -0.118615 1.083415 
0.018434 -0.118776 1.084890 
0.020357 -0.119300 1.089671 
0.022336 -0.120032 1.096364 
0.024361 -0.120884 1.104144 
0.026400 -0.121681 1.111425 
0.028450 -0.122417 1.118146 
0.030414 -0.122714 1.120858 
0.032336 -0.122816 1.121792 
0.034221 -0.122773 1.121399 
0.036094 -0.122696 1.120692 
0.037962 -0.122613 1.119935 
0.039810 -0.122472 1.118647 
-0.101212 -0.113314 1.051276 
-0.099388 -0.113260 1.050778 
-0.097588 -0.113234 1.050529 
-0.095758 -0.113170 1.049936 
-0.093942 -0.113121 1.049482 
-0.092144 -0.113091 1.049211 
-0.090354 -0.113071 1.049018 
-0.088578 -0.113067 1.048982 
-0.086816 -0.113083 1.049130 
-0.085105 -0.113166 1.049903 
-0.083432 -0.113304 1.051184 
-0.081757 -0.113446 1.052501 
-0.080079 -0.113590 1.053834 
-0.078384 -0.113715 1.054997 
-0.076664 -0.113810 1.055872 
-0.074914 -0.113863 1.056367 
-0.073121 -0.113851 1.056257 
-0.071285 -0.113771 1.055512 
-0.069415 -0.113630 1.054211 
-0.067470 -0.113357 1.051673 
-0.065492 -0.113012 1.048475 
-0.063509 -0.112638 1.045008 
-0.061567 -0.112319 1.042041 
-0.059642 -0.112012 1.039194 
-0.057788 -0.111824 1.037453 
-0.055973 -0.111702 1.036319 
-0.054201 -0.111659 1.035923 
-0.052450 -0.111661 1.035940 
-0.050714 -0.111694 1.036248 
-0.048986 -0.111750 1.036762 
-0.047256 -0.111803 1.037252 
-0.045518 -0.111841 1.037609 
-0.043765 -0.111843 1.037630 
-0.042024 -0.111880 1.037968 
-0.040292 -0.111943 1.038557 
-0.038556 -0.112000 1.039081 
-0.036819 -0.112058 1.039625 
-0.035086 -0.112136 1.040347 
-0.033346 -0.112200 1.040936 
-0.031587 -0.112203 1.040968 
-0.029834 -0.112229 1.041211 
-0.028093 -0.112305 1.041911 
-0.026353 -0.112399 1.042783 
-0.024621 -0.112539 1.044081 
-0.022898 -0.112743 1.045976 
-0.021166 -0.112937 1.047776 
-0.019429 -0.113141 1.049674 
-0.017683 -0.113320 1.051328 
-0.015941 -0.113576 1.053710 
-0.014195 -0.113855 1.056295 
-0.012440 -0.114142 1.058956 
-0.010677 -0.114425 1.061586 
-0.008902 -0.114687 1.064009 
-0.007113 -0.114841 1.065443 
-0.005318 -0.114980 1.066735 
-0.003519 -0.115119 1.068023 
-0.001715 -0.115209 1.068853 
0.000092 -0.115308 1.069771 
0.001903 -0.115484 1.071412 
0.003719 -0.115631 1.072773 
0.005541 -0.115797 1.074315 
0.007368 -0.115971 1.075928 
0.009202 -0.116164 1.077718 
0.011039 -0.116323 1.079187 
0.012880 -0.116472 1.080571 
0.014729 -0.116649 1.082213 
0.016583 -0.116821 1.083814 
0.018437 -0.116954 1.085041 
0.020337 -0.117333 1.088563 
0.022302 -0.117993 1.094683 
0.024317 -0.118798 1.102157 
0.026356 -0.119597 1.109564 
0.028411 -0.120355 1.116598 
0.030403 -0.120770 1.120453 
0.032336 -0.120915 1.121792 
0.034224 -0.120886 1.121527 
0.036098 -0.120811 1.120830 
0.037967 -0.120730 1.120076 
0.039819 -0.120603 1.118902 
-0.101263 -0.111588 1.051808 
-0.099447 -0.111546 1.051412 
-0.097646 -0.111519 1.051153 
-0.095813 -0.111454 1.050544 
-0.093997 -0.111406 1.050089 
-0.092199 -0.111379 1.049831 
-0.090409 -0.111361 1.049661 
-0.088622 -0.111344 1.049508 
-0.086850 -0.111348 1.049539 
-0.085136 -0.111426 1.050280 
-0.083451 -0.111547 1.051418 
-0.081775 -0.111686 1.052726 
-0.080106 -0.111840 1.054178 
-0.078420 -0.111978 1.055478 
-0.076692 -0.112060 1.056253 
-0.074957 -0.112137 1.056974 
-0.073163 -0.112126 1.056871 
-0.071328 -0.112049 1.056145 
-0.069450 -0.111899 1.054737 
-0.067496 -0.111617 1.052082 
-0.065502 -0.111251 1.048626 
-0.063510 -0.110868 1.045019 
-0.061561 -0.110540 1.041930 
-0.059629 -0.110227 1.038973 
-0.057776 -0.110041 1.037225 
-0.055954 -0.109908 1.035970 
-0.054182 -0.109865 1.035562 
-0.052432 -0.109867 1.035583 
-0.050708 -0.109924 1.036120 
-0.048987 -0.109994 1.036776 
-0.047262 -0.110058 1.037387 
-0.045524 -0.110096 1.037740 
-0.043770 -0.110097 1.037748 
-0.042029 -0.110133 1.038087 
-0.040298 -0.110197 1.038688 
-0.038562 -0.110254 1.039228 
-0.036824 -0.110312 1.039778 
-0.035095 -0.110401 1.040614 
-0.033355 -0.110465 1.041217 
-0.031599 -0.110481 1.041372 
-0.029849 -0.110519 1.041730 
-0.028113 -0.110618 1.042662 
-0.026373 -0.110714 1.043566 
-0.024638 -0.110843 1.044785 
-0.022910 -0.111031 1.046557 
-0.021174 -0.111205 1.048189 
-0.019432 -0.111377 1.049819 
-0.017685 -0.111551 1.051459 
-0.015944 -0.111805 1.053846 
-0.014197 -0.112080 1.056438 
-0.012442 -0.112361 1.059092 
