1600
-0.006758 -0.249816 1.012264 
-0.005049 -0.249938 1.012758 
-0.102276 -0.243283 0.992610 
-0.100533 -0.243125 0.991966 
-0.098783 -0.242947 0.991240 
-0.097032 -0.242758 0.990468 
-0.095232 -0.242437 0.989159 
-0.093462 -0.242186 0.988133 
-0.091705 -0.241957 0.987201 
-0.089919 -0.241643 0.985918 
-0.088108 -0.241246 0.984299 
-0.086321 -0.240904 0.982904 
-0.084454 -0.240320 0.980521 
-0.079026 -0.238942 0.974900 
-0.077316 -0.238753 0.974128 
-0.075640 -0.238659 0.973744 
-0.073951 -0.238522 0.973184 
-0.072286 -0.238456 0.972916 
-0.070668 -0.238546 0.973283 
-0.069080 -0.238744 0.974090 
-0.067508 -0.239009 0.975173 
-0.065927 -0.239255 0.976175 
-0.064627 -0.240557 0.981490 
-0.063279 -0.241749 0.986351 
-0.061931 -0.243003 0.991468 
-0.060633 -0.244526 0.997683 
-0.059307 -0.246022 1.003787 
-0.057698 -0.246399 1.005324 
-0.056067 -0.246699 1.006546 
-0.054415 -0.246925 1.007471 
-0.052703 -0.246882 1.007295 
-0.050977 -0.246771 1.006839 
-0.049264 -0.246718 1.006627 
-0.047557 -0.246689 1.006509 
-0.045839 -0.246603 1.006156 
-0.044117 -0.246484 1.005669 
-0.042397 -0.246367 1.005192 
-0.040679 -0.246254 1.004732 
-0.038963 -0.246146 1.004292 
-0.037257 -0.246089 1.004058 
-0.035539 -0.245952 1.003499 
-0.033827 -0.245833 1.003013 
-0.032118 -0.245735 1.002615 
-0.030412 -0.245648 1.002260 
-0.028712 -0.245594 1.002039 
-0.027021 -0.245620 1.002146 
-0.025340 -0.245754 1.002691 
-0.023657 -0.245875 1.003184 
-0.021977 -0.246053 1.003910 
-0.020301 -0.246307 1.004948 
-0.018625 -0.246615 1.006205 
-0.016938 -0.246828 1.007075 
-0.015254 -0.247115 1.008245 
-0.013566 -0.247424 1.009506 
-0.011873 -0.247714 1.010688 
-0.010175 -0.247955 1.011673 
-0.008474 -0.248249 1.012870 
-0.006768 -0.248456 1.013715 
-0.005056 -0.248578 1.014214 
-0.003369 -0.252323 1.022424 
-0.105720 -0.243486 0.993437 
-0.107410 -0.243509 0.993533 
-0.107430 -0.241870 0.993718 
-0.105734 -0.241833 0.993565 
-0.104043 -0.241806 0.993457 
-0.102285 -0.241623 0.992701 
-0.100545 -0.241473 0.992086 
-0.098772 -0.241240 0.991128 
-0.096990 -0.240975 0.990041 
-0.095156 -0.240571 0.988380 
-0.093354 -0.240232 0.986986 
-0.091577 -0.239947 0.985819 
-0.089789 -0.239624 0.984491 
-0.087982 -0.239237 0.982899 
-0.086222 -0.238963 0.981774 
-0.084387 -0.238469 0.979744 
-0.082576 -0.239681 0.977914 
-0.082575 -0.238020 0.977900 
-0.080737 -0.239129 0.975660 
-0.080762 -0.237550 0.975971 
-0.079059 -0.237390 0.975313 
-0.077352 -0.237211 0.974575 
-0.075686 -0.237153 0.974339 
-0.073989 -0.236993 0.973680 
-0.072337 -0.236974 0.973603 
-0.070718 -0.237065 0.973978 
-0.069122 -0.237239 0.974692 
-0.067541 -0.237474 0.975657 
-0.065959 -0.237717 0.976654 
-0.064632 -0.238914 0.981572 
-0.063271 -0.240045 0.986218 
-0.061907 -0.241229 0.991082 
-0.060593 -0.242677 0.997034 
-0.059241 -0.244051 1.002677 
-0.057631 -0.244409 1.004147 
-0.055999 -0.244696 1.005327 
-0.054355 -0.244947 1.006361 
-0.052652 -0.244937 1.006318 
-0.050939 -0.244881 1.006090 
-0.049233 -0.244857 1.005989 
-0.047527 -0.244829 1.005874 
-0.045816 -0.244772 1.005640 
-0.044096 -0.244663 1.005192 
-0.042377 -0.244551 1.004732 
-0.040660 -0.244439 1.004273 
-0.038945 -0.244328 1.003815 
-0.037234 -0.244241 1.003460 
-0.035521 -0.244127 1.002989 
-0.033813 -0.244038 1.002626 
-0.032107 -0.243951 1.002269 
-0.030406 -0.243895 1.002035 
-0.028709 -0.243869 1.001933 
-0.027018 -0.243899 1.002055 
-0.025338 -0.244036 1.002615 
-0.023657 -0.244181 1.003211 
-0.021980 -0.244383 1.004041 
-0.020303 -0.244635 1.005079 
-0.018629 -0.244969 1.006451 
-0.016945 -0.245211 1.007445 
-0.015261 -0.245526 1.008740 
-0.013573 -0.245836 1.010014 
-0.011882 -0.246174 1.011400 
-0.010183 -0.246446 1.012518 
-0.008482 -0.246765 1.013829 
-0.006775 -0.247003 1.014807 
-0.005062 -0.247147 1.015397 
-0.107460 -0.240254 0.994000 
-0.105755 -0.240196 0.993760 
-0.104051 -0.240140 0.993531 
-0.102291 -0.239954 0.992758 
-0.100543 -0.239786 0.992064 
-0.098745 -0.239495 0.990859 
-0.096924 -0.239133 0.989364 
-0.095066 -0.238667 0.987435 
-0.093243 -0.238275 0.985814 
-0.091458 -0.237967 0.984537 
-0.089674 -0.237651 0.983230 
-0.087886 -0.237310 0.981819 
-0.086143 -0.237081 0.980872 
-0.084342 -0.236680 0.979213 
-0.082575 -0.236361 0.977894 
-0.080829 -0.236090 0.976772 
-0.079141 -0.235981 0.976322 
-0.077433 -0.235806 0.975598 
-0.075761 -0.235734 0.975301 
-0.074055 -0.235553 0.974551 
-0.072394 -0.235510 0.974374 
-0.070768 -0.235580 0.974663 
-0.069171 -0.235754 0.975383 
-0.067590 -0.235991 0.976365 
-0.066027 -0.236305 0.977662 
-0.064673 -0.237399 0.982189 
-0.063288 -0.238437 0.986483 
-0.061891 -0.239487 0.990827 
-0.060540 -0.240775 0.996155 
-0.059137 -0.241923 1.000908 
-0.057528 -0.242275 1.002362 
-0.055906 -0.242589 1.003660 
-0.054285 -0.242928 1.005066 
-0.052609 -0.243033 1.005501 
-0.050920 -0.243088 1.005728 
-0.049221 -0.243092 1.005742 
-0.047515 -0.243063 1.005624 
-0.045804 -0.243006 1.005386 
-0.044080 -0.242873 1.004835 
-0.042358 -0.242737 1.004273 
-0.040641 -0.242622 1.003796 
-0.038925 -0.242503 1.003306 
-0.037208 -0.242366 1.002738 
-0.035496 -0.242255 1.002281 
-0.033790 -0.242172 1.001935 
-0.032086 -0.242091 1.001600 
-0.030389 -0.242064 1.001489 
-0.028699 -0.242093 1.001610 
-0.027013 -0.242152 1.001853 
-0.025336 -0.242317 1.002537 
-0.023658 -0.242486 1.003235 
-0.021982 -0.242711 1.004166 
-0.020306 -0.242964 1.005212 
-0.018634 -0.243326 1.006710 
-0.016951 -0.243592 1.007811 
-0.015268 -0.243933 1.009222 
-0.013580 -0.244243 1.010507 
-0.011889 -0.244607 1.012010 
-0.010190 -0.244903 1.013237 
-0.008489 -0.245249 1.014666 
-0.006781 -0.245508 1.015738 
-0.005068 -0.245676 1.016433 
-0.107530 -0.238724 0.994648 
-0.105789 -0.238589 0.994085 
-0.104050 -0.238455 0.993526 
-0.102281 -0.238247 0.992659 
-0.100523 -0.238058 0.991873 
-0.098699 -0.237703 0.990391 
-0.096845 -0.237262 0.988557 
-0.094973 -0.236763 0.986476 
-0.093143 -0.236351 0.984759 
-0.091353 -0.236027 0.983409 
-0.089592 -0.235769 0.982334 
-0.087835 -0.235509 0.981252 
-0.086113 -0.235336 0.980532 
-0.084342 -0.235022 0.979222 
-0.082612 -0.234809 0.978335 
-0.080886 -0.234600 0.977463 
-0.079215 -0.234545 0.977235 
-0.077513 -0.234395 0.976611 
-0.075837 -0.234317 0.976284 
-0.074128 -0.234130 0.975508 
-0.072472 -0.234109 0.975418 
-0.070838 -0.234159 0.975628 
-0.069247 -0.234357 0.976453 
-0.067677 -0.234638 0.977624 
-0.066135 -0.235030 0.979258 
-0.064732 -0.235952 0.983098 
-0.063315 -0.236866 0.986905 
-0.061874 -0.237742 0.990554 
-0.060468 -0.238800 0.994963 
-0.059004 -0.239689 0.998666 
-0.057412 -0.240089 1.000336 
-0.055807 -0.240461 1.001885 
-0.054211 -0.240897 1.003700 
-0.052564 -0.241124 1.004646 
-0.050906 -0.241317 1.005452 
-0.049214 -0.241351 1.005592 
-0.047512 -0.241342 1.005555 
-0.045800 -0.241280 1.005295 
-0.044071 -0.241117 1.004617 
-0.042343 -0.240952 1.003929 
-0.040625 -0.240829 1.003417 
-0.038906 -0.240686 1.002822 
-0.037182 -0.240500 1.002048 
-0.035472 -0.240391 1.001591 
-0.033767 -0.240306 1.001238 
-0.032063 -0.240226 1.000903 
-0.030371 -0.240226 1.000903 
-0.028689 -0.240308 1.001246 
-0.027006 -0.240395 1.001611 
-0.025330 -0.240561 1.002300 
-0.023655 -0.240753 1.003101 
-0.021980 -0.240981 1.004050 
-0.020304 -0.241235 1.005110 
-0.018635 -0.241623 1.006727 
-0.016955 -0.241938 1.008039 
-0.015272 -0.242281 1.009469 
-0.013584 -0.242615 1.010857 
-0.011894 -0.243005 1.012485 
-0.010195 -0.243299 1.013707 
-0.008493 -0.243645 1.015150 
-0.006785 -0.243927 1.016326 
-0.005072 -0.244148 1.017245 
-0.109460 -0.237576 0.996903 
-0.107619 -0.237234 0.995469 
-0.105836 -0.237008 0.994521 
-0.104061 -0.236796 0.993631 
-0.102259 -0.236514 0.992447 
-0.100488 -0.236293 0.991521 
-0.098621 -0.235839 0.989614 
-0.096745 -0.235345 0.987542 
-0.094875 -0.234848 0.985457 
-0.093067 -0.234489 0.983952 
-0.091293 -0.234205 0.982759 
-0.089555 -0.234007 0.981928 
-0.087818 -0.233801 0.981066 
-0.086105 -0.233654 0.980449 
-0.084354 -0.233394 0.979358 
-0.082643 -0.233237 0.978696 
-0.080953 -0.233136 0.978272 
-0.079290 -0.233108 0.978156 
-0.077603 -0.233009 0.977742 
-0.075922 -0.232923 0.977382 
-0.074209 -0.232734 0.976585 
-0.072545 -0.232689 0.976399 
-0.070916 -0.232762 0.976704 
-0.069324 -0.232961 0.977538 
-0.067766 -0.233288 0.978910 
-0.066245 -0.233758 0.980883 
-0.064800 -0.234531 0.984127 
-0.063344 -0.235303 0.987367 
-0.061861 -0.236011 0.990339 
-0.060397 -0.236838 0.993806 
-0.058879 -0.237492 0.996552 
-0.057308 -0.237964 0.998534 
-0.055726 -0.238418 1.000437 
-0.054161 -0.238972 1.002764 
-0.052547 -0.239345 1.004327 
-0.050920 -0.239678 1.005727 
-0.049233 -0.239739 1.005982 
-0.047530 -0.239729 1.005940 
-0.045811 -0.239633 1.005536 
-0.044071 -0.239415 1.004621 
-0.042334 -0.239196 1.003703 
-0.040607 -0.239022 1.002971 
-0.038888 -0.238877 1.002364 
-0.037161 -0.238668 1.001485 
-0.035452 -0.238558 1.001025 
-0.033747 -0.238467 1.000646 
-0.032047 -0.238406 1.000387 
-0.030356 -0.238406 1.000387 
-0.028678 -0.238516 1.000851 
-0.026999 -0.238635 1.001349 
-0.025324 -0.238802 1.002049 
-0.023651 -0.239017 1.002951 
-0.021976 -0.239241 1.003893 
-0.020299 -0.239473 1.004864 
-0.018628 -0.239835 1.006385 
-0.016951 -0.240173 1.007800 
-0.015269 -0.240514 1.009234 
-0.013581 -0.240850 1.010642 
-0.011894 -0.241289 1.012486 
-0.010196 -0.241607 1.013820 
-0.008495 -0.241980 1.015384 
-0.006788 -0.242291 1.016690 
-0.005075 -0.242571 1.017866 
-0.111504 -0.236648 1.000123 
-0.109588 -0.236163 0.998076 
-0.107721 -0.235770 0.996413 
-0.105903 -0.235473 0.995160 
-0.104085 -0.235165 0.993857 
-0.102258 -0.234828 0.992435 
-0.100461 -0.234550 0.991259 
-0.098564 -0.234025 0.989040 
-0.096679 -0.233509 0.986860 
-0.094821 -0.233044 0.984895 
-0.093034 -0.232740 0.983607 
-0.091284 -0.232516 0.982663 
-0.089577 -0.232398 0.982165 
-0.087859 -0.232245 0.981518 
-0.086154 -0.232123 0.981003 
-0.084418 -0.231910 0.980099 
-0.082706 -0.231756 0.979449 
-0.081034 -0.231709 0.979252 
-0.079379 -0.231710 0.979255 
-0.077691 -0.231615 0.978853 
-0.076001 -0.231506 0.978392 
-0.074301 -0.231365 0.977797 
-0.072636 -0.231325 0.977629 
-0.071000 -0.231379 0.977858 
-0.069420 -0.231622 0.978884 
-0.067866 -0.231970 0.980353 
-0.066352 -0.232469 0.982465 
-0.064866 -0.233101 0.985133 
-0.063377 -0.233749 0.987873 
-0.061852 -0.234301 0.990205 
-0.060346 -0.234955 0.992970 
-0.058786 -0.235428 0.994970 
-0.057228 -0.235939 0.997128 
-0.055666 -0.236465 0.999349 
-0.054122 -0.237102 1.002043 
-0.052535 -0.237588 1.004099 
-0.050932 -0.238030 1.005965 
-0.049255 -0.238144 1.006447 
-0.047552 -0.238134 1.006404 
-0.045827 -0.238009 1.005878 
-0.044076 -0.237740 1.004741 
-0.042329 -0.237469 1.003594 
-0.040594 -0.237242 1.002637 
-0.038871 -0.237072 1.001915 
-0.037137 -0.236813 1.000822 
-0.035424 -0.236676 1.000244 
-0.033720 -0.236581 0.999842 
-0.032021 -0.236519 0.999580 
-0.030335 -0.236546 0.999693 
-0.028661 -0.236686 1.000285 
-0.026987 -0.236832 1.000903 
-0.025313 -0.236997 1.001600 
-0.023643 -0.237233 1.002597 
-0.021966 -0.237427 1.003418 
-0.020291 -0.237682 1.004494 
-0.018621 -0.238038 1.006000 
-0.016946 -0.238400 1.007531 
-0.015265 -0.238740 1.008965 
-0.013579 -0.239101 1.010491 
-0.011892 -0.239514 1.012236 
-0.010195 -0.239857 1.013688 
-0.008494 -0.240230 1.015264 
-0.006787 -0.240546 1.016597 
-0.005075 -0.240857 1.017914 
-0.113365 -0.237004 1.001628 
-0.115334 -0.235870 1.004031 
-0.113490 -0.235566 1.002735 
-0.111621 -0.235198 1.001171 
-0.109700 -0.234710 0.999090 
-0.107823 -0.234301 0.997349 
-0.105970 -0.233934 0.995787 
-0.104102 -0.233519 0.994023 
-0.102237 -0.233099 0.992233 
-0.100395 -0.232716 0.990603 
-0.098474 -0.232136 0.988137 
-0.096573 -0.231582 0.985779 
-0.094728 -0.231147 0.983926 
-0.092966 -0.230902 0.982883 
-0.091247 -0.230758 0.982268 
-0.089554 -0.230675 0.981915 
-0.087855 -0.230571 0.981474 
-0.086166 -0.230492 0.981135 
-0.084455 -0.230350 0.980534 
-0.082753 -0.230227 0.980010 
-0.081107 -0.230255 0.980130 
-0.079467 -0.230307 0.980349 
-0.077787 -0.230238 0.980057 
-0.076095 -0.230132 0.979604 
-0.074411 -0.230045 0.979235 
-0.072745 -0.230013 0.979098 
-0.071115 -0.230094 0.979442 
-0.069539 -0.230358 0.980567 
-0.067991 -0.230731 0.982155 
-0.066474 -0.231230 0.984279 
-0.064966 -0.231785 0.986640 
-0.063444 -0.232322 0.988925 
-0.061893 -0.232776 0.990858 
-0.060346 -0.233268 0.992955 
-0.058747 -0.233588 0.994316 
-0.057182 -0.234062 0.996335 
-0.055626 -0.234604 0.998642 
-0.054091 -0.235267 1.001464 
-0.052519 -0.235810 1.003775 
-0.050938 -0.236350 1.006073 
-0.049272 -0.236516 1.006781 
-0.047568 -0.236508 1.006746 
-0.045838 -0.236361 1.006119 
-0.044086 -0.236091 1.004968 
-0.042334 -0.235792 1.003697 
-0.040589 -0.235513 1.002512 
-0.038861 -0.235314 1.001662 
-0.037118 -0.235001 1.000331 
-0.035399 -0.234814 0.999536 
-0.033689 -0.234672 0.998930 
-0.031989 -0.234588 0.998573 
-0.030304 -0.234618 0.998702 
-0.028637 -0.234786 0.999415 
-0.026970 -0.234984 1.000256 
-0.025299 -0.235173 1.001061 
-0.023635 -0.235455 1.002262 
-0.021958 -0.235646 1.003075 
-0.020286 -0.235921 1.004245 
-0.018616 -0.236272 1.005741 
-0.016943 -0.236655 1.007371 
-0.015262 -0.236992 1.008806 
-0.013579 -0.237380 1.010457 
-0.011891 -0.237790 1.012201 
-0.010195 -0.238133 1.013663 
-0.008494 -0.238502 1.015232 
-0.006787 -0.238815 1.016564 
-0.005075 -0.239123 1.017878 
-0.115384 -0.234269 1.004464 
-0.113540 -0.233969 1.003177 
-0.111677 -0.233619 1.001675 
-0.109756 -0.233135 0.999600 
-0.107861 -0.232694 0.997709 
-0.105967 -0.232240 0.995761 
-0.104052 -0.231722 0.993544 
-0.102150 -0.231219 0.991385 
-0.100282 -0.230777 0.989490 
-0.098351 -0.230173 0.986898 
-0.096462 -0.229649 0.984654 
-0.094641 -0.229270 0.983029 
-0.092912 -0.229103 0.982311 
-0.091215 -0.229012 0.981921 
-0.089542 -0.228980 0.981786 
-0.087863 -0.228929 0.981567 
-0.086194 -0.228904 0.981461 
-0.084493 -0.228791 0.980976 
-0.082802 -0.228699 0.980582 
-0.081156 -0.228732 0.980722 
-0.079516 -0.228785 0.980948 
-0.077842 -0.228738 0.980747 
-0.076165 -0.228683 0.980512 
-0.074496 -0.228648 0.980362 
-0.072846 -0.228669 0.980453 
-0.071230 -0.228804 0.981029 
-0.069659 -0.229091 0.982262 
-0.068115 -0.229484 0.983947 
-0.066582 -0.229935 0.985879 
-0.065049 -0.230408 0.987908 
-0.063503 -0.230857 0.989834 
-0.061929 -0.231229 0.991429 
-0.060342 -0.231570 0.992890 
-0.058724 -0.231809 0.993913 
-0.057151 -0.232246 0.995789 
-0.055595 -0.232781 0.998080 
-0.054067 -0.233466 1.001022 
-0.052513 -0.234084 1.003670 
-0.050949 -0.234698 1.006301 
-0.049294 -0.234916 1.007236 
-0.047590 -0.234909 1.007208 
-0.045854 -0.234740 1.006483 
-0.044096 -0.234442 1.005202 
-0.042338 -0.234117 1.003809 
-0.040584 -0.233787 1.002395 
-0.038851 -0.233557 1.001409 
-0.037104 -0.233218 0.999954 
-0.035381 -0.233001 0.999024 
-0.033668 -0.232834 0.998309 
-0.031969 -0.232752 0.997956 
-0.030286 -0.232786 0.998102 
-0.028620 -0.232953 0.998821 
-0.026954 -0.233152 0.999672 
-0.025285 -0.233342 1.000488 
-0.023624 -0.233649 1.001805 
-0.021949 -0.233843 1.002637 
-0.020278 -0.234119 1.003820 
-0.018608 -0.234468 1.005314 
-0.016938 -0.234873 1.007051 
-0.015256 -0.235184 1.008386 
-0.013575 -0.235594 1.010144 
-0.011887 -0.236001 1.011887 
-0.010192 -0.236363 1.013443 
-0.008491 -0.236700 1.014884 
-0.006784 -0.237005 1.016194 
-0.005072 -0.237277 1.017360 
-0.117348 -0.233094 1.006742 
-0.115455 -0.232709 1.005079 
-0.113584 -0.232359 1.003567 
-0.111705 -0.231979 1.001926 
-0.109746 -0.231420 0.999510 
-0.107815 -0.230903 0.997278 
-0.105874 -0.230349 0.994886 
-0.103935 -0.229779 0.992425 
-0.102011 -0.229225 0.990033 
-0.100131 -0.228754 0.987999 
-0.098202 -0.228153 0.985402 
-0.096345 -0.227703 0.983459 
-0.094542 -0.227365 0.981997 
-0.092835 -0.227251 0.981505 
-0.091169 -0.227232 0.981424 
-0.089516 -0.227249 0.981498 
-0.087849 -0.227230 0.981415 
-0.086203 -0.227263 0.981555 
-0.084523 -0.227207 0.981317 
-0.082841 -0.227146 0.981051 
-0.081202 -0.227200 0.981284 
-0.079561 -0.227251 0.981507 
-0.077894 -0.227227 0.981404 
-0.076225 -0.227200 0.981283 
-0.074572 -0.227217 0.981357 
-0.072930 -0.227269 0.981581 
-0.071327 -0.227450 0.982366 
-0.069756 -0.227741 0.983624 
-0.068203 -0.228111 0.985218 
-0.066652 -0.228502 0.986909 
-0.065109 -0.228942 0.988809 
-0.063545 -0.229333 0.990497 
-0.061964 -0.229678 0.991987 
-0.060375 -0.230012 0.993431 
-0.058755 -0.230248 0.994448 
-0.057192 -0.230724 0.996505 
-0.055641 -0.231280 0.998905 
-0.054113 -0.231970 1.001886 
-0.052560 -0.232589 1.004561 
-0.050995 -0.233201 1.007202 
-0.049328 -0.233370 1.007934 
-0.047613 -0.233315 1.007698 
-0.045871 -0.233119 1.006849 
-0.044107 -0.232792 1.005438 
-0.042343 -0.232441 1.003924 
-0.040580 -0.232065 1.002299 
-0.038843 -0.231812 1.001206 
-0.037092 -0.231444 0.999616 
-0.035364 -0.231199 0.998558 
-0.033648 -0.231006 0.997723 
-0.031950 -0.230921 0.997357 
-0.030264 -0.230927 0.997383 
-0.028596 -0.231067 0.997986 
-0.026931 -0.231261 0.998825 
-0.025263 -0.231453 0.999655 
-0.023605 -0.231767 1.001011 
-0.021937 -0.232014 1.002076 
-0.020269 -0.232316 1.003382 
-0.018599 -0.232641 1.004786 
-0.016929 -0.233041 1.006512 
-0.015249 -0.233374 1.007953 
-0.013569 -0.233782 1.009715 
-0.011883 -0.234191 1.011479 
-0.010190 -0.234595 1.013227 
-0.008489 -0.234927 1.014659 
-0.006782 -0.235199 1.015834 
-0.005069 -0.235413 1.016759 
-0.120995 -0.233565 1.008775 
-0.121002 -0.231868 1.008831 
-0.119190 -0.231660 1.007929 
-0.117390 -0.231470 1.007102 
-0.115492 -0.231079 1.005401 
-0.113611 -0.230711 1.003797 
-0.111722 -0.230316 1.002080 
-0.109760 -0.229755 0.999638 
-0.107802 -0.229186 0.997162 
-0.105834 -0.228575 0.994507 
-0.103859 -0.227930 0.991700 
-0.101903 -0.227307 0.988987 
-0.099997 -0.226776 0.986677 
-0.098082 -0.226206 0.984199 
-0.096252 -0.225816 0.982502 
-0.094473 -0.225535 0.981279 
-0.092782 -0.225456 0.980937 
-0.091135 -0.225486 0.981065 
-0.089501 -0.225547 0.981332 
-0.087846 -0.225557 0.981375 
-0.086213 -0.225625 0.981671 
-0.084553 -0.225624 0.981667 
-0.082887 -0.225606 0.981589 
-0.081246 -0.225658 0.981813 
-0.079603 -0.225706 0.982024 
-0.077936 -0.225685 0.981929 
-0.076267 -0.225660 0.981820 
-0.074614 -0.225680 0.981908 
-0.072979 -0.225757 0.982243 
-0.071377 -0.225942 0.983051 
-0.069804 -0.226232 0.984309 
-0.068243 -0.226573 0.985794 
-0.066682 -0.226931 0.987354 
-0.065130 -0.227340 0.989131 
-0.063572 -0.227750 0.990916 
-0.061998 -0.228122 0.992536 
-0.060422 -0.228508 0.994212 
-0.058814 -0.228789 0.995438 
-0.057262 -0.229316 0.997729 
-0.055712 -0.229878 1.000173 
-0.054178 -0.230546 1.003080 
-0.052617 -0.231137 1.005650 
-0.051045 -0.231718 1.008179 
-0.049364 -0.231831 1.008670 
-0.047637 -0.231723 1.008204 
-0.045887 -0.231495 1.007210 
-0.044117 -0.231140 1.005665 
-0.042344 -0.230742 1.003933 
-0.040576 -0.230344 1.002201 
-0.038836 -0.230069 1.001005 
-0.037080 -0.229678 0.999306 
-0.035350 -0.229410 0.998139 
-0.033633 -0.229213 0.997281 
-0.031932 -0.229103 0.996801 
-0.030244 -0.229080 0.996703 
-0.028575 -0.229211 0.997274 
-0.026911 -0.229399 0.998091 
-0.025247 -0.229613 0.999022 
-0.023591 -0.229927 1.000389 
-0.021928 -0.230227 1.001691 
-0.020263 -0.230554 1.003116 
-0.018594 -0.230877 1.004522 
-0.016922 -0.231246 1.006126 
-0.015243 -0.231574 1.007555 
-0.013562 -0.231957 1.009219 
-0.011874 -0.232316 1.010781 
-0.010183 -0.232720 1.012542 
-0.008484 -0.233049 1.013969 
-0.006777 -0.233322 1.015160 
-0.005065 -0.233511 1.015980 
-0.003354 -0.235653 1.017793 
-0.003351 -0.233739 1.016975 
-0.120994 -0.230142 1.008763 
-0.119203 -0.229976 1.008036 
-0.117407 -0.229798 1.007254 
-0.115509 -0.229410 1.005555 
-0.113600 -0.228988 1.003704 
-0.111696 -0.228563 1.001842 
-0.109721 -0.227979 0.999281 
-0.107737 -0.227357 0.996558 
-0.105743 -0.226695 0.993655 
-0.103756 -0.226026 0.990722 
-0.101782 -0.225364 0.987819 
-0.099861 -0.224797 0.985334 
-0.097959 -0.224257 0.982967 
-0.096134 -0.223877 0.981301 
-0.094372 -0.223632 0.980230 
-0.092696 -0.223587 0.980031 
-0.091060 -0.223638 0.980255 
-0.089426 -0.223697 0.980514 
-0.087791 -0.223753 0.980760 
-0.086169 -0.223848 0.981175 
-0.084529 -0.223897 0.981390 
-0.082880 -0.223924 0.981510 
-0.081255 -0.224019 0.981927 
-0.079621 -0.224091 0.982241 
-0.077962 -0.224095 0.982258 
-0.076308 -0.224116 0.982351 
-0.074662 -0.224160 0.982545 
-0.073026 -0.224236 0.982878 
-0.071430 -0.224443 0.983785 
-0.069848 -0.224705 0.984931 
-0.068278 -0.225016 0.986296 
-0.066715 -0.225370 0.987845 
-0.065155 -0.225749 0.989509 
-0.063606 -0.226190 0.991441 
-0.062052 -0.226639 0.993408 
-0.060493 -0.227087 0.995373 
-0.058904 -0.227453 0.996975 
-0.057378 -0.228084 0.999743 
-0.055826 -0.228651 1.002228 
-0.054278 -0.229270 1.004943 
-0.052700 -0.229795 1.007241 
-0.051105 -0.230280 1.009368 
-0.049399 -0.230284 1.009384 
-0.047654 -0.230098 1.008571 
-0.045893 -0.229818 1.007343 
-0.044112 -0.229412 1.005564 
-0.042334 -0.228987 1.003700 
-0.040563 -0.228568 1.001863 
-0.038819 -0.228272 1.000566 
-0.037068 -0.227908 0.998969 
-0.035338 -0.227643 0.997808 
-0.033616 -0.227403 0.996758 
-0.031915 -0.227291 0.996267 
-0.030224 -0.227240 0.996045 
-0.028550 -0.227321 0.996396 
-0.026884 -0.227477 0.997082 
-0.025224 -0.227710 0.998102 
-0.023569 -0.228023 0.999476 
-0.021911 -0.228346 1.000890 
-0.020247 -0.228671 1.002316 
-0.018581 -0.229013 1.003816 
-0.016909 -0.229351 1.005296 
-0.015230 -0.229670 1.006693 
-0.013549 -0.230024 1.008247 
-0.011864 -0.230404 1.009912 
-0.010175 -0.230810 1.011689 
-0.008477 -0.231162 1.013234 
-0.006773 -0.231441 1.014456 
-0.005062 -0.231632 1.015293 
-0.003348 -0.231811 1.016077 
-0.001634 -0.234003 1.018124 
-0.001632 -0.232044 1.017101 
-0.122832 -0.228679 1.009856 
-0.120991 -0.228427 1.008741 
-0.119187 -0.228237 1.007903 
-0.117386 -0.228049 1.007070 
-0.115468 -0.227625 1.005198 
-0.113527 -0.227140 1.003058 
-0.111613 -0.226697 1.001100 
-0.109631 -0.226099 0.998460 
-0.107639 -0.225462 0.995647 
-0.105635 -0.224781 0.992642 
-0.103637 -0.224089 0.989584 
-0.101664 -0.223428 0.986667 
-0.099752 -0.222884 0.984261 
-0.097854 -0.222351 0.981910 
-0.096050 -0.222018 0.980439 
-0.094309 -0.221823 0.979577 
-0.092645 -0.221804 0.979494 
-0.091012 -0.221860 0.979742 
-0.089396 -0.221960 0.980183 
-0.087768 -0.222034 0.980509 
-0.086139 -0.222107 0.980831 
-0.084500 -0.222157 0.981054 
-0.082860 -0.222208 0.981276 
-0.081238 -0.222307 0.981715 
-0.079606 -0.222386 0.982063 
-0.077957 -0.222417 0.982203 
-0.076319 -0.222482 0.982490 
-0.074681 -0.222550 0.982788 
-0.073044 -0.222625 0.983121 
-0.071439 -0.222804 0.983908 
-0.069856 -0.223059 0.985036 
-0.068276 -0.223339 0.986273 
-0.066715 -0.223694 0.987840 
-0.065162 -0.224099 0.989628 
-0.063642 -0.224638 0.992008 
-0.062111 -0.225167 0.994344 
-0.060586 -0.225748 0.996912 
-0.059031 -0.226247 0.999115 
-0.057523 -0.226962 1.002271 
-0.055968 -0.227529 1.004776 
-0.054396 -0.228059 1.007114 
-0.052775 -0.228414 1.008683 
-0.051135 -0.228706 1.009973 
-0.049399 -0.228574 1.009391 
-0.047634 -0.228289 1.008131 
-0.045864 -0.227963 1.006690 
-0.044083 -0.227555 1.004892 
-0.042300 -0.227106 1.002906 
-0.040530 -0.226686 1.001051 
-0.038787 -0.226389 0.999742 
-0.037042 -0.226056 0.998271 
-0.035314 -0.225797 0.997126 
-0.033596 -0.225584 0.996186 
-0.031897 -0.225474 0.995700 
-0.030204 -0.225401 0.995377 
-0.028531 -0.225478 0.995718 
-0.026863 -0.225609 0.996298 
-0.025205 -0.225841 0.997321 
-0.023548 -0.226126 0.998580 
-0.021893 -0.226470 1.000097 
-0.020229 -0.226767 1.001409 
-0.018562 -0.227080 1.002795 
-0.016889 -0.227387 1.004147 
-0.015211 -0.227674 1.005418 
-0.013530 -0.227997 1.006843 
-0.011846 -0.228347 1.008386 
-0.010160 -0.228769 1.010253 
-0.008466 -0.229146 1.011915 
-0.006765 -0.229474 1.013366 
-0.005057 -0.229697 1.014351 
-0.003346 -0.229927 1.015366 
-0.001631 -0.230208 1.016605 
-0.128162 -0.229051 1.011497 
-0.128119 -0.227261 1.011161 
-0.126275 -0.227018 1.010080 
-0.124595 -0.228781 1.010304 
-0.124562 -0.227008 1.010035 
-0.122791 -0.226891 1.009516 
-0.120966 -0.226670 1.008531 
-0.119158 -0.226474 1.007661 
-0.117333 -0.226240 1.006617 
-0.115392 -0.225770 1.004529 
-0.113448 -0.225284 1.002365 
-0.111513 -0.224798 1.000202 
-0.109522 -0.224184 0.997469 
-0.107534 -0.223557 0.994682 
-0.105546 -0.222910 0.991802 
-0.103550 -0.222225 0.988754 
-0.101588 -0.221591 0.985932 
-0.099686 -0.221070 0.983615 
-0.097797 -0.220559 0.981341 
-0.095993 -0.220227 0.979864 
-0.094263 -0.220054 0.979095 
-0.092599 -0.220033 0.979001 
-0.090967 -0.220091 0.979259 
-0.089352 -0.220190 0.979699 
-0.087725 -0.220262 0.980021 
-0.086087 -0.220310 0.980236 
-0.084449 -0.220360 0.980458 
-0.082812 -0.220416 0.980704 
-0.081200 -0.220540 0.981259 
-0.079580 -0.220647 0.981734 
-0.077941 -0.220706 0.981997 
-0.076314 -0.220801 0.982419 
-0.074690 -0.220912 0.982914 
-0.073055 -0.220992 0.983268 
-0.071442 -0.221145 0.983948 
-0.069850 -0.221369 0.984947 
-0.068262 -0.221622 0.986070 
-0.066688 -0.221929 0.987438 
-0.065165 -0.222429 0.989663 
-0.063694 -0.223140 0.992825 
-0.062212 -0.223846 0.995968 
-0.060741 -0.224632 0.999464 
-0.059234 -0.225327 1.002557 
-0.057723 -0.226045 1.005750 
-0.056144 -0.226535 1.007931 
-0.054527 -0.226898 1.009546 
-0.052847 -0.227011 1.010051 
-0.051150 -0.227060 1.010268 
-0.049379 -0.226771 1.008980 
-0.047588 -0.226363 1.007167 
-0.045806 -0.225970 1.005416 
-0.044027 -0.225565 1.003615 
-0.042241 -0.225092 1.001513 
-0.040473 -0.224674 0.999653 
-0.038733 -0.224384 0.998359 
-0.036998 -0.224101 0.997101 
-0.035277 -0.223871 0.996079 
-0.033569 -0.223712 0.995369 
-0.031874 -0.223625 0.994985 
-0.030182 -0.223553 0.994665 
-0.028508 -0.223610 0.994916 
-0.026838 -0.223716 0.995386 
-0.025179 -0.223920 0.996296 
-0.023521 -0.224179 0.997449 
-0.021871 -0.224542 0.999064 
-0.020208 -0.224838 1.000381 
-0.018542 -0.225147 1.001754 
-0.016871 -0.225447 1.003092 
-0.015195 -0.225731 1.004355 
-0.013514 -0.226023 1.005654 
-0.011832 -0.226368 1.007188 
-0.010148 -0.226782 1.009031 
-0.008457 -0.227181 1.010807 
-0.006759 -0.227534 1.012376 
-0.005053 -0.227781 1.013477 
-0.003343 -0.228038 1.014620 
-0.001630 -0.228320 1.015872 
0.000088 -0.230535 1.018048 
0.000088 -0.228625 1.017229 
-0.128044 -0.225413 1.010563 
-0.126189 -0.225153 1.009395 
-0.124483 -0.225154 1.009401 
-0.122696 -0.225006 1.008737 
-0.120878 -0.224796 1.007793 
-0.119076 -0.224611 1.006966 
-0.117238 -0.224351 1.005801 
-0.115283 -0.223857 1.003587 
-0.113338 -0.223367 1.001388 
-0.111401 -0.222878 0.999198 
-0.109423 -0.222293 0.996571 
-0.107450 -0.221698 0.993907 
-0.105478 -0.221085 0.991158 
-0.103496 -0.220434 0.988238 
-0.101536 -0.219806 0.985424 
-0.099637 -0.219293 0.983126 
-0.097760 -0.218813 0.980973 
-0.095958 -0.218486 0.979506 
-0.094227 -0.218312 0.978725 
-0.092563 -0.218289 0.978624 
-0.090922 -0.218323 0.978774 
-0.089300 -0.218401 0.979123 
-0.087674 -0.218474 0.979452 
-0.086037 -0.218521 0.979664 
-0.084399 -0.218569 0.979879 
-0.082762 -0.218621 0.980111 
-0.081159 -0.218766 0.980762 
-0.079541 -0.218877 0.981258 
-0.077904 -0.218937 0.981529 
-0.076286 -0.219057 0.982064 
-0.074666 -0.219174 0.982591 
-0.073033 -0.219258 0.982966 
-0.071421 -0.219411 0.983652 
-0.069834 -0.219652 0.984731 
-0.068246 -0.219899 0.985841 
-0.066671 -0.220200 0.987191 
-0.065185 -0.220819 0.989965 
-0.063755 -0.221667 0.993768 
-0.062320 -0.222543 0.997693 
-0.060891 -0.223487 1.001925 
-0.059390 -0.224217 1.005197 
-0.057857 -0.224862 1.008092 
-0.056258 -0.225285 1.009989 
-0.054598 -0.225480 1.010863 
-0.052866 -0.225379 1.010408 
-0.051120 -0.225214 1.009668 
-0.049325 -0.224812 1.007865 
-0.047513 -0.224304 1.005590 
-0.045719 -0.223844 1.003526 
-0.043944 -0.223443 1.001729 
-0.042162 -0.222975 0.999633 
-0.040402 -0.222589 0.997900 
-0.038670 -0.222327 0.996726 
-0.036951 -0.222123 0.995813 
-0.035236 -0.221924 0.994921 
-0.033534 -0.221792 0.994326 
-0.031841 -0.221710 0.993960 
-0.030154 -0.221661 0.993738 
-0.028481 -0.221714 0.993978 
-0.026813 -0.221819 0.994447 
-0.025157 -0.222044 0.995455 
-0.023501 -0.222299 0.996601 
-0.021850 -0.222636 0.998111 
-0.020187 -0.222905 0.999317 
-0.018525 -0.223235 1.000797 
-0.016854 -0.223513 1.002043 
-0.015177 -0.223770 1.003195 
-0.013497 -0.224036 1.004386 
-0.011817 -0.224372 1.005895 
-0.010133 -0.224738 1.007534 
-0.008444 -0.225131 1.009298 
-0.006749 -0.225505 1.010975 
-0.005046 -0.225778 1.012195 
-0.003339 -0.226036 1.013352 
-0.001628 -0.226338 1.014709 
0.000087 -0.226638 1.016055 
-0.124353 -0.223209 1.008343 
-0.122580 -0.223085 1.007784 
-0.120763 -0.222876 1.006841 
-0.118949 -0.222666 1.005890 
-0.117101 -0.222386 1.004623 
-0.115146 -0.221892 1.002392 
-0.113190 -0.221381 1.000086 
-0.111242 -0.220870 0.997776 
-0.109266 -0.220286 0.995136 
-0.107285 -0.219675 0.992379 
-0.105317 -0.219070 0.989645 
-0.103351 -0.218452 0.986852 
-0.101418 -0.217883 0.984282 
-0.099546 -0.217429 0.982233 
-0.097706 -0.217029 0.980427 
-0.095909 -0.216715 0.979007 
-0.094188 -0.216563 0.978321 
-0.092523 -0.216536 0.978198 
-0.090872 -0.216544 0.978235 
-0.089242 -0.216601 0.978489 
-0.087626 -0.216695 0.978916 
-0.085990 -0.216743 0.979131 
-0.084353 -0.216789 0.979342 
-0.082723 -0.216859 0.979656 
-0.081121 -0.217001 0.980298 
-0.079510 -0.217128 0.980871 
-0.077874 -0.217190 0.981153 
-0.076264 -0.217328 0.981778 
-0.074645 -0.217447 0.982313 
-0.073019 -0.217553 0.982791 
-0.071403 -0.217689 0.983407 
-0.069817 -0.217928 0.984488 
-0.068222 -0.218149 0.985485 
-0.066629 -0.218390 0.986575 
-0.065125 -0.218942 0.989066 
-0.063749 -0.219961 0.993669 
-0.062366 -0.221016 0.998434 
-0.060977 -0.222103 1.003347 
-0.059510 -0.222960 1.007219 
-0.057992 -0.223674 1.010445 
-0.056351 -0.223941 1.011648 
-0.054643 -0.223949 1.011687 
-0.052859 -0.223640 1.010290 
-0.051062 -0.223249 1.008526 
-0.049239 -0.222714 1.006105 
-0.047408 -0.222106 1.003362 
-0.045607 -0.221598 1.001065 
-0.043841 -0.221226 0.999387 
-0.042073 -0.220813 0.997519 
-0.040322 -0.220461 0.995928 
-0.038598 -0.220231 0.994890 
-0.036891 -0.220080 0.994209 
-0.035183 -0.219912 0.993448 
-0.033489 -0.219810 0.992990 
-0.031802 -0.219753 0.992732 
-0.030120 -0.219727 0.992611 
-0.028445 -0.219756 0.992743 
-0.026779 -0.219857 0.993199 
-0.025123 -0.220053 0.994088 
-0.023469 -0.220305 0.995223 
-0.021820 -0.220639 0.996734 
-0.020159 -0.220908 0.997950 
-0.018500 -0.221237 0.999433 
-0.016831 -0.221510 1.000668 
-0.015157 -0.221766 1.001824 
-0.013477 -0.222007 1.002914 
-0.011801 -0.222362 1.004516 
-0.010119 -0.222724 1.006151 
-0.008433 -0.223114 1.007913 
-0.006740 -0.223485 1.009590 
-0.005040 -0.223777 1.010911 
-0.003335 -0.224032 1.012061 
-0.001626 -0.224333 1.013420 
0.000087 -0.224646 1.014835 
0.001807 -0.226924 1.017336 
0.001805 -0.224948 1.016201 
-0.123951 -0.220784 1.005084 
-0.122311 -0.220890 1.005568 
-0.120604 -0.220878 1.005515 
-0.118805 -0.220694 1.004676 
-0.116961 -0.220420 1.003427 
-0.115001 -0.219915 1.001129 
-0.113059 -0.219430 0.998922 
-0.111101 -0.218901 0.996511 
-0.109116 -0.218300 0.993775 
-0.107117 -0.217651 0.990822 
-0.105149 -0.217047 0.988071 
-0.103185 -0.216430 0.985265 
-0.101268 -0.215894 0.982825 
-0.099425 -0.215501 0.981037 
-0.097623 -0.215185 0.979595 
-0.095860 -0.214945 0.978504 
-0.094152 -0.214822 0.977945 
-0.092486 -0.214794 0.977816 
-0.090834 -0.214795 0.977820 
-0.089202 -0.214846 0.978053 
-0.087588 -0.214942 0.978490 
-0.085953 -0.214992 0.978718 
-0.084318 -0.215040 0.978935 
-0.082697 -0.215129 0.979343 
-0.081095 -0.215270 0.979985 
-0.079468 -0.215353 0.980360 
-0.077831 -0.215409 0.980617 
-0.076219 -0.215539 0.981206 
-0.074593 -0.215631 0.981628 
-0.072977 -0.215761 0.982218 
-0.071361 -0.215896 0.982833 
-0.069777 -0.216137 0.983929 
-0.068175 -0.216331 0.984814 
-0.066566 -0.216513 0.985643 
-0.065047 -0.217003 0.987870 
-0.062418 -0.219503 0.999252 
-0.061081 -0.220776 1.005049 
-0.059648 -0.221768 1.009563 
-0.058086 -0.222323 1.012089 
-0.056396 -0.222404 1.012458 
-0.054636 -0.222209 1.011570 
-0.052811 -0.221724 1.009362 
-0.050974 -0.221159 1.006791 
-0.049131 -0.220523 1.003896 
-0.047292 -0.219866 1.000905 
-0.045491 -0.219338 0.998502 
-0.043734 -0.218997 0.996949 
-0.041981 -0.218641 0.995327 
-0.040247 -0.218366 0.994075 
-0.038536 -0.218192 0.993285 
-0.036840 -0.218093 0.992833 
-0.035143 -0.217974 0.992294 
-0.033454 -0.217900 0.991956 
-0.031768 -0.217843 0.991696 
-0.030088 -0.217817 0.991577 
-0.028415 -0.217843 0.991696 
-0.026751 -0.217946 0.992165 
-0.025097 -0.218141 0.993054 
-0.023442 -0.218368 0.994088 
-0.021794 -0.218696 0.995579 
-0.020135 -0.218958 0.996771 
-0.018476 -0.219261 0.998153 
-0.016809 -0.219535 0.999401 
-0.015137 -0.219788 1.000552 
-0.013460 -0.220021 1.001610 
-0.011785 -0.220372 1.003209 
-0.010105 -0.220708 1.004741 
-0.008421 -0.221097 1.006512 
-0.006732 -0.221507 1.008378 
-0.005035 -0.221823 1.009813 
-0.003331 -0.222077 1.010972 
-0.001624 -0.222397 1.012427 
0.000087 -0.222681 1.013721 
0.001803 -0.222935 1.014878 
-0.125009 -0.217962 0.999954 
-0.123576 -0.218417 1.002042 
-0.122050 -0.218718 1.003423 
-0.120419 -0.218837 1.003971 
-0.118664 -0.218730 1.003477 
-0.116827 -0.218468 1.002277 
-0.114883 -0.217994 1.000104 
-0.112945 -0.217517 0.997915 
-0.110988 -0.216991 0.995499 
-0.108995 -0.216375 0.992674 
-0.106986 -0.215707 0.989611 
-0.105018 -0.215104 0.986841 
-0.103074 -0.214528 0.984203 
-0.101160 -0.214000 0.981779 
-0.099332 -0.213638 0.980115 
-0.097566 -0.213399 0.979019 
-0.095826 -0.213210 0.978153 
-0.094120 -0.213093 0.977615 
-0.092455 -0.213064 0.977482 
-0.090803 -0.213066 0.977491 
-0.089162 -0.213092 0.977611 
-0.087538 -0.213163 0.977940 
-0.085906 -0.213214 0.978173 
-0.084280 -0.213285 0.978499 
-0.082663 -0.213381 0.978936 
-0.081062 -0.213524 0.979595 
-0.079437 -0.213607 0.979975 
-0.077799 -0.213657 0.980203 
-0.076179 -0.213763 0.980689 
-0.074551 -0.213848 0.981082 
-0.072944 -0.213998 0.981771 
-0.071329 -0.214133 0.982387 
-0.069746 -0.214372 0.983485 
-0.068136 -0.214537 0.984243 
-0.066511 -0.214663 0.984819 
-0.065013 -0.215215 0.987353 
-0.063734 -0.216544 0.993447 
-0.062441 -0.217891 0.999627 
-0.061131 -0.219254 1.005883 
-0.059707 -0.220274 1.010562 
-0.058096 -0.220642 1.012251 
-0.056359 -0.220541 1.011787 
-0.054567 -0.220213 1.010283 
-0.052724 -0.219650 1.007700 
-0.050873 -0.219016 1.004789 
-0.049027 -0.218359 1.001776 
-0.047191 -0.217704 0.998770 
-0.045394 -0.217185 0.996388 
-0.043643 -0.216852 0.994864 
-0.041899 -0.216533 0.993397 
-0.040175 -0.216289 0.992279 
-0.038470 -0.216140 0.991594 
-0.036781 -0.216065 0.991251 
-0.035091 -0.215973 0.990830 
-0.033408 -0.215923 0.990603 
-0.031729 -0.215893 0.990465 
-0.030054 -0.215889 0.990447 
-0.028383 -0.215915 0.990565 
-0.026721 -0.216017 0.991030 
-0.025066 -0.216190 0.991825 
-0.023413 -0.216414 0.992854 
-0.021767 -0.216734 0.994319 
-0.020110 -0.216993 0.995511 
-0.018452 -0.217293 0.996888 
-0.016789 -0.217584 0.998218 
-0.015119 -0.217833 0.999363 
-0.013443 -0.218039 1.000309 
-0.011770 -0.218387 1.001905 
-0.010092 -0.218717 1.003417 
-0.008410 -0.219103 1.005191 
-0.006723 -0.219514 1.007077 
-0.005029 -0.219872 1.008719 
-0.003328 -0.220130 1.009903 
-0.001623 -0.220450 1.011370 
0.000087 -0.220732 1.012664 
0.001801 -0.221004 1.013908 
-0.126323 -0.215624 0.996984 
-0.124774 -0.215861 0.998077 
-0.123306 -0.216246 0.999857 
-0.121818 -0.216605 1.001517 
-0.120226 -0.216787 1.002360 
-0.118527 -0.216780 1.002326 
-0.116735 -0.216598 1.001487 
-0.114819 -0.216178 0.999542 
-0.112869 -0.215681 0.997248 
-0.110910 -0.215151 0.994797 
-0.108896 -0.214497 0.991771 
-0.106867 -0.213792 0.988513 
-0.104889 -0.213168 0.985628 
-0.102966 -0.212638 0.983175 
-0.101055 -0.212115 0.980757 
-0.099241 -0.211783 0.979223 
-0.097496 -0.211589 0.978324 
-0.095767 -0.211423 0.977558 
-0.094054 -0.211287 0.976931 
-0.092382 -0.211241 0.976715 
-0.090722 -0.211219 0.976613 
-0.089081 -0.211242 0.976722 
-0.087459 -0.211313 0.977051 
-0.085845 -0.211407 0.977484 
-0.084240 -0.211527 0.978037 
-0.082643 -0.211669 0.978697 
-0.081044 -0.211815 0.979373 
-0.079419 -0.211897 0.979749 
-0.077780 -0.211944 0.979967 
-0.076160 -0.212048 0.980447 
-0.074535 -0.212138 0.980864 
-0.072944 -0.212334 0.981769 
-0.071329 -0.212468 0.982388 
-0.069745 -0.212702 0.983470 
-0.068126 -0.212839 0.984107 
-0.066493 -0.212937 0.984558 
-0.064995 -0.213484 0.987086 
-0.063719 -0.214806 0.993199 
-0.061127 -0.217534 1.005814 
-0.059697 -0.218524 1.010392 
-0.058056 -0.218777 1.011562 
-0.056291 -0.218564 1.010576 
-0.054463 -0.218084 1.008358 
-0.052605 -0.217450 1.005424 
-0.050747 -0.216776 1.002310 
-0.048903 -0.216114 0.999245 
-0.047083 -0.215516 0.996483 
-0.045305 -0.215072 0.994430 
-0.043563 -0.214774 0.993052 
-0.041832 -0.214505 0.991808 
-0.040115 -0.214288 0.990804 
-0.038413 -0.214141 0.990125 
-0.036723 -0.214044 0.989675 
-0.035035 -0.213952 0.989251 
-0.033352 -0.213883 0.988933 
-0.031676 -0.213856 0.988807 
-0.030003 -0.213851 0.988782 
-0.028338 -0.213901 0.989014 
-0.026682 -0.214024 0.989586 
-0.025029 -0.214198 0.990389 
-0.023379 -0.214419 0.991411 
-0.021733 -0.214710 0.992757 
-0.020078 -0.214962 0.993920 
-0.018421 -0.215237 0.995193 
-0.016761 -0.215529 0.996542 
-0.015094 -0.215777 0.997688 
-0.013421 -0.215999 0.998718 
-0.011751 -0.216340 1.000291 
-0.010077 -0.216691 1.001917 
-0.008398 -0.217098 1.003798 
-0.006715 -0.217529 1.005790 
-0.005024 -0.217935 1.007666 
-0.003325 -0.218242 1.009088 
-0.001622 -0.218611 1.010792 
0.000087 -0.218941 1.012319 
0.001801 -0.219256 1.013775 
-0.127841 -0.215342 0.995678 
-0.129494 -0.215292 0.995447 
-0.127926 -0.213796 0.996341 
-0.126316 -0.213923 0.996932 
-0.124691 -0.214027 0.997414 
-0.123170 -0.214314 0.998754 
-0.121684 -0.214670 1.000414 
-0.120109 -0.214878 1.001381 
-0.118446 -0.214933 1.001636 
-0.116708 -0.214851 1.001256 
-0.114819 -0.214484 0.999548 
-0.112866 -0.213984 0.997217 
-0.110881 -0.213410 0.994540 
-0.108839 -0.212705 0.991252 
-0.106779 -0.211941 0.987693 
-0.104791 -0.211301 0.984710 
-0.102874 -0.210783 0.982299 
-0.100976 -0.210288 0.979992 
-0.099175 -0.209984 0.978573 
-0.097440 -0.209809 0.977760 
-0.095711 -0.209643 0.976986 
-0.094007 -0.209526 0.976440 
-0.092345 -0.209500 0.976321 
-0.090685 -0.209479 0.976219 
-0.089045 -0.209503 0.976332 
-0.087423 -0.209571 0.976651 
-0.085794 -0.209624 0.976897 
-0.084181 -0.209722 0.977354 
-0.082586 -0.209866 0.978022 
-0.080989 -0.210013 0.978707 
-0.079372 -0.210113 0.979175 
-0.077759 -0.210226 0.979701 
-0.076158 -0.210379 0.980416 
-0.074551 -0.210522 0.981080 
-0.072977 -0.210765 0.982213 
-0.071362 -0.210900 0.982843 
-0.069762 -0.211086 0.983712 
-0.068128 -0.211175 0.984125 
-0.066486 -0.211246 0.984453 
-0.064952 -0.211670 0.986431 
-0.063680 -0.212994 0.992604 
-0.062401 -0.214366 0.998994 
-0.061074 -0.215641 1.004938 
-0.059670 -0.216712 1.009926 
-0.058022 -0.216936 1.010975 
-0.056208 -0.216530 1.009079 
-0.054345 -0.215906 1.006170 
-0.052478 -0.215227 1.003007 
-0.050627 -0.214569 0.999941 
-0.048795 -0.213948 0.997046 
-0.046997 -0.213434 0.994653 
-0.045238 -0.213069 0.992950 
-0.043504 -0.212798 0.991687 
-0.041780 -0.212557 0.990566 
-0.040064 -0.212341 0.989559 
-0.038360 -0.212168 0.988752 
-0.036667 -0.212044 0.988175 
-0.034981 -0.211950 0.987738 
-0.033301 -0.211883 0.987424 
-0.031631 -0.211880 0.987412 
-0.029962 -0.211879 0.987406 
-0.028299 -0.211927 0.987630 
-0.026644 -0.212048 0.988194 
-0.024989 -0.212179 0.988805 
-0.023339 -0.212374 0.989710 
-0.021695 -0.212658 0.991038 
-0.020045 -0.212930 0.992302 
-0.018389 -0.213184 0.993489 
-0.016736 -0.213520 0.995053 
-0.015073 -0.213786 0.996294 
-0.013404 -0.214034 0.997448 
-0.011736 -0.214372 0.999022 
-0.010066 -0.214764 1.000850 
-0.008391 -0.215193 1.002851 
-0.006709 -0.215649 1.004975 
-0.005021 -0.216101 1.007079 
-0.003324 -0.216476 1.008829 
-0.001622 -0.216875 1.010690 
0.000087 -0.217232 1.012351 
0.001801 -0.217568 1.013917 
-0.129726 -0.212297 0.997231 
-0.128012 -0.212250 0.997011 
-0.126346 -0.212282 0.997162 
-0.124658 -0.212280 0.997151 
-0.123101 -0.212501 0.998190 
-0.121597 -0.212823 0.999701 
-0.120038 -0.213054 1.000789 
-0.118417 -0.213183 1.001393 
-0.116721 -0.213178 1.001369 
-0.114861 -0.212867 0.999907 
-0.112885 -0.212330 0.997388 
-0.110872 -0.211706 0.994454 
-0.108787 -0.210923 0.990776 
-0.106700 -0.210111 0.986963 
-0.104683 -0.209415 0.983693 
-0.102803 -0.208973 0.981618 
-0.100921 -0.208515 0.979464 
-0.099134 -0.208238 0.978163 
-0.097399 -0.208064 0.977347 
-0.095679 -0.207917 0.976658 
-0.093965 -0.207778 0.976005 
-0.092304 -0.207752 0.975883 
-0.090635 -0.207709 0.975678 
-0.088995 -0.207730 0.975778 
-0.087364 -0.207776 0.975995 
-0.085728 -0.207809 0.976149 
-0.084125 -0.207925 0.976694 
-0.082529 -0.208066 0.977356 
-0.080932 -0.208207 0.978021 
-0.079325 -0.208329 0.978593 
-0.077738 -0.208511 0.979445 
-0.076150 -0.208696 0.980318 
-0.074578 -0.208935 0.981441 
-0.073028 -0.209247 0.982903 
-0.071421 -0.209408 0.983660 
-0.069819 -0.209591 0.984520 
-0.068181 -0.209671 0.984898 
-0.066543 -0.209757 0.985299 
-0.065018 -0.210211 0.987432 
-0.063723 -0.211454 0.993273 
-0.062426 -0.212754 0.999380 
-0.061072 -0.213932 1.004911 
-0.059628 -0.214850 1.009224 
-0.057942 -0.214925 1.009577 
-0.056115 -0.214465 1.007417 
-0.054241 -0.213792 1.004254 
-0.052377 -0.213115 1.001073 
-0.050542 -0.212515 0.998256 
-0.048726 -0.211956 0.995629 
-0.046947 -0.211524 0.993600 
-0.045195 -0.211188 0.992024 
-0.043464 -0.210923 0.990777 
-0.041737 -0.210663 0.989555 
-0.040023 -0.210444 0.988525 
-0.038312 -0.210228 0.987513 
-0.036616 -0.210077 0.986802 
-0.034932 -0.209979 0.986341 
-0.033254 -0.209911 0.986024 
-0.031587 -0.209912 0.986027 
-0.029923 -0.209934 0.986130 
-0.028265 -0.210002 0.986450 
-0.026610 -0.210100 0.986910 
-0.024954 -0.210203 0.987397 
-0.023303 -0.210371 0.988185 
-0.021659 -0.210628 0.989393 
-0.020012 -0.210899 0.990663 
-0.018361 -0.211173 0.991951 
-0.016713 -0.211535 0.993652 
-0.015053 -0.211824 0.995010 
-0.013388 -0.212094 0.996280 
-0.011724 -0.212453 0.997963 
-0.010057 -0.212872 0.999930 
-0.008385 -0.213347 1.002164 
-0.006706 -0.213848 1.004518 
-0.005020 -0.214344 1.006845 
-0.003324 -0.214765 1.008826 
-0.001622 -0.215235 1.011032 
0.000087 -0.215622 1.012852 
0.001802 -0.215940 1.014344 
-0.129983 -0.211023 0.999205 
-0.128276 -0.210995 0.999069 
-0.126574 -0.210972 0.998962 
-0.124844 -0.210903 0.998637 
-0.123214 -0.211002 0.999105 
-0.121649 -0.211218 1.000128 
-0.120037 -0.211357 1.000784 
-0.118417 -0.211485 1.001389 
-0.116738 -0.211510 1.001509 
-0.114923 -0.211286 1.000450 
-0.112894 -0.210657 0.997469 
-0.110877 -0.210029 0.994498 
-0.108727 -0.209129 0.990234 
-0.106601 -0.208245 0.986049 
-0.104603 -0.207588 0.982940 
-0.102765 -0.207232 0.981255 
-0.100930 -0.206872 0.979549 
-0.099154 -0.206621 0.978359 
-0.097410 -0.206431 0.977459 
-0.095690 -0.206286 0.976773 
-0.093977 -0.206150 0.976129 
-0.092307 -0.206105 0.975915 
-0.090637 -0.206060 0.975705 
-0.088996 -0.206080 0.975799 
-0.087357 -0.206103 0.975909 
-0.085709 -0.206108 0.975930 
-0.084095 -0.206197 0.976351 
-0.082472 -0.206266 0.976680 
-0.080851 -0.206343 0.977043 
-0.079261 -0.206504 0.977804 
-0.077711 -0.206779 0.979107 
-0.076161 -0.207065 0.980461 
-0.074641 -0.207445 0.982261 
-0.073129 -0.207867 0.984260 
-0.071527 -0.208047 0.985111 
-0.069914 -0.208205 0.985862 
-0.068267 -0.208263 0.986134 
-0.066633 -0.208368 0.986632 
-0.065129 -0.208895 0.989126 
-0.063778 -0.209951 0.994129 
-0.062424 -0.211054 0.999352 
-0.061032 -0.212089 1.004253 
-0.059536 -0.212810 1.007664 
-0.057846 -0.212861 1.007905 
-0.056026 -0.212420 1.005819 
-0.054154 -0.211750 1.002646 
-0.052294 -0.211082 0.999482 
-0.050468 -0.210513 0.996788 
-0.048666 -0.210009 0.994400 
-0.046900 -0.209631 0.992610 
-0.045160 -0.209343 0.991251 
-0.043430 -0.209082 0.990011 
-0.041704 -0.208818 0.988762 
-0.039982 -0.208558 0.987531 
-0.038265 -0.208297 0.986293 
-0.036563 -0.208101 0.985366 
-0.034880 -0.208000 0.984890 
-0.033208 -0.207956 0.984680 
-0.031545 -0.207962 0.984708 
-0.029886 -0.208008 0.984925 
-0.028233 -0.208094 0.985334 
-0.026576 -0.208166 0.985674 
-0.024917 -0.208220 0.985932 
-0.023268 -0.208382 0.986700 
-0.021626 -0.208632 0.987881 
-0.019982 -0.208902 0.989158 
-0.018336 -0.209201 0.990576 
-0.016693 -0.209606 0.992491 
-0.015039 -0.209939 0.994070 
-0.013376 -0.210211 0.995357 
-0.011714 -0.210591 0.997157 
-0.010051 -0.211052 0.999340 
-0.008381 -0.211552 1.001709 
-0.006704 -0.212079 1.004204 
-0.005020 -0.212640 1.006858 
-0.003325 -0.213106 1.009067 
-0.001623 -0.213623 1.011513 
0.000087 -0.214058 1.013575 
0.001804 -0.214420 1.015290 
-0.130124 -0.209557 1.000291 
-0.128422 -0.209540 1.000208 
-0.126708 -0.209502 1.000026 
-0.124971 -0.209423 0.999650 
-0.123307 -0.209468 0.999864 
-0.121699 -0.209609 1.000539 
-0.120069 -0.209717 1.001052 
-0.118431 -0.209813 1.001514 
-0.116790 -0.209905 1.001954 
-0.115013 -0.209754 1.001233 
-0.112992 -0.209147 0.998333 
-0.110946 -0.208473 0.995115 
-0.108734 -0.207464 0.990298 
-0.106501 -0.206381 0.985128 
-0.104533 -0.205784 0.982279 
-0.102728 -0.205496 0.980904 
-0.100943 -0.205238 0.979676 
-0.099187 -0.205031 0.978687 
-0.097453 -0.204864 0.977890 
-0.095734 -0.204724 0.977220 
-0.094030 -0.204611 0.976684 
-0.092359 -0.204567 0.976474 
-0.090690 -0.204525 0.976269 
-0.089047 -0.204542 0.976352 
-0.087404 -0.204560 0.976440 
-0.085754 -0.204562 0.976449 
-0.084130 -0.204627 0.976756 
-0.082487 -0.204648 0.976859 
-0.080847 -0.204677 0.976996 
-0.079288 -0.204915 0.978132 
-0.077775 -0.205286 0.979903 
-0.076264 -0.205680 0.981783 
-0.074793 -0.206200 0.984265 
-0.073302 -0.206687 0.986591 
-0.071681 -0.206822 0.987234 
-0.070042 -0.206912 0.987667 
-0.068382 -0.206942 0.987808 
-0.066749 -0.207055 0.988349 
-0.065230 -0.207540 0.990662 
-0.063849 -0.208499 0.995239 
-0.062465 -0.209498 1.000008 
-0.061034 -0.210392 1.004274 
-0.059497 -0.210964 1.007008 
-0.057803 -0.210994 1.007149 
-0.055986 -0.210564 1.005098 
-0.054117 -0.209906 1.001958 
-0.052264 -0.209270 0.998919 
-0.050440 -0.208708 0.996239 
-0.048639 -0.208208 0.993850 
-0.046879 -0.207854 0.992160 
-0.045140 -0.207571 0.990810 
-0.043406 -0.207290 0.989468 
-0.041680 -0.207024 0.988200 
-0.039955 -0.206740 0.986845 
-0.038230 -0.206434 0.985384 
-0.036526 -0.206219 0.984359 
-0.034844 -0.206118 0.983873 
-0.033171 -0.206056 0.983579 
-0.031510 -0.206066 0.983628 
-0.029854 -0.206115 0.983859 
-0.028200 -0.206179 0.984168 
-0.026542 -0.206226 0.984389 
-0.024884 -0.206274 0.984621 
-0.023234 -0.206409 0.985265 
-0.021592 -0.206637 0.986352 
-0.019953 -0.206924 0.987723 
-0.018313 -0.207265 0.989351 
-0.016674 -0.207691 0.991382 
-0.015026 -0.208072 0.993203 
-0.013368 -0.208404 0.994785 
-0.011710 -0.208828 0.996809 
-0.010048 -0.209306 0.999093 
-0.008380 -0.209829 1.001588 
-0.006705 -0.210399 1.004308 
-0.005021 -0.210984 1.007102 
-0.003327 -0.211497 1.009550 
-0.001624 -0.212057 1.012223 
0.000087 -0.212515 1.014412 
0.001805 -0.212878 1.016143 
-0.130257 -0.208073 1.001311 
-0.128558 -0.208064 1.001264 
-0.126847 -0.208033 1.001117 
-0.125118 -0.207973 1.000829 
-0.123438 -0.207993 1.000925 
-0.121786 -0.208062 1.001256 
-0.120136 -0.208136 1.001611 
-0.118486 -0.208211 1.001973 
-0.116847 -0.208309 1.002446 
-0.115119 -0.208248 1.002153 
-0.113135 -0.207717 0.999596 
-0.108662 -0.205648 0.989638 
-0.104506 -0.204066 0.982028 
-0.102744 -0.203865 0.981058 
-0.101001 -0.203694 0.980236 
-0.099255 -0.203511 0.979356 
-0.097540 -0.203389 0.978768 
-0.095840 -0.203291 0.978298 
-0.094155 -0.203224 0.977975 
-0.092483 -0.203183 0.977776 
-0.090819 -0.203159 0.977664 
-0.089155 -0.203134 0.977543 
-0.087493 -0.203111 0.977431 
-0.085815 -0.203050 0.977137 
-0.084171 -0.203070 0.977235 
-0.082502 -0.203028 0.977031 
-0.080840 -0.203002 0.976905 
-0.079312 -0.203320 0.978437 
-0.077835 -0.203784 0.980669 
-0.076374 -0.204309 0.983196 
-0.074956 -0.204976 0.986404 
-0.073500 -0.205568 0.989253 
-0.071871 -0.205693 0.989854 
