1625
0.009024 -0.180201 1.056851 
0.010812 -0.180221 1.056965 
0.012600 -0.180242 1.057088 
0.014396 -0.180346 1.057702 
0.016196 -0.180479 1.058480 
0.018001 -0.180639 1.059419 
0.019816 -0.180858 1.060705 
0.021640 -0.181119 1.062231 
0.023466 -0.181346 1.063563 
0.025295 -0.181572 1.064891 
0.027132 -0.181817 1.066326 
0.028967 -0.182018 1.067505 
0.030817 -0.182286 1.069076 
0.032669 -0.182539 1.070559 
0.034539 -0.182858 1.072433 
0.036407 -0.183133 1.074044 
0.038275 -0.183382 1.075507 
0.040132 -0.183563 1.076568 
0.041988 -0.183720 1.077487 
0.043822 -0.183773 1.077797 
0.045661 -0.183839 1.078184 
0.047494 -0.183878 1.078414 
0.049318 -0.183881 1.078434 
0.051142 -0.183884 1.078452 
0.052978 -0.183928 1.078711 
0.054821 -0.183993 1.079090 
0.056673 -0.184084 1.079624 
0.058528 -0.184178 1.080171 
0.060391 -0.184291 1.080837 
0.062263 -0.184424 1.081615 
0.064125 -0.184521 1.082184 
0.066012 -0.184680 1.083119 
0.067918 -0.184886 1.084325 
0.069830 -0.185095 1.085554 
-0.081069 -0.180099 1.066858 
-0.079246 -0.180056 1.066601 
-0.077387 -0.179925 1.065829 
-0.075521 -0.179772 1.064919 
-0.073648 -0.179595 1.063869 
-0.071785 -0.179435 1.062923 
-0.069895 -0.179195 1.061501 
-0.068024 -0.178994 1.060309 
-0.066142 -0.178752 1.058876 
-0.064288 -0.178573 1.057820 
-0.062447 -0.178423 1.056927 
-0.060631 -0.178339 1.056432 
-0.058832 -0.178299 1.056196 
-0.057060 -0.178339 1.056434 
-0.055313 -0.178465 1.057181 
-0.053585 -0.178664 1.058357 
-0.051874 -0.178935 1.059962 
-0.050164 -0.179226 1.061688 
-0.048451 -0.179530 1.063490 
-0.046711 -0.179750 1.064791 
-0.044960 -0.179947 1.065958 
-0.043194 -0.180100 1.066862 
-0.041416 -0.180210 1.067515 
-0.039644 -0.180359 1.068396 
-0.037857 -0.180452 1.068951 
-0.036065 -0.180526 1.069385 
-0.034258 -0.180532 1.069422 
-0.032442 -0.180484 1.069139 
-0.030608 -0.180329 1.068218 
-0.028770 -0.180126 1.067020 
-0.026933 -0.179903 1.065697 
-0.025094 -0.179637 1.064124 
-0.023266 -0.179413 1.062795 
-0.021438 -0.179151 1.061245 
-0.019622 -0.178952 1.060065 
-0.017810 -0.178756 1.058900 
-0.016008 -0.178621 1.058105 
-0.014211 -0.178513 1.057465 
-0.012420 -0.178469 1.057202 
-0.010631 -0.178450 1.057088 
-0.008843 -0.178431 1.056977 
-0.007057 -0.178430 1.056974 
-0.005270 -0.178429 1.056965 
-0.003482 -0.178410 1.056851 
-0.001696 -0.178471 1.057215 
0.000091 -0.178518 1.057491 
0.001879 -0.178527 1.057543 
0.003667 -0.178543 1.057639 
0.005455 -0.178555 1.057712 
0.007242 -0.178511 1.057452 
0.009028 -0.178492 1.057338 
0.010818 -0.178532 1.057575 
0.012608 -0.178555 1.057712 
0.014403 -0.178641 1.058220 
0.016204 -0.178772 1.058998 
0.018010 -0.178932 1.059943 
0.019826 -0.179151 1.061242 
0.021650 -0.179394 1.062683 
0.023478 -0.179636 1.064114 
0.025308 -0.179860 1.065444 
0.027146 -0.180100 1.066864 
0.028981 -0.180300 1.068046 
0.030832 -0.180563 1.069604 
0.032684 -0.180809 1.071062 
0.034551 -0.181102 1.072798 
0.036415 -0.181351 1.074275 
0.038283 -0.181599 1.075742 
0.040146 -0.181801 1.076939 
0.042005 -0.181964 1.077907 
0.043845 -0.182040 1.078354 
0.045690 -0.182127 1.078874 
0.047525 -0.182169 1.079121 
0.049355 -0.182191 1.079248 
0.051181 -0.182195 1.079271 
0.053017 -0.182237 1.079521 
0.054861 -0.182299 1.079893 
0.056714 -0.182388 1.080418 
0.058565 -0.182463 1.080859 
0.060431 -0.182579 1.081546 
0.062304 -0.182710 1.082326 
0.064165 -0.182801 1.082866 
0.066052 -0.182957 1.083786 
0.067952 -0.183138 1.084859 
0.069857 -0.183324 1.085965 
0.072211 -0.186505 1.093822 
0.071757 -0.183490 1.086943 
-0.081218 -0.178618 1.068816 
-0.079327 -0.178428 1.067680 
-0.077445 -0.178251 1.066623 
-0.075549 -0.178033 1.065315 
-0.073666 -0.177835 1.064135 
-0.071804 -0.177679 1.063200 
-0.069916 -0.177448 1.061814 
-0.068052 -0.177268 1.060742 
-0.066185 -0.177071 1.059559 
-0.064337 -0.176915 1.058626 
-0.062503 -0.176790 1.057880 
-0.060700 -0.176748 1.057631 
-0.058912 -0.176749 1.057632 
-0.057145 -0.176811 1.058006 
-0.055402 -0.176960 1.058895 
-0.053679 -0.177181 1.060217 
-0.051971 -0.177467 1.061932 
-0.050251 -0.177733 1.063522 
-0.048539 -0.178051 1.065423 
-0.046795 -0.178267 1.066717 
-0.045036 -0.178441 1.067759 
-0.043268 -0.178594 1.068673 
-0.041491 -0.178724 1.069453 
-0.039708 -0.178835 1.070118 
-0.037914 -0.178906 1.070544 
-0.036113 -0.178953 1.070824 
-0.034295 -0.178911 1.070570 
-0.032465 -0.178800 1.069907 
-0.030622 -0.178602 1.068724 
-0.028780 -0.178380 1.067392 
-0.026939 -0.178138 1.065947 
-0.025100 -0.177876 1.064376 
-0.023271 -0.177655 1.063057 
-0.021445 -0.177417 1.061628 
-0.019629 -0.177222 1.060462 
-0.017819 -0.177049 1.059427 
-0.016016 -0.176917 1.058636 
-0.014218 -0.176809 1.057991 
-0.012426 -0.176762 1.057712 
-0.010635 -0.176722 1.057471 
-0.008846 -0.176682 1.057235 
-0.007057 -0.176662 1.057110 
-0.005270 -0.176658 1.057088 
-0.003482 -0.176618 1.056851 
-0.001696 -0.176700 1.057338 
0.000091 -0.176769 1.057754 
0.001880 -0.176801 1.057945 
0.003669 -0.176841 1.058184 
0.005459 -0.176871 1.058365 
0.007246 -0.176828 1.058105 
0.009034 -0.176809 1.057992 
0.010825 -0.176851 1.058242 
0.012617 -0.176894 1.058500 
0.014414 -0.176981 1.059024 
0.016216 -0.177112 1.059806 
0.018025 -0.177286 1.060849 
0.019843 -0.177506 1.062161 
0.021666 -0.177727 1.063485 
0.023496 -0.177969 1.064932 
0.025327 -0.178188 1.066242 
0.027166 -0.178424 1.067657 
0.029003 -0.178624 1.068853 
0.030851 -0.178862 1.070275 
0.032701 -0.179083 1.071599 
0.034563 -0.179348 1.073185 
0.036420 -0.179554 1.074418 
0.038288 -0.179798 1.075880 
0.040156 -0.180019 1.077201 
0.042019 -0.180200 1.078283 
0.043866 -0.180299 1.078875 
0.045722 -0.180426 1.079636 
0.047564 -0.180489 1.080011 
0.049402 -0.180533 1.080275 
0.051235 -0.180558 1.080427 
0.053074 -0.180599 1.080672 
0.054914 -0.180641 1.080925 
0.056762 -0.180709 1.081332 
0.058615 -0.180785 1.081786 
0.060482 -0.180901 1.082476 
0.062358 -0.181033 1.083270 
0.064221 -0.181122 1.083804 
0.066116 -0.181295 1.084836 
0.068010 -0.181455 1.085796 
0.069911 -0.181623 1.086800 
0.071820 -0.181807 1.087901 
-0.083218 -0.177217 1.071303 
-0.081317 -0.177022 1.070120 
-0.079399 -0.176778 1.068648 
-0.077492 -0.176551 1.067277 
-0.075576 -0.176290 1.065697 
-0.073692 -0.176092 1.064499 
-0.071830 -0.175940 1.063581 
-0.069950 -0.175735 1.062341 
-0.068103 -0.175603 1.061545 
-0.066250 -0.175448 1.060606 
-0.064416 -0.175335 1.059925 
-0.062594 -0.175252 1.059419 
-0.060796 -0.175232 1.059300 
-0.059019 -0.175273 1.059548 
-0.057262 -0.175377 1.060176 
-0.055517 -0.175528 1.061092 
-0.053791 -0.175748 1.062420 
-0.052078 -0.176029 1.064119 
-0.050360 -0.176312 1.065829 
-0.048646 -0.176631 1.067760 
-0.046899 -0.176851 1.069091 
-0.045142 -0.177048 1.070278 
-0.043374 -0.177218 1.071309 
-0.041589 -0.177328 1.071974 
-0.039798 -0.177421 1.072536 
-0.037994 -0.177467 1.072811 
-0.036180 -0.177466 1.072809 
-0.034345 -0.177355 1.072136 
-0.032497 -0.177159 1.070948 
-0.030641 -0.176897 1.069364 
-0.028793 -0.176652 1.067886 
-0.026945 -0.176373 1.066202 
-0.025106 -0.176117 1.064649 
-0.023278 -0.175900 1.063340 
-0.021454 -0.175684 1.062031 
-0.019636 -0.175489 1.060856 
-0.017828 -0.175340 1.059952 
-0.016024 -0.175213 1.059189 
-0.014225 -0.175107 1.058548 
-0.012432 -0.175059 1.058253 
-0.010639 -0.174996 1.057878 
-0.008848 -0.174938 1.057521 
-0.007058 -0.174893 1.057254 
-0.005271 -0.174887 1.057215 
-0.003482 -0.174827 1.056851 
-0.001697 -0.174926 1.057452 
0.000091 -0.175017 1.058001 
0.001880 -0.175072 1.058331 
0.003671 -0.175135 1.058714 
0.005462 -0.175187 1.059030 
0.007251 -0.175149 1.058798 
0.009040 -0.175131 1.058692 
0.010832 -0.175172 1.058942 
0.012626 -0.175216 1.059202 
0.014422 -0.175281 1.059597 
0.016225 -0.175408 1.060368 
0.018035 -0.175579 1.061400 
0.019854 -0.175796 1.062713 
0.021677 -0.176014 1.064030 
0.023510 -0.176273 1.065592 
0.025346 -0.176509 1.067021 
0.027186 -0.176748 1.068463 
0.029025 -0.176946 1.069660 
0.030874 -0.177181 1.071081 
0.032725 -0.177400 1.072406 
0.034581 -0.177620 1.073737 
0.036434 -0.177803 1.074843 
0.038302 -0.178039 1.076268 
0.040166 -0.178237 1.077467 
0.042030 -0.178417 1.078553 
0.043887 -0.178553 1.079377 
0.045749 -0.178702 1.080275 
0.047593 -0.178767 1.080674 
0.049439 -0.178834 1.081075 
0.051274 -0.178860 1.081235 
0.053109 -0.178885 1.081384 
0.054949 -0.178925 1.081624 
0.056798 -0.178990 1.082018 
0.058658 -0.179083 1.082584 
0.060527 -0.179199 1.083281 
0.062405 -0.179332 1.084087 
0.064270 -0.179422 1.084630 
0.066168 -0.179596 1.085684 
0.068057 -0.179737 1.086533 
0.069966 -0.179923 1.087659 
0.071885 -0.180126 1.088884 
0.074265 -0.183301 1.096839 
0.073833 -0.180388 1.090467 
-0.085175 -0.175703 1.073144 
-0.083269 -0.175510 1.071965 
-0.081364 -0.175308 1.070734 
-0.079425 -0.175025 1.069002 
-0.077512 -0.174785 1.067541 
-0.075585 -0.174504 1.065823 
-0.073699 -0.174306 1.064614 
-0.071847 -0.174178 1.063828 
-0.069983 -0.174016 1.062844 
-0.068153 -0.173931 1.062321 
-0.066315 -0.173820 1.061642 
-0.064487 -0.173732 1.061105 
-0.062671 -0.173669 1.060723 
-0.060872 -0.173652 1.060616 
-0.059100 -0.173714 1.060997 
-0.057348 -0.173840 1.061766 
-0.055602 -0.173994 1.062708 
-0.053872 -0.174209 1.064022 
-0.052162 -0.174506 1.065832 
-0.050452 -0.174826 1.067788 
-0.048745 -0.175176 1.069928 
-0.047003 -0.175425 1.071448 
-0.045252 -0.175663 1.072899 
-0.043484 -0.175847 1.074027 
-0.041690 -0.175936 1.074567 
-0.039889 -0.176007 1.075003 
-0.038077 -0.176032 1.075152 
-0.036250 -0.175984 1.074863 
-0.034398 -0.175806 1.073777 
-0.032534 -0.175543 1.072169 
-0.030664 -0.175215 1.070164 
-0.028810 -0.174947 1.068526 
-0.026955 -0.174630 1.066590 
-0.025116 -0.174378 1.065054 
-0.023284 -0.174144 1.063622 
-0.021459 -0.173928 1.062304 
-0.019643 -0.173752 1.061232 
-0.017838 -0.173645 1.060574 
-0.016034 -0.173526 1.059847 
-0.014234 -0.173424 1.059223 
-0.012440 -0.173374 1.058923 
-0.010643 -0.173268 1.058273 
-0.008849 -0.173168 1.057665 
-0.007058 -0.173103 1.057267 
-0.005271 -0.173096 1.057224 
-0.003482 -0.173035 1.056851 
-0.001697 -0.173134 1.057452 
0.000091 -0.173242 1.058115 
0.001881 -0.173318 1.058581 
0.003672 -0.173405 1.059107 
0.005465 -0.173481 1.059575 
0.007255 -0.173462 1.059459 
0.009046 -0.173446 1.059358 
0.010839 -0.173485 1.059596 
0.012633 -0.173526 1.059846 
0.014429 -0.173570 1.060117 
0.016233 -0.173695 1.060882 
0.018041 -0.173844 1.061791 
0.019861 -0.174056 1.063089 
0.021683 -0.174255 1.064301 
0.023519 -0.174528 1.065968 
0.025358 -0.174784 1.067531 
0.027203 -0.175044 1.069120 
0.029044 -0.175245 1.070349 
0.030895 -0.175481 1.071787 
0.032746 -0.175693 1.073083 
0.034595 -0.175870 1.074165 
0.036444 -0.176028 1.075131 
0.038303 -0.176221 1.076308 
0.040166 -0.176413 1.077480 
0.042030 -0.176591 1.078568 
0.043893 -0.176749 1.079534 
0.045763 -0.176922 1.080590 
0.047619 -0.177030 1.081248 
0.049471 -0.177119 1.081794 
0.051308 -0.177146 1.081958 
0.053144 -0.177169 1.082098 
0.054986 -0.177208 1.082338 
0.056829 -0.177250 1.082595 
0.058688 -0.177338 1.083131 
0.060558 -0.177452 1.083825 
0.062445 -0.177608 1.084778 
0.064320 -0.177722 1.085475 
0.066227 -0.177915 1.086656 
0.068125 -0.178073 1.087620 
0.070043 -0.178276 1.088861 
0.071957 -0.178458 1.089975 
0.073899 -0.178697 1.091434 
-0.085159 -0.173851 1.072943 
-0.083283 -0.173721 1.072142 
-0.081378 -0.173524 1.070924 
-0.079436 -0.173237 1.069153 
-0.077528 -0.173013 1.067773 
-0.075602 -0.172736 1.066064 
-0.073708 -0.172522 1.064743 
-0.071863 -0.172413 1.064068 
-0.070008 -0.172274 1.063211 
-0.068186 -0.172213 1.062835 
-0.066364 -0.172148 1.062435 
-0.064551 -0.172103 1.062157 
-0.062740 -0.172062 1.061899 
-0.060946 -0.172065 1.061918 
-0.059179 -0.172147 1.062428 
-0.057426 -0.172275 1.063215 
-0.055672 -0.172410 1.064047 
-0.053933 -0.172601 1.065228 
-0.052214 -0.172871 1.066897 
-0.050505 -0.173195 1.068894 
-0.048809 -0.173591 1.071338 
-0.047084 -0.173909 1.073301 
-0.045342 -0.174187 1.075015 
-0.043579 -0.174406 1.076369 
-0.041780 -0.174491 1.076893 
-0.039966 -0.174519 1.077067 
-0.038141 -0.174503 1.076967 
-0.036306 -0.174432 1.076530 
-0.034443 -0.174214 1.075180 
-0.032568 -0.173908 1.073295 
-0.030688 -0.173535 1.070995 
-0.028828 -0.173244 1.069194 
-0.026965 -0.172887 1.066993 
-0.025125 -0.172635 1.065440 
-0.023290 -0.172383 1.063884 
-0.021464 -0.172168 1.062556 
-0.019650 -0.172012 1.061594 
-0.017849 -0.171946 1.061188 
-0.016044 -0.171835 1.060502 
-0.014243 -0.171736 1.059891 
-0.012447 -0.171682 1.059556 
-0.010647 -0.171533 1.058634 
-0.008850 -0.171393 1.057771 
-0.007058 -0.171309 1.057254 
-0.005271 -0.171321 1.057329 
-0.003483 -0.171264 1.056974 
-0.001697 -0.171362 1.057579 
0.000091 -0.171468 1.058238 
0.001881 -0.171562 1.058819 
0.003673 -0.171650 1.059358 
0.005468 -0.171765 1.060071 
0.007261 -0.171786 1.060199 
0.009053 -0.171789 1.060220 
0.010848 -0.171827 1.060449 
0.012643 -0.171865 1.060684 
0.014438 -0.171888 1.060825 
0.016241 -0.171991 1.061461 
0.018051 -0.172138 1.062368 
0.019870 -0.172331 1.063563 
0.021692 -0.172526 1.064763 
0.023532 -0.172817 1.066560 
0.025373 -0.173075 1.068153 
0.027220 -0.173338 1.069778 
0.029065 -0.173559 1.071141 
0.030914 -0.173770 1.072445 
0.032762 -0.173959 1.073608 
0.034608 -0.174114 1.074564 
0.036452 -0.174247 1.075387 
0.038308 -0.174416 1.076430 
0.040170 -0.174603 1.077584 
0.042035 -0.174781 1.078683 
0.043904 -0.174962 1.079802 
0.045781 -0.175161 1.081029 
0.047645 -0.175292 1.081839 
0.049509 -0.175417 1.082608 
0.051346 -0.175443 1.082769 
0.053184 -0.175465 1.082905 
0.055026 -0.175503 1.083137 
0.056870 -0.175541 1.083376 
0.058724 -0.175609 1.083794 
0.060602 -0.175741 1.084609 
0.062498 -0.175918 1.085701 
0.064384 -0.176055 1.086546 
0.066293 -0.176248 1.087737 
0.068199 -0.176422 1.088810 
0.070112 -0.176603 1.089928 
0.072020 -0.176765 1.090925 
0.073956 -0.176984 1.092280 
-0.083269 -0.171875 1.071965 
-0.081370 -0.171691 1.070812 
-0.079425 -0.171400 1.069002 
-0.077528 -0.171203 1.067768 
-0.075612 -0.170951 1.066202 
-0.073718 -0.170741 1.064888 
-0.071872 -0.170631 1.064206 
-0.070024 -0.170512 1.063460 
-0.068203 -0.170453 1.063096 
-0.066390 -0.170413 1.062844 
-0.064585 -0.170391 1.062707 
-0.062781 -0.170371 1.062585 
-0.060985 -0.170373 1.062592 
-0.059223 -0.170472 1.063214 
-0.057469 -0.170600 1.064008 
-0.055713 -0.170732 1.064835 
-0.053966 -0.170900 1.065884 
-0.052256 -0.171200 1.067755 
-0.050557 -0.171562 1.070009 
-0.048873 -0.172000 1.072739 
-0.047158 -0.172362 1.075002 
-0.045429 -0.172697 1.077089 
-0.043659 -0.172896 1.078332 
-0.041851 -0.172959 1.078722 
-0.040024 -0.172947 1.078648 
-0.038192 -0.172907 1.078402 
-0.036346 -0.172797 1.077711 
-0.034473 -0.172541 1.076114 
-0.032589 -0.172200 1.073987 
-0.030704 -0.171811 1.071562 
-0.028837 -0.171481 1.069507 
-0.026969 -0.171104 1.067152 
-0.025128 -0.170850 1.065569 
-0.023292 -0.170598 1.063999 
-0.021469 -0.170405 1.062795 
-0.019657 -0.170273 1.061972 
-0.017857 -0.170231 1.061711 
-0.016054 -0.170143 1.061163 
-0.014251 -0.170027 1.060438 
-0.012452 -0.169948 1.059942 
-0.010649 -0.169775 1.058864 
-0.008851 -0.169612 1.057849 
-0.007059 -0.169532 1.057348 
-0.005273 -0.169566 1.057563 
-0.003484 -0.169532 1.057351 
-0.001698 -0.169631 1.057969 
0.000091 -0.169753 1.058730 
0.001882 -0.169845 1.059303 
0.003675 -0.169931 1.059838 
0.005470 -0.170048 1.060569 
0.007265 -0.170089 1.060825 
0.009058 -0.170094 1.060855 
0.010854 -0.170132 1.061094 
0.012651 -0.170169 1.061325 
0.014447 -0.170191 1.061456 
0.016251 -0.170292 1.062089 
0.018062 -0.170437 1.062997 
0.019881 -0.170628 1.064188 
0.021705 -0.170822 1.065395 
0.023546 -0.171112 1.067203 
0.025388 -0.171369 1.068807 
0.027236 -0.171630 1.070437 
0.029080 -0.171830 1.071679 
0.030925 -0.172015 1.072837 
0.032770 -0.172178 1.073853 
0.034611 -0.172308 1.074661 
0.036452 -0.172423 1.075379 
0.038303 -0.172570 1.076295 
0.040165 -0.172752 1.077435 
0.042033 -0.172946 1.078642 
0.043909 -0.173152 1.079924 
0.045793 -0.173374 1.081310 
0.047668 -0.173545 1.082379 
0.049539 -0.173688 1.083269 
0.051377 -0.173712 1.083421 
0.053215 -0.173733 1.083551 
0.055059 -0.173771 1.083789 
0.056905 -0.173811 1.084038 
0.058766 -0.173897 1.084576 
0.060653 -0.174051 1.085532 
0.062553 -0.174230 1.086648 
0.064448 -0.174387 1.087627 
0.066359 -0.174579 1.088828 
0.068260 -0.174733 1.089784 
0.070165 -0.174889 1.090763 
0.072075 -0.175048 1.091751 
0.074003 -0.175244 1.092973 
-0.083230 -0.169978 1.071459 
-0.081338 -0.169810 1.070402 
-0.079414 -0.169565 1.068853 
-0.077528 -0.169393 1.067770 
-0.075630 -0.169185 1.066463 
-0.073738 -0.168981 1.065177 
-0.071898 -0.168889 1.064596 
-0.070064 -0.168806 1.064068 
-0.068249 -0.168766 1.063819 
-0.066444 -0.168749 1.063713 
-0.064652 -0.168766 1.063820 
-0.062847 -0.168747 1.063700 
-0.061048 -0.168746 1.063695 
-0.059278 -0.168825 1.064193 
-0.057515 -0.168931 1.064858 
-0.055745 -0.169025 1.065451 
-0.054002 -0.169205 1.066588 
-0.052291 -0.169503 1.068466 
-0.050602 -0.169898 1.070956 
-0.048923 -0.170356 1.073839 
-0.047223 -0.170774 1.076479 
-0.045498 -0.171131 1.078727 
-0.043726 -0.171332 1.079991 
-0.041905 -0.171354 1.080134 
-0.040071 -0.171317 1.079901 
-0.038227 -0.171234 1.079377 
-0.036366 -0.171065 1.078309 
-0.034484 -0.170772 1.076463 
-0.032599 -0.170434 1.074331 
-0.030711 -0.170033 1.071805 
-0.028837 -0.169670 1.069520 
-0.026969 -0.169295 1.067153 
-0.025127 -0.169040 1.065549 
-0.023292 -0.168792 1.063985 
-0.021472 -0.168625 1.062931 
-0.019665 -0.168537 1.062378 
-0.017867 -0.168518 1.062254 
-0.016064 -0.168449 1.061821 
-0.014259 -0.168332 1.061081 
-0.012457 -0.168214 1.060340 
-0.010652 -0.168020 1.059115 
-0.008852 -0.167837 1.057961 
-0.007059 -0.167739 1.057348 
-0.005273 -0.167778 1.057589 
-0.003485 -0.167767 1.057521 
-0.001698 -0.167868 1.058158 
0.000091 -0.167987 1.058909 
0.001882 -0.168074 1.059456 
0.003675 -0.168158 1.059988 
0.005472 -0.168295 1.060848 
0.007268 -0.168359 1.061251 
0.009063 -0.168386 1.061424 
0.010861 -0.168444 1.061791 
0.012658 -0.168461 1.061899 
0.014453 -0.168464 1.061918 
0.016258 -0.168564 1.062543 
0.018068 -0.168690 1.063339 
0.019888 -0.168879 1.064532 
0.021714 -0.169089 1.065857 
0.023559 -0.169394 1.067775 
0.025402 -0.169649 1.069388 
0.027251 -0.169905 1.071002 
0.029091 -0.170077 1.072085 
0.030932 -0.170236 1.073084 
0.032773 -0.170374 1.073956 
0.034610 -0.170483 1.074643 
0.036452 -0.170598 1.075365 
0.038298 -0.170723 1.076158 
0.040160 -0.170904 1.077294 
0.042032 -0.171113 1.078613 
0.043913 -0.171338 1.080030 
0.045799 -0.171562 1.081443 
0.047680 -0.171752 1.082640 
0.049556 -0.171912 1.083650 
0.051396 -0.171938 1.083811 
0.053236 -0.171963 1.083972 
0.055087 -0.172021 1.084335 
0.056940 -0.172081 1.084718 
0.058804 -0.172170 1.085277 
0.060693 -0.172325 1.086252 
0.062594 -0.172502 1.087366 
0.064498 -0.172678 1.088481 
0.066412 -0.172869 1.089681 
0.068314 -0.173021 1.090643 
0.070219 -0.173174 1.091602 
0.072120 -0.173307 1.092441 
0.074040 -0.173477 1.093515 
0.076426 -0.176574 1.101267 
0.075974 -0.173672 1.094744 
-0.083194 -0.168088 1.070992 
-0.081309 -0.167936 1.070019 
-0.079396 -0.167715 1.068610 
-0.077529 -0.167584 1.067778 
-0.075649 -0.167419 1.066725 
-0.073766 -0.167239 1.065577 
-0.071934 -0.167168 1.065128 
-0.070107 -0.167104 1.064722 
-0.068291 -0.167066 1.064476 
-0.066493 -0.167068 1.064490 
-0.064701 -0.167087 1.064614 
-0.062893 -0.167068 1.064490 
-0.061093 -0.167066 1.064476 
-0.059314 -0.167123 1.064837 
-0.057536 -0.167188 1.065253 
-0.055771 -0.167295 1.065938 
-0.054033 -0.167495 1.067208 
-0.052329 -0.167814 1.069245 
-0.050646 -0.168230 1.071892 
-0.048972 -0.168705 1.074923 
-0.047276 -0.169138 1.077677 
-0.045544 -0.169472 1.079807 
-0.043765 -0.169653 1.080959 
-0.041938 -0.169654 1.080967 
-0.040096 -0.169591 1.080565 
-0.038236 -0.169446 1.079640 
-0.036365 -0.169233 1.078286 
-0.034478 -0.168921 1.076295 
-0.032593 -0.168582 1.074138 
-0.030705 -0.168187 1.071620 
-0.028833 -0.167832 1.069355 
-0.026968 -0.167481 1.067119 
-0.025127 -0.167228 1.065513 
-0.023294 -0.167005 1.064092 
-0.021477 -0.166864 1.063191 
-0.019672 -0.166803 1.062801 
-0.017876 -0.166803 1.062801 
-0.016074 -0.166751 1.062468 
-0.014269 -0.166651 1.061836 
-0.012464 -0.166518 1.060987 
-0.010658 -0.166326 1.059760 
-0.008856 -0.166126 1.058487 
-0.007062 -0.166024 1.057838 
-0.005275 -0.166045 1.057969 
-0.003486 -0.166055 1.058035 
-0.001699 -0.166156 1.058678 
0.000091 -0.166293 1.059551 
0.001883 -0.166376 1.060084 
0.003677 -0.166462 1.060628 
0.005475 -0.166597 1.061490 
0.007272 -0.166664 1.061918 
0.009069 -0.166692 1.062093 
0.010868 -0.166751 1.062468 
0.012667 -0.166787 1.062701 
0.014466 -0.166808 1.062832 
0.016272 -0.166907 1.063467 
0.018083 -0.167032 1.064260 
0.019905 -0.167218 1.065446 
0.021730 -0.167407 1.066652 
0.023574 -0.167692 1.068468 
0.025415 -0.167924 1.069945 
0.027261 -0.168155 1.071417 
0.029098 -0.168302 1.072350 
0.030932 -0.168418 1.073092 
0.032765 -0.168515 1.073712 
0.034598 -0.168603 1.074268 
0.036435 -0.168696 1.074863 
0.038272 -0.168783 1.075419 
0.040132 -0.168960 1.076545 
0.042003 -0.169166 1.077859 
0.043887 -0.169408 1.079398 
0.045778 -0.169651 1.080946 
0.047674 -0.169897 1.082512 
0.049563 -0.170097 1.083789 
0.051415 -0.170164 1.084216 
0.053263 -0.170212 1.084524 
0.055128 -0.170309 1.085143 
0.056984 -0.170372 1.085544 
0.058849 -0.170461 1.086112 
0.060740 -0.170615 1.087087 
0.062649 -0.170808 1.088318 
0.064555 -0.170982 1.089430 
0.066470 -0.171173 1.090646 
0.068375 -0.171325 1.091615 
0.070273 -0.171453 1.092431 
0.072156 -0.171540 1.092984 
0.074066 -0.171684 1.093903 
0.075999 -0.171874 1.095111 
-0.083182 -0.166249 1.070835 
-0.081309 -0.166122 1.070018 
-0.079414 -0.165941 1.068852 
-0.077556 -0.165831 1.068148 
-0.075685 -0.165689 1.067233 
-0.073810 -0.165532 1.066217 
-0.071980 -0.165467 1.065800 
-0.070152 -0.165405 1.065402 
-0.068336 -0.165371 1.065181 
-0.066537 -0.165373 1.065198 
-0.064744 -0.165393 1.065326 
-0.062935 -0.165373 1.065198 
-0.061134 -0.165371 1.065181 
-0.059352 -0.165423 1.065518 
-0.057572 -0.165486 1.065926 
-0.055812 -0.165609 1.066714 
-0.054080 -0.165830 1.068139 
-0.052383 -0.166174 1.070352 
-0.050702 -0.166596 1.073072 
-0.049025 -0.167064 1.076086 
-0.047326 -0.167488 1.078819 
-0.045587 -0.167799 1.080821 
-0.043801 -0.167958 1.081848 
-0.041967 -0.167937 1.081711 
-0.040117 -0.167850 1.081149 
-0.038246 -0.167661 1.079930 
-0.036366 -0.167409 1.078312 
-0.034470 -0.167056 1.076036 
-0.032581 -0.166698 1.073729 
-0.030693 -0.166304 1.071193 
-0.028822 -0.165955 1.068942 
-0.026962 -0.165631 1.066854 
-0.025124 -0.165403 1.065387 
-0.023297 -0.165221 1.064216 
-0.021482 -0.165102 1.063452 
-0.019678 -0.165045 1.063083 
-0.017880 -0.165045 1.063083 
-0.016080 -0.165010 1.062857 
-0.014276 -0.164932 1.062355 
-0.012471 -0.164807 1.061551 
-0.010665 -0.164639 1.060464 
-0.008863 -0.164453 1.059271 
-0.007067 -0.164350 1.058604 
-0.005278 -0.164348 1.058595 
-0.003488 -0.164357 1.058648 
-0.001700 -0.164458 1.059301 
0.000091 -0.164594 1.060176 
0.001884 -0.164679 1.060725 
0.003680 -0.164764 1.061271 
0.005479 -0.164917 1.062256 
0.007278 -0.164983 1.062683 
0.009076 -0.165010 1.062858 
0.010877 -0.165084 1.063336 
0.012679 -0.165139 1.063688 
0.014479 -0.165163 1.063842 
0.016288 -0.165263 1.064489 
0.018101 -0.165384 1.065266 
0.019919 -0.165530 1.066209 
0.021743 -0.165696 1.067274 
0.023585 -0.165959 1.068968 
0.025424 -0.166170 1.070330 
0.027268 -0.166380 1.071681 
0.029105 -0.166521 1.072593 
0.030936 -0.166617 1.073209 
0.032765 -0.166694 1.073702 
0.034598 -0.166778 1.074245 
0.036433 -0.166868 1.074823 
0.038270 -0.166952 1.075365 
0.040125 -0.167107 1.076363 
0.041991 -0.167291 1.077548 
0.043875 -0.167529 1.079084 
0.045765 -0.167772 1.080646 
0.047668 -0.168040 1.082372 
0.049569 -0.168281 1.083924 
0.051440 -0.168409 1.084750 
0.053303 -0.168500 1.085335 
0.055184 -0.168640 1.086237 
0.057048 -0.168722 1.086764 
0.058915 -0.168808 1.087321 
0.060806 -0.168955 1.088268 
0.062709 -0.169126 1.089370 
0.064610 -0.169280 1.090360 
0.066520 -0.169451 1.091465 
0.068418 -0.169581 1.092300 
0.070308 -0.169687 1.092982 
0.072191 -0.169769 1.093514 
0.074093 -0.169892 1.094301 
0.076018 -0.170060 1.095387 
-0.083186 -0.164442 1.070891 
-0.081328 -0.164346 1.070269 
-0.079442 -0.164187 1.069233 
-0.077585 -0.164082 1.068550 
-0.075731 -0.163980 1.067884 
-0.073865 -0.163845 1.067002 
-0.072034 -0.163782 1.066596 
-0.070205 -0.163723 1.066209 
-0.068387 -0.163687 1.065976 
-0.066579 -0.163671 1.065873 
-0.064785 -0.163691 1.065997 
-0.062975 -0.163671 1.065873 
-0.061172 -0.163669 1.065859 
-0.059390 -0.163723 1.066209 
-0.057609 -0.163784 1.066605 
-0.055854 -0.163925 1.067525 
-0.054135 -0.164186 1.069225 
-0.052451 -0.164573 1.071742 
-0.050786 -0.165049 1.074846 
-0.049112 -0.165532 1.077987 
-0.047403 -0.165929 1.080576 
-0.045648 -0.166192 1.082286 
-0.043850 -0.166309 1.083052 
-0.041993 -0.166210 1.082402 
-0.040129 -0.166065 1.081464 
-0.038248 -0.165836 1.079969 
-0.036358 -0.165546 1.078081 
-0.034454 -0.165157 1.075547 
-0.032562 -0.164782 1.073107 
-0.030678 -0.164408 1.070672 
-0.028811 -0.164082 1.068545 
-0.026956 -0.163785 1.066611 
-0.025121 -0.163583 1.065295 
-0.023300 -0.163438 1.064352 
-0.021487 -0.163338 1.063703 
-0.019682 -0.163282 1.063335 
-0.017885 -0.163282 1.063335 
-0.016085 -0.163264 1.063220 
-0.014283 -0.163208 1.062858 
-0.012479 -0.163109 1.062209 
-0.010674 -0.162968 1.061290 
-0.008871 -0.162803 1.060216 
-0.007074 -0.162697 1.059526 
-0.005281 -0.162654 1.059246 
-0.003490 -0.162643 1.059175 
-0.001700 -0.162741 1.059812 
0.000091 -0.162878 1.060703 
0.001885 -0.162966 1.061278 
0.003682 -0.163067 1.061940 
0.005482 -0.163201 1.062811 
0.007280 -0.163244 1.063088 
0.009079 -0.163267 1.063241 
0.010881 -0.163340 1.063713 
0.012684 -0.163398 1.064090 
0.014487 -0.163443 1.064385 
0.016296 -0.163545 1.065053 
0.018108 -0.163645 1.065701 
0.019924 -0.163764 1.066474 
0.021746 -0.163904 1.067389 
0.023582 -0.164126 1.068834 
0.025421 -0.164334 1.070190 
0.027262 -0.164524 1.071425 
0.029098 -0.164665 1.072340 
0.030929 -0.164760 1.072962 
0.032761 -0.164854 1.073573 
0.034594 -0.164937 1.074117 
0.036432 -0.165041 1.074792 
0.038268 -0.165123 1.075327 
0.040118 -0.165256 1.076193 
0.041978 -0.165416 1.077236 
0.043861 -0.165649 1.078753 
0.045751 -0.165890 1.080323 
0.047661 -0.166182 1.082223 
0.049575 -0.166465 1.084063 
0.051467 -0.166656 1.085311 
0.053344 -0.166788 1.086167 
0.055240 -0.166969 1.087346 
0.057107 -0.167052 1.087887 
0.058982 -0.167155 1.088561 
0.060867 -0.167277 1.089353 
0.062764 -0.167425 1.090319 
0.064658 -0.167557 1.091178 
0.066570 -0.167726 1.092278 
0.068460 -0.167833 1.092971 
0.070351 -0.167936 1.093645 
0.072235 -0.168018 1.094179 
0.074130 -0.168122 1.094854 
0.076057 -0.168289 1.095946 
-0.083216 -0.162686 1.071281 
-0.081371 -0.162617 1.070827 
-0.079509 -0.162512 1.070134 
-0.077661 -0.162431 1.069603 
-0.075816 -0.162351 1.069076 
-0.073955 -0.162233 1.068301 
-0.072120 -0.162169 1.067877 
-0.070288 -0.162107 1.067472 
-0.068460 -0.162051 1.067103 
-0.066641 -0.162015 1.066861 
-0.064836 -0.162013 1.066848 
-0.063019 -0.161976 1.066607 
-0.061208 -0.161957 1.066482 
-0.059426 -0.162013 1.066849 
-0.057645 -0.162076 1.067263 
-0.055903 -0.162257 1.068455 
-0.054202 -0.162573 1.070537 
-0.052523 -0.162979 1.073209 
-0.050868 -0.163490 1.076577 
-0.049196 -0.163985 1.079835 
-0.047473 -0.164339 1.082165 
-0.045699 -0.164539 1.083486 
-0.043891 -0.164628 1.084071 
-0.042018 -0.164470 1.083032 
-0.040142 -0.164288 1.081831 
-0.038251 -0.164021 1.080076 
-0.036357 -0.163713 1.078042 
-0.034449 -0.163309 1.075385 
-0.032557 -0.162939 1.072948 
-0.030674 -0.162572 1.070532 
-0.028814 -0.162287 1.068652 
-0.026962 -0.162013 1.066852 
-0.025128 -0.161816 1.065556 
-0.023306 -0.161674 1.064618 
-0.021492 -0.161573 1.063952 
-0.019684 -0.161497 1.063450 
-0.017885 -0.161479 1.063335 
-0.016087 -0.161479 1.063335 
-0.014288 -0.161462 1.063220 
-0.012485 -0.161387 1.062730 
-0.010682 -0.161288 1.062074 
-0.008878 -0.161146 1.061140 
-0.007080 -0.161042 1.060453 
-0.005284 -0.160963 1.059938 
-0.003492 -0.160929 1.059711 
-0.001701 -0.161005 1.060213 
0.000091 -0.161123 1.060990 
0.001886 -0.161212 1.061573 
0.003683 -0.161313 1.062240 
0.005483 -0.161443 1.063097 
0.007281 -0.161465 1.063241 
0.009080 -0.161487 1.063384 
0.010882 -0.161557 1.063849 
0.012687 -0.161635 1.064364 
0.014493 -0.161704 1.064812 
0.016303 -0.161805 1.065482 
0.018115 -0.161901 1.066113 
0.019929 -0.161994 1.066724 
0.021748 -0.162111 1.067493 
0.023581 -0.162307 1.068788 
0.025420 -0.162515 1.070155 
0.027261 -0.162702 1.071386 
0.029097 -0.162843 1.072313 
0.030928 -0.162937 1.072936 
0.032761 -0.163032 1.073563 
0.034594 -0.163117 1.074119 
0.036433 -0.163224 1.074823 
0.038270 -0.163306 1.075365 
0.040115 -0.163418 1.076104 
0.041969 -0.163554 1.076997 
0.043850 -0.163778 1.078473 
0.045739 -0.164015 1.080035 
0.047655 -0.164326 1.082083 
0.049582 -0.164649 1.084208 
0.051493 -0.164900 1.085859 
0.053385 -0.165072 1.086997 
0.055297 -0.165296 1.088466 
0.057173 -0.165399 1.089148 
0.059050 -0.165500 1.089814 
0.060930 -0.165602 1.090483 
0.062820 -0.165726 1.091298 
0.064701 -0.165817 1.091896 
0.066604 -0.165959 1.092836 
0.068494 -0.166062 1.093514 
0.070386 -0.166165 1.094193 
0.072273 -0.166250 1.094754 
0.074179 -0.166375 1.095573 
0.076107 -0.166542 1.096670 
-0.083247 -0.160929 1.071678 
-0.081414 -0.160887 1.071394 
-0.079574 -0.160828 1.071003 
-0.077741 -0.160782 1.070697 
-0.075903 -0.160724 1.070306 
-0.074049 -0.160626 1.069658 
-0.072203 -0.160542 1.069099 
-0.070358 -0.160458 1.068538 
-0.068518 -0.160379 1.068014 
-0.066689 -0.160322 1.067629 
-0.064875 -0.160300 1.067483 
-0.063055 -0.160261 1.067228 
-0.061243 -0.160241 1.067093 
-0.059460 -0.160298 1.067469 
-0.057685 -0.160379 1.068014 
-0.055956 -0.160598 1.069468 
-0.054261 -0.160934 1.071706 
-0.052587 -0.161357 1.074522 
-0.050942 -0.161901 1.078148 
-0.049263 -0.162376 1.081310 
-0.047528 -0.162692 1.083417 
-0.045740 -0.162847 1.084450 
-0.043917 -0.162889 1.084724 
-0.042023 -0.162654 1.083162 
-0.040137 -0.162432 1.081683 
-0.038237 -0.162129 1.079665 
-0.036338 -0.161801 1.077481 
-0.034431 -0.161402 1.074824 
-0.032545 -0.161060 1.072547 
-0.030667 -0.160721 1.070288 
-0.028814 -0.160478 1.068668 
-0.026968 -0.160244 1.067114 
-0.025134 -0.160051 1.065831 
-0.023312 -0.159910 1.064888 
-0.021498 -0.159807 1.064206 
-0.019687 -0.159713 1.063575 
-0.017885 -0.159677 1.063335 
-0.016087 -0.159677 1.063335 
-0.014289 -0.159677 1.063335 
-0.012489 -0.159641 1.063096 
-0.010688 -0.159582 1.062707 
-0.008886 -0.159484 1.062052 
-0.007087 -0.159417 1.061605 
-0.005290 -0.159339 1.061087 
-0.003495 -0.159284 1.060718 
-0.001703 -0.159338 1.061077 
0.000091 -0.159434 1.061717 
0.001887 -0.159520 1.062293 
0.003685 -0.159604 1.062854 
0.005486 -0.159732 1.063703 
0.007285 -0.159735 1.063722 
0.009084 -0.159752 1.063840 
0.010886 -0.159809 1.064215 
0.012693 -0.159905 1.064858 
0.014500 -0.159975 1.065323 
0.016311 -0.160075 1.065988 
0.018121 -0.160151 1.066490 
0.019933 -0.160222 1.066964 
0.021750 -0.160318 1.067608 
0.023578 -0.160477 1.068667 
0.025417 -0.160681 1.070022 
0.027257 -0.160863 1.071233 
0.029093 -0.161004 1.072172 
0.030924 -0.161097 1.072795 
0.032757 -0.161195 1.073447 
0.034586 -0.161262 1.073893 
0.036426 -0.161369 1.074605 
0.038262 -0.161453 1.075162 
0.040108 -0.161565 1.075913 
0.041961 -0.161699 1.076800 
0.043846 -0.161934 1.078368 
0.045734 -0.162166 1.079912 
0.047655 -0.162491 1.082074 
0.049588 -0.162833 1.084352 
0.051513 -0.163121 1.086274 
0.053413 -0.163316 1.087572 
0.055339 -0.163574 1.089289 
0.057224 -0.163699 1.090121 
0.059105 -0.163804 1.090819 
0.060986 -0.163904 1.091484 
0.062877 -0.164024 1.092283 
0.064742 -0.164070 1.092593 
0.066637 -0.164189 1.093383 
0.068528 -0.164290 1.094058 
0.070422 -0.164395 1.094754 
0.072312 -0.164484 1.095352 
0.074228 -0.164626 1.096291 
0.076165 -0.164807 1.097499 
-0.083315 -0.159244 1.072558 
-0.081490 -0.159220 1.072398 
-0.079674 -0.159213 1.072353 
-0.077856 -0.159203 1.072287 
-0.076017 -0.159148 1.071918 
-0.074160 -0.159053 1.071272 
-0.072302 -0.158949 1.070571 
-0.070439 -0.158828 1.069761 
-0.068580 -0.158712 1.068976 
-0.066740 -0.158634 1.068452 
-0.064917 -0.158592 1.068169 
-0.063095 -0.158552 1.067897 
-0.061281 -0.158530 1.067755 
-0.059503 -0.158602 1.068235 
-0.057740 -0.158719 1.069023 
-0.056010 -0.158939 1.070505 
-0.054315 -0.159275 1.072770 
-0.052640 -0.159695 1.075596 
-0.050982 -0.160199 1.078994 
-0.049291 -0.160633 1.081917 
-0.047543 -0.160908 1.083766 
-0.045748 -0.161038 1.084646 
-0.043914 -0.161039 1.084651 
-0.042014 -0.160782 1.082920 
-0.040118 -0.160522 1.081170 
-0.038218 -0.160218 1.079119 
-0.036319 -0.159891 1.076921 
-0.034418 -0.159516 1.074393 
-0.032540 -0.159219 1.072391 
-0.030667 -0.158907 1.070294 
-0.028818 -0.158689 1.068825 
-0.026975 -0.158476 1.067389 
-0.025143 -0.158303 1.066221 
-0.023318 -0.158148 1.065177 
-0.021505 -0.158061 1.064596 
-0.019694 -0.157966 1.063952 
-0.017891 -0.157928 1.063694 
-0.016091 -0.157911 1.063584 
-0.014293 -0.157910 1.063579 
-0.012492 -0.157876 1.063344 
-0.010692 -0.157837 1.063088 
-0.008890 -0.157762 1.062580 
-0.007092 -0.157720 1.062294 
-0.005294 -0.157660 1.061895 
-0.003497 -0.157588 1.061407 
-0.001703 -0.157617 1.061605 
0.000091 -0.157673 1.061982 
0.001888 -0.157756 1.062542 
0.003686 -0.157823 1.062992 
0.005488 -0.157968 1.063964 
0.007287 -0.157988 1.064100 
0.009088 -0.158024 1.064342 
0.010891 -0.158080 1.064722 
0.012699 -0.158176 1.065369 
0.014505 -0.158226 1.065705 
0.016315 -0.158305 1.066238 
0.018123 -0.158360 1.066606 
0.019933 -0.158415 1.066977 
0.021750 -0.158512 1.067629 
0.023576 -0.158653 1.068582 
0.025414 -0.158850 1.069910 
0.027254 -0.159030 1.071122 
0.029090 -0.159168 1.072047 
0.030921 -0.159263 1.072693 
0.032757 -0.159375 1.073445 
0.034586 -0.159439 1.073874 
0.036429 -0.159560 1.074692 
0.038270 -0.159662 1.075375 
0.040117 -0.159778 1.076157 
0.041972 -0.159912 1.077063 
0.043851 -0.160127 1.078511 
0.045734 -0.160336 1.079915 
0.047650 -0.160638 1.081951 
0.049588 -0.160995 1.084353 
0.051520 -0.161302 1.086420 
0.053433 -0.161532 1.087975 
0.055366 -0.161808 1.089828 
0.057266 -0.161969 1.090916 
0.059149 -0.162076 1.091636 
0.061033 -0.162178 1.092323 
0.062917 -0.162276 1.092980 
0.064781 -0.162316 1.093251 
0.066669 -0.162414 1.093912 
0.068562 -0.162516 1.094600 
0.070459 -0.162624 1.095328 
0.072366 -0.162747 1.096158 
0.074283 -0.162889 1.097109 
0.076721 -0.164137 1.105518 
-0.081582 -0.157580 1.073611 
-0.079773 -0.157590 1.073681 
-0.077962 -0.157600 1.073748 
-0.076121 -0.157547 1.073385 
-0.074262 -0.157453 1.072745 
-0.072394 -0.157333 1.071930 
-0.070518 -0.157191 1.070961 
-0.068640 -0.157037 1.069915 
-0.066791 -0.156942 1.069264 
-0.064959 -0.156885 1.068874 
-0.063137 -0.156845 1.068606 
-0.061329 -0.156842 1.068581 
-0.059549 -0.156911 1.069055 
-0.057791 -0.157047 1.069983 
-0.056060 -0.157265 1.071465 
-0.054364 -0.157599 1.073739 
-0.052680 -0.157993 1.076428 
-0.051013 -0.158468 1.079664 
-0.049309 -0.158856 1.082307 
-0.047553 -0.159105 1.084005 
-0.045752 -0.159215 1.084754 
-0.043909 -0.159182 1.084524 
-0.042003 -0.158907 1.082654 
-0.040103 -0.158629 1.080757 
-0.038198 -0.158307 1.078562 
-0.036301 -0.157987 1.076382 
-0.034409 -0.157654 1.074113 
-0.032540 -0.157399 1.072377 
-0.030675 -0.157131 1.070554 
-0.028829 -0.156935 1.069219 
-0.026988 -0.156741 1.067899 
-0.025155 -0.156571 1.066735 
-0.023329 -0.156418 1.065693 
-0.021516 -0.156335 1.065128 
-0.019706 -0.156257 1.064597 
-0.017902 -0.156219 1.064338 
-0.016100 -0.156201 1.064220 
-0.014300 -0.156184 1.064098 
-0.012498 -0.156146 1.063841 
-0.010697 -0.156108 1.063584 
-0.008895 -0.156035 1.063088 
-0.007096 -0.155998 1.062831 
-0.005298 -0.155960 1.062576 
-0.003499 -0.155871 1.061965 
-0.001704 -0.155881 1.062033 
0.000091 -0.155912 1.062251 
0.001888 -0.155993 1.062798 
0.003686 -0.156060 1.063253 
0.005489 -0.156208 1.064266 
0.007290 -0.156245 1.064519 
0.009093 -0.156301 1.064898 
0.010896 -0.156338 1.065149 
0.012703 -0.156416 1.065684 
0.014508 -0.156459 1.065975 
0.016316 -0.156516 1.066366 
0.018125 -0.156569 1.066723 
0.019938 -0.156643 1.067228 
0.021756 -0.156741 1.067897 
0.023582 -0.156881 1.068850 
0.025420 -0.157073 1.070158 
0.027257 -0.157231 1.071236 
0.029090 -0.157351 1.072054 
0.030921 -0.157447 1.072706 
0.032754 -0.157538 1.073328 
0.034577 -0.157579 1.073604 
0.036418 -0.157692 1.074376 
0.038259 -0.157792 1.075059 
0.040107 -0.157913 1.075882 
0.041967 -0.158068 1.076939 
0.043847 -0.158283 1.078402 
0.045728 -0.158485 1.079781 
0.047643 -0.158783 1.081805 
0.049582 -0.159136 1.084211 
0.051513 -0.159441 1.086292 
0.053439 -0.159706 1.088096 
0.055379 -0.159997 1.090081 
0.057286 -0.160178 1.091313 
0.059178 -0.160304 1.092168 
0.061063 -0.160405 1.092859 
0.062947 -0.160500 1.093503 
0.064812 -0.160540 1.093776 
0.066702 -0.160638 1.094447 
0.068604 -0.160760 1.095277 
0.070511 -0.160886 1.096137 
0.072419 -0.161009 1.096973 
0.074346 -0.161166 1.098044 
-0.081697 -0.155979 1.075124 
-0.079880 -0.155981 1.075132 
-0.078067 -0.155989 1.075189 
-0.076216 -0.155920 1.074715 
-0.074354 -0.155827 1.074074 
-0.072482 -0.155706 1.073236 
-0.070603 -0.155563 1.072256 
-0.068714 -0.155391 1.071067 
-0.066855 -0.155277 1.070285 
-0.065014 -0.155203 1.069770 
-0.063183 -0.155148 1.069393 
-0.061375 -0.155147 1.069389 
-0.059595 -0.155221 1.069894 
-0.057844 -0.155374 1.070953 
-0.056111 -0.155591 1.072445 
-0.054412 -0.155918 1.074698 
-0.052713 -0.156267 1.077104 
-0.051020 -0.156657 1.079793 
-0.049289 -0.156959 1.081873 
-0.047520 -0.157159 1.083253 
-0.045712 -0.157236 1.083784 
-0.043866 -0.157188 1.083453 
-0.041972 -0.156957 1.081859 
-0.040082 -0.156715 1.080194 
-0.038187 -0.156435 1.078262 
-0.036296 -0.156141 1.076239 
-0.034413 -0.155853 1.074249 
-0.032552 -0.155639 1.072780 
-0.030690 -0.155392 1.071077 
-0.028840 -0.155182 1.069631 
-0.027001 -0.155006 1.068412 
-0.025167 -0.154836 1.067243 
-0.023341 -0.154687 1.066217 
-0.021527 -0.154610 1.065684 
-0.019718 -0.154550 1.065274 
-0.017913 -0.154516 1.065036 
-0.016111 -0.154497 1.064905 
-0.014309 -0.154479 1.064783 
-0.012505 -0.154438 1.064497 
-0.010704 -0.154414 1.064335 
-0.008901 -0.154342 1.063837 
-0.007101 -0.154305 1.063579 
-0.005301 -0.154269 1.063332 
-0.003502 -0.154179 1.062712 
-0.001705 -0.154172 1.062665 
0.000091 -0.154202 1.062871 
0.001889 -0.154282 1.063423 
0.003689 -0.154349 1.063884 
0.005493 -0.154498 1.064915 
0.007295 -0.154538 1.065185 
0.009099 -0.154594 1.065576 
0.010902 -0.154614 1.065715 
0.012708 -0.154670 1.066100 
0.014512 -0.154691 1.066241 
0.016318 -0.154727 1.066490 
0.018127 -0.154779 1.066848 
0.019943 -0.154871 1.067483 
0.021761 -0.154970 1.068169 
0.023591 -0.155125 1.069235 
0.025429 -0.155314 1.070535 
0.027266 -0.155468 1.071600 
0.029097 -0.155571 1.072306 
0.030928 -0.155665 1.072953 
0.032754 -0.155719 1.073327 
0.034576 -0.155754 1.073572 
0.036413 -0.155847 1.074214 
0.038253 -0.155947 1.074901 
0.040102 -0.156069 1.075738 
0.041966 -0.156240 1.076923 
0.043841 -0.156433 1.078250 
0.045722 -0.156632 1.079623 
0.047630 -0.156906 1.081511 
0.049563 -0.157238 1.083802 
0.051494 -0.157540 1.085882 
0.053431 -0.157840 1.087946 
0.055373 -0.158132 1.089962 
0.057294 -0.158349 1.091457 
0.059199 -0.158510 1.092566 
0.061092 -0.158628 1.093379 
0.062978 -0.158723 1.094033 
0.064852 -0.158783 1.094447 
0.066751 -0.158900 1.095253 
0.068657 -0.159025 1.096116 
0.070573 -0.159167 1.097098 
0.072492 -0.159308 1.098068 
0.074438 -0.159501 1.099397 
-0.081791 -0.154333 1.076354 
-0.079973 -0.154337 1.076382 
-0.078146 -0.154323 1.076279 
-0.076300 -0.154268 1.075901 
-0.074428 -0.154158 1.075133 
-0.072545 -0.154020 1.074166 
-0.070656 -0.153861 1.073063 
-0.068765 -0.153688 1.071854 
-0.066895 -0.153557 1.070940 
-0.065053 -0.153481 1.070407 
-0.063227 -0.153443 1.070141 
-0.061426 -0.153461 1.070271 
-0.059653 -0.153555 1.070928 
-0.057908 -0.153729 1.072141 
-0.056167 -0.153925 1.073505 
-0.054452 -0.154209 1.075489 
-0.052732 -0.154496 1.077487 
-0.051012 -0.154803 1.079626 
-0.049262 -0.155040 1.081280 
-0.047487 -0.155213 1.082488 
-0.045673 -0.155269 1.082881 
-0.043831 -0.155226 1.082581 
-0.041945 -0.155021 1.081150 
-0.040061 -0.154804 1.079636 
-0.038177 -0.154567 1.077986 
-0.036292 -0.154302 1.076132 
-0.034418 -0.154056 1.074422 
-0.032562 -0.153865 1.073085 
-0.030702 -0.153639 1.071514 
-0.028848 -0.153413 1.069933 
-0.027009 -0.153237 1.068708 
-0.025174 -0.153066 1.067514 
-0.023349 -0.152937 1.066612 
-0.021536 -0.152863 1.066100 
-0.019729 -0.152826 1.065843 
-0.017925 -0.152809 1.065721 
-0.016121 -0.152792 1.065603 
-0.014318 -0.152772 1.065468 
-0.012512 -0.152716 1.065075 
-0.010709 -0.152673 1.064772 
-0.008904 -0.152598 1.064249 
-0.007102 -0.152542 1.063858 
-0.005303 -0.152504 1.063597 
-0.003503 -0.152432 1.063093 
-0.001706 -0.152443 1.063169 
0.000092 -0.152476 1.063402 
0.001890 -0.152573 1.064074 
0.003691 -0.152640 1.064544 
0.005496 -0.152787 1.065567 
0.007299 -0.152827 1.065848 
0.009104 -0.152880 1.066219 
0.010907 -0.152883 1.066238 
0.012712 -0.152918 1.066482 
0.014515 -0.152919 1.066490 
0.016320 -0.152936 1.066606 
0.018130 -0.152989 1.066977 
0.019946 -0.153082 1.067629 
0.021765 -0.153184 1.068335 
0.023594 -0.153335 1.069394 
0.025433 -0.153521 1.070685 
0.027267 -0.153657 1.071637 
0.029097 -0.153756 1.072327 
0.030929 -0.153848 1.072966 
0.032750 -0.153882 1.073209 
0.034572 -0.153918 1.073454 
0.036409 -0.154010 1.074097 
0.038249 -0.154109 1.074792 
0.040102 -0.154246 1.075743 
0.041971 -0.154433 1.077046 
0.043840 -0.154603 1.078236 
0.045721 -0.154798 1.079595 
0.047623 -0.155048 1.081342 
0.049544 -0.155341 1.083382 
0.051474 -0.155638 1.085451 
0.053416 -0.155952 1.087644 
0.055360 -0.156247 1.089702 
0.057289 -0.156485 1.091361 
0.059208 -0.156680 1.092720 
0.061108 -0.156816 1.093670 
0.063003 -0.156931 1.094469 
0.064886 -0.157011 1.095031 
0.066796 -0.157148 1.095983 
0.068702 -0.157270 1.096838 
0.070628 -0.157431 1.097958 
0.072559 -0.157593 1.099090 
0.074518 -0.157807 1.100582 
-0.081887 -0.152688 1.077620 
-0.080056 -0.152670 1.077495 
-0.078219 -0.152641 1.077289 
-0.076366 -0.152577 1.076835 
-0.074482 -0.152448 1.075924 
-0.072591 -0.152295 1.074844 
-0.070701 -0.152138 1.073736 
-0.068801 -0.151952 1.072425 
-0.066922 -0.151803 1.071371 
-0.065069 -0.151705 1.070684 
-0.063249 -0.151681 1.070514 
-0.061448 -0.151702 1.070663 
-0.059690 -0.151834 1.071589 
-0.057951 -0.152025 1.072938 
-0.056208 -0.152217 1.074292 
-0.054479 -0.152460 1.076013 
-0.052744 -0.152703 1.077725 
-0.050993 -0.152916 1.079230 
-0.049225 -0.153091 1.080462 
-0.047439 -0.153222 1.081387 
-0.045616 -0.153241 1.081520 
-0.043771 -0.153184 1.081120 
-0.041903 -0.153034 1.080060 
-0.040032 -0.152861 1.078843 
-0.038164 -0.152687 1.077610 
-0.036293 -0.152481 1.076159 
-0.034432 -0.152295 1.074842 
-0.032574 -0.152105 1.073503 
-0.030718 -0.151898 1.072043 
-0.028859 -0.151655 1.070329 
-0.027015 -0.151464 1.068980 
-0.025180 -0.151292 1.067768 
-0.023358 -0.151182 1.066987 
-0.021544 -0.151110 1.066482 
-0.019738 -0.151093 1.066362 
-0.017936 -0.151092 1.066357 
-0.016131 -0.151077 1.066246 
-0.014327 -0.151058 1.066117 
-0.012520 -0.151004 1.065735 
-0.010715 -0.150963 1.065442 
-0.008910 -0.150888 1.064915 
-0.007106 -0.150814 1.064391 
-0.005305 -0.150755 1.063977 
-0.003504 -0.150682 1.063464 
-0.001706 -0.150696 1.063558 
0.000092 -0.150736 1.063839 
0.001891 -0.150833 1.064529 
0.003693 -0.150915 1.065106 
0.005498 -0.151039 1.065979 
0.007302 -0.151075 1.066238 
0.009106 -0.151110 1.066482 
0.010910 -0.151111 1.066490 
0.012714 -0.151128 1.066606 
0.014517 -0.151128 1.066606 
0.016322 -0.151144 1.066723 
0.018134 -0.151216 1.067228 
0.019951 -0.151311 1.067897 
0.021770 -0.151411 1.068606 
0.023603 -0.151577 1.069775 
0.025439 -0.151743 1.070950 
0.027271 -0.151861 1.071784 
0.029101 -0.151958 1.072467 
0.030932 -0.152047 1.073092 
0.032750 -0.152063 1.073209 
0.034576 -0.152116 1.073585 
0.036414 -0.152210 1.074245 
0.038255 -0.152311 1.074960 
0.040108 -0.152444 1.075900 
0.041977 -0.152627 1.077190 
0.043836 -0.152761 1.078134 
0.045711 -0.152935 1.079361 
0.047606 -0.153161 1.080957 
0.049519 -0.153428 1.082841 
0.051447 -0.153718 1.084888 
0.053396 -0.154049 1.087222 
0.055346 -0.154361 1.089425 
0.057282 -0.154617 1.091231 
0.059215 -0.154847 1.092855 
0.061124 -0.155003 1.093959 
0.063029 -0.155141 1.094928 
0.064929 -0.155257 1.095751 
0.066847 -0.155410 1.096827 
0.068762 -0.155548 1.097803 
0.070708 -0.155746 1.099204 
0.072651 -0.155927 1.100479 
0.075095 -0.157148 1.109098 
-0.080100 -0.150928 1.078094 
-0.078252 -0.150878 1.077739 
-0.076399 -0.150816 1.077297 
-0.074518 -0.150696 1.076439 
-0.072618 -0.150529 1.075249 
-0.070736 -0.150393 1.074273 
-0.068843 -0.150226 1.073083 
-0.066963 -0.150077 1.072019 
-0.065108 -0.149980 1.071323 
-0.063287 -0.149956 1.071152 
-0.061485 -0.149977 1.071300 
-0.059727 -0.150110 1.072255 
-0.057980 -0.150282 1.073480 
-0.056230 -0.150455 1.074716 
-0.054486 -0.150657 1.076159 
-0.052732 -0.150842 1.077482 
-0.050968 -0.151013 1.078704 
-0.049189 -0.151149 1.079674 
-0.047399 -0.151261 1.080476 
-0.045572 -0.151261 1.080477 
-0.043733 -0.151218 1.080170 
-0.041871 -0.151087 1.079233 
-0.040011 -0.150954 1.078281 
-0.038155 -0.150822 1.077339 
-0.036294 -0.150659 1.076172 
-0.034440 -0.150510 1.075108 
-0.032586 -0.150339 1.073887 
-0.030732 -0.150151 1.072542 
-0.028872 -0.149910 1.070827 
-0.027028 -0.149722 1.069478 
-0.025188 -0.149534 1.068140 
-0.023365 -0.149423 1.067344 
-0.021548 -0.149336 1.066723 
-0.019743 -0.149320 1.066606 
-0.017940 -0.149320 1.066606 
-0.016137 -0.149320 1.066606 
-0.014332 -0.149303 1.066490 
-0.012526 -0.149268 1.066238 
-0.010721 -0.149230 1.065964 
-0.008915 -0.149172 1.065550 
-0.007110 -0.149082 1.064910 
-0.005307 -0.149007 1.064374 
-0.003505 -0.148933 1.063847 
-0.001707 -0.148947 1.063944 
0.000092 -0.148989 1.064246 
0.001892 -0.149088 1.064950 
0.003695 -0.149183 1.065629 
0.005500 -0.149286 1.066366 
0.007304 -0.149303 1.066490 
0.009108 -0.149320 1.066606 
0.010912 -0.149336 1.066723 
0.012715 -0.149337 1.066731 
0.014520 -0.149354 1.066852 
0.016328 -0.149388 1.067099 
0.018142 -0.149477 1.067729 
0.019958 -0.149556 1.068294 
0.021778 -0.149653 1.068991 
0.023611 -0.149815 1.070143 
0.025445 -0.149962 1.071193 
0.027274 -0.150063 1.071914 
0.029105 -0.150158 1.072593 
0.030939 -0.150260 1.073327 
0.032757 -0.150278 1.073454 
0.034589 -0.150350 1.073969 
0.036427 -0.150445 1.074643 
0.038273 -0.150561 1.075471 
0.040127 -0.150693 1.076418 
0.041993 -0.150858 1.077598 
0.043848 -0.150975 1.078430 
0.045717 -0.151125 1.079500 
0.047600 -0.151309 1.080817 
0.049500 -0.151534 1.082427 
0.051421 -0.151803 1.084344 
0.053369 -0.152129 1.086673 
0.055324 -0.152456 1.089010 
0.057273 -0.152744 1.091064 
0.059221 -0.153011 1.092976 
0.061146 -0.153205 1.094359 
0.063061 -0.153362 1.095482 
0.064970 -0.153496 1.096437 
0.066889 -0.153647 1.097520 
0.068806 -0.153785 1.098500 
0.070762 -0.154000 1.100041 
0.072708 -0.154182 1.101341 
-0.080150 -0.149193 1.078764 
-0.078297 -0.149137 1.078356 
-0.076439 -0.149069 1.077866 
-0.074562 -0.148959 1.077073 
-0.072669 -0.148810 1.075998 
-0.070786 -0.148677 1.075037 
-0.068893 -0.148514 1.073855 
-0.067011 -0.148367 1.072795 
-0.065155 -0.148271 1.072097 
-0.063327 -0.148233 1.071822 
-0.061523 -0.148253 1.071971 
-0.059764 -0.148385 1.072922 
-0.058009 -0.148536 1.074017 
-0.056251 -0.148689 1.075117 
-0.054493 -0.148851 1.076290 
-0.052719 -0.148979 1.077220 
-0.050937 -0.149093 1.078043 
-0.049152 -0.149207 1.078864 
-0.047352 -0.149284 1.079421 
-0.045523 -0.149268 1.079307 
-0.043690 -0.149242 1.079119 
-0.041838 -0.149143 1.078404 
-0.039985 -0.149032 1.077597 
-0.038144 -0.148957 1.077057 
