1650
0.079374 -0.025208 1.019555 
0.081337 -0.025283 1.022568 
0.083294 -0.025352 1.025377 
0.085241 -0.025416 1.027953 
-0.043234 -0.023606 1.025036 
-0.041392 -0.023544 1.022340 
-0.039669 -0.023547 1.022476 
-0.037935 -0.023544 1.022339 
-0.036176 -0.023524 1.021480 
-0.034424 -0.023507 1.020719 
-0.032587 -0.023427 1.017264 
-0.024791 -0.022591 0.980960 
-0.023013 -0.022474 0.975869 
-0.021375 -0.022487 0.976412 
-0.019724 -0.022486 0.976388 
-0.018061 -0.022471 0.975734 
-0.016400 -0.022455 0.975051 
-0.014743 -0.022442 0.974484 
-0.013088 -0.022430 0.973948 
-0.011438 -0.022422 0.973630 
-0.009790 -0.022417 0.973410 
-0.008142 -0.022410 0.973084 
-0.006496 -0.022407 0.972946 
-0.004850 -0.022404 0.972818 
-0.003206 -0.022409 0.973036 
-0.001562 -0.022414 0.973283 
0.000084 -0.022423 0.973637 
0.001731 -0.022432 0.974064 
0.003379 -0.022447 0.974712 
0.005033 -0.022473 0.975814 
0.006691 -0.022500 0.976985 
0.008355 -0.022533 0.978434 
0.010018 -0.022554 0.979333 
0.011683 -0.022573 0.980167 
0.013345 -0.022580 0.980475 
0.015009 -0.022590 0.980914 
0.016673 -0.022598 0.981269 
0.018345 -0.022614 0.981933 
0.020020 -0.022631 0.982704 
0.021702 -0.022652 0.983611 
0.023396 -0.022683 0.984939 
0.025096 -0.022715 0.986315 
0.026798 -0.022744 0.987574 
0.028506 -0.022775 0.988922 
0.030222 -0.022808 0.990360 
0.031934 -0.022835 0.991538 
0.033661 -0.022869 0.993031 
0.035404 -0.022911 0.994839 
0.037137 -0.022943 0.996227 
0.038871 -0.022972 0.997486 
0.040607 -0.023000 0.998714 
0.042320 -0.023014 0.999297 
0.044020 -0.023019 0.999549 
0.045718 -0.023023 0.999729 
0.047392 -0.023016 0.999385 
0.049059 -0.023005 0.998917 
0.050745 -0.023004 0.998870 
0.052434 -0.023004 0.998873 
0.054143 -0.023013 0.999258 
0.055891 -0.023037 1.000296 
0.057650 -0.023064 1.001479 
0.059420 -0.023094 1.002786 
0.061201 -0.023126 1.004181 
0.062964 -0.023150 1.005231 
0.064730 -0.023174 1.006269 
0.066507 -0.023200 1.007407 
0.068282 -0.023225 1.008471 
0.070085 -0.023258 1.009895 
0.071933 -0.023303 1.011875 
0.073801 -0.023353 1.014027 
0.075695 -0.023408 1.016446 
0.077624 -0.023472 1.019216 
0.079555 -0.023534 1.021885 
0.081504 -0.023598 1.024664 
0.083435 -0.023654 1.027109 
0.085362 -0.023707 1.029419 
-0.055208 -0.024301 1.055181 
-0.057034 -0.024319 1.055969 
-0.057071 -0.022543 1.056636 
-0.055213 -0.022514 1.055275 
-0.053165 -0.024183 1.050069 
-0.053307 -0.022462 1.052859 
-0.051171 -0.024080 1.045590 
-0.051408 -0.022411 1.050438 
-0.045100 -0.023676 1.028067 
-0.045403 -0.022081 1.034989 
-0.043467 -0.021987 1.030557 
-0.041561 -0.021901 1.026527 
-0.039788 -0.021880 1.025549 
-0.038011 -0.021855 1.024392 
-0.036250 -0.021837 1.023555 
-0.034498 -0.021824 1.022925 
-0.032711 -0.021785 1.021121 
-0.024906 -0.021025 0.985505 
-0.023075 -0.020876 0.978516 
-0.021395 -0.020851 0.977342 
-0.019747 -0.020855 0.977534 
-0.018086 -0.020846 0.977085 
-0.016424 -0.020834 0.976513 
-0.014767 -0.020824 0.976047 
-0.013111 -0.020814 0.975610 
-0.011458 -0.020807 0.975293 
-0.009807 -0.020803 0.975074 
-0.008156 -0.020798 0.974831 
-0.006508 -0.020797 0.974807 
-0.004860 -0.020797 0.974817 
-0.003213 -0.020805 0.975175 
-0.001565 -0.020813 0.975538 
0.000084 -0.020820 0.975896 
0.001734 -0.020827 0.976212 
0.003387 -0.020840 0.976837 
0.005043 -0.020861 0.977818 
0.006703 -0.020883 0.978855 
0.008370 -0.020912 0.980197 
0.010036 -0.020931 0.981078 
0.011702 -0.020944 0.981705 
0.013364 -0.020949 0.981916 
0.015029 -0.020956 0.982233 
0.016696 -0.020963 0.982577 
0.018369 -0.020977 0.983248 
0.020052 -0.020999 0.984254 
0.021741 -0.021023 0.985386 
0.023442 -0.021054 0.986861 
0.025145 -0.021084 0.988242 
0.026850 -0.021111 0.989502 
0.028558 -0.021136 0.990715 
0.030276 -0.021167 0.992138 
0.031991 -0.021192 0.993313 
0.033721 -0.021224 0.994817 
0.035464 -0.021260 0.996518 
0.037204 -0.021292 0.998020 
0.038938 -0.021318 0.999204 
0.040683 -0.021347 1.000583 
0.042401 -0.021360 1.001206 
0.044110 -0.021368 1.001572 
0.045807 -0.021370 1.001656 
0.047488 -0.021364 1.001401 
0.049158 -0.021355 1.000940 
0.050849 -0.021354 1.000915 
0.052541 -0.021354 1.000921 
0.054258 -0.021364 1.001381 
0.056003 -0.021384 1.002298 
0.057752 -0.021404 1.003255 
0.059517 -0.021429 1.004415 
0.061291 -0.021456 1.005671 
0.063044 -0.021473 1.006508 
0.064812 -0.021495 1.007538 
0.066598 -0.021522 1.008792 
0.068393 -0.021550 1.010111 
0.070217 -0.021586 1.011787 
0.072095 -0.021636 1.014143 
0.073976 -0.021685 1.016440 
0.075883 -0.021739 1.018976 
0.077808 -0.021796 1.021630 
0.079732 -0.021850 1.024163 
0.081648 -0.021900 1.026483 
0.083560 -0.021946 1.028655 
0.085461 -0.021988 1.030609 
-0.058958 -0.020787 1.058444 
-0.057092 -0.020760 1.057041 
-0.055209 -0.020723 1.055193 
-0.053291 -0.020671 1.052549 
-0.051372 -0.020616 1.049703 
-0.049378 -0.022296 1.045050 
-0.049374 -0.020523 1.044973 
-0.047380 -0.022187 1.039971 
-0.047393 -0.020430 1.040258 
-0.045428 -0.020338 1.035547 
-0.043514 -0.020262 1.031678 
-0.041635 -0.020196 1.028352 
-0.039853 -0.020174 1.027237 
-0.038078 -0.020154 1.026190 
-0.036314 -0.020138 1.025376 
-0.034567 -0.020130 1.024980 
-0.032826 -0.020125 1.024721 
-0.023150 -0.019280 0.981692 
-0.021425 -0.019222 0.978725 
-0.019775 -0.019226 0.978939 
-0.018112 -0.019217 0.978510 
-0.016450 -0.019208 0.978051 
-0.014790 -0.019199 0.977581 
-0.013133 -0.019193 0.977248 
-0.011477 -0.019187 0.976945 
-0.009825 -0.019186 0.976930 
-0.008173 -0.019184 0.976814 
-0.006521 -0.019184 0.976810 
-0.004870 -0.019185 0.976837 
-0.003220 -0.019193 0.977291 
-0.001569 -0.019201 0.977658 
0.000084 -0.019207 0.978004 
0.001738 -0.019215 0.978409 
0.003394 -0.019225 0.978913 
0.005053 -0.019240 0.979669 
0.006715 -0.019256 0.980482 
0.008382 -0.019278 0.981613 
0.010048 -0.019292 0.982304 
0.011715 -0.019302 0.982842 
0.013380 -0.019306 0.983038 
0.015046 -0.019312 0.983349 
0.016715 -0.019319 0.983708 
0.018394 -0.019337 0.984577 
0.020083 -0.019361 0.985801 
0.021780 -0.019387 0.987166 
0.023487 -0.019419 0.988784 
0.025197 -0.019448 0.990263 
0.026902 -0.019471 0.991415 
0.028606 -0.019490 0.992406 
0.030324 -0.019516 0.993717 
0.032041 -0.019539 0.994872 
0.033775 -0.019569 0.996390 
0.035520 -0.019602 0.998106 
0.037272 -0.019636 0.999827 
0.039013 -0.019662 1.001138 
0.040767 -0.019691 1.002638 
0.042493 -0.019706 1.003388 
0.044210 -0.019715 1.003857 
0.045912 -0.019717 1.003955 
0.047597 -0.019712 1.003708 
0.049272 -0.019703 1.003258 
0.050967 -0.019703 1.003230 
0.052664 -0.019703 1.003247 
0.054379 -0.019710 1.003598 
0.056113 -0.019723 1.004281 
0.057851 -0.019737 1.004981 
0.059605 -0.019755 1.005909 
0.061370 -0.019776 1.006954 
0.063130 -0.019794 1.007885 
0.064908 -0.019817 1.009040 
0.066706 -0.019844 1.010425 
0.068519 -0.019875 1.011984 
0.070364 -0.019913 1.013909 
0.072249 -0.019960 1.016311 
0.074143 -0.020007 1.018731 
0.076054 -0.020057 1.021268 
0.077972 -0.020106 1.023781 
0.079881 -0.020152 1.026074 
0.081780 -0.020192 1.028135 
0.083666 -0.020228 1.029960 
0.085558 -0.020263 1.031775 
-0.060867 -0.019031 1.060541 
-0.058980 -0.019000 1.058850 
-0.057111 -0.018974 1.057389 
-0.055206 -0.018934 1.055146 
-0.053258 -0.018876 1.051897 
-0.051315 -0.018815 1.048537 
-0.049345 -0.018740 1.044358 
-0.047385 -0.018663 1.040074 
-0.045451 -0.018592 1.036070 
-0.043563 -0.018533 1.032834 
-0.041704 -0.018484 1.030063 
-0.039910 -0.018459 1.028710 
-0.038132 -0.018440 1.027651 
-0.036369 -0.018428 1.026935 
-0.034620 -0.018421 1.026541 
-0.032880 -0.018418 1.026403 
-0.030920 -0.020012 1.018992 
-0.031030 -0.018350 1.022611 
-0.023237 -0.017682 0.985386 
-0.021463 -0.017593 0.980436 
-0.019805 -0.017593 0.980433 
-0.018138 -0.017584 0.979910 
-0.016474 -0.017576 0.979469 
-0.014813 -0.017570 0.979117 
-0.013155 -0.017565 0.978891 
-0.011496 -0.017560 0.978594 
-0.009842 -0.017560 0.978602 
-0.008188 -0.017560 0.978605 
-0.006534 -0.017562 0.978709 
-0.004880 -0.017564 0.978833 
-0.003227 -0.017572 0.979261 
-0.001572 -0.017578 0.979605 
0.000084 -0.017582 0.979837 
0.001741 -0.017586 0.980054 
0.003399 -0.017590 0.980244 
0.005060 -0.017603 0.980983 
0.006723 -0.017616 0.981698 
0.008391 -0.017634 0.982736 
0.010061 -0.017649 0.983533 
0.011731 -0.017660 0.984161 
0.013396 -0.017662 0.984268 
0.015065 -0.017668 0.984581 
0.016739 -0.017677 0.985128 
0.018421 -0.017694 0.986034 
0.020116 -0.017718 0.987397 
0.021818 -0.017745 0.988887 
0.023530 -0.017775 0.990592 
0.025238 -0.017799 0.991882 
0.026945 -0.017819 0.993008 
0.028649 -0.017835 0.993892 
0.030370 -0.017858 0.995202 
0.032087 -0.017877 0.996277 
0.033830 -0.017909 0.998010 
0.035579 -0.017940 0.999748 
0.037341 -0.017975 1.001691 
0.039090 -0.018000 1.003109 
0.040851 -0.018029 1.004719 
0.042581 -0.018042 1.005456 
0.044301 -0.018051 1.005927 
0.046001 -0.018050 1.005905 
0.047690 -0.018046 1.005656 
0.049373 -0.018040 1.005314 
0.051067 -0.018038 1.005204 
0.052767 -0.018038 1.005210 
0.054478 -0.018042 1.005440 
0.056198 -0.018048 1.005791 
0.057926 -0.018057 1.006268 
0.059675 -0.018071 1.007076 
0.061434 -0.018088 1.008010 
0.063205 -0.018107 1.009083 
0.065001 -0.018132 1.010477 
0.066810 -0.018160 1.012004 
0.068642 -0.018192 1.013795 
0.070505 -0.018230 1.015946 
0.072402 -0.018276 1.018462 
0.074300 -0.018319 1.020887 
0.076215 -0.018365 1.023428 
0.078119 -0.018406 1.025712 
0.080013 -0.018443 1.027765 
0.081886 -0.018473 1.029470 
0.083756 -0.018502 1.031067 
0.085630 -0.018530 1.032645 
-0.060912 -0.017246 1.061320 
-0.059019 -0.017217 1.059541 
-0.057143 -0.017191 1.057976 
-0.055227 -0.017152 1.055548 
-0.053244 -0.017088 1.051631 
-0.051279 -0.017026 1.047805 
-0.049328 -0.016964 1.043993 
-0.047386 -0.016901 1.040115 
-0.045476 -0.016845 1.036652 
-0.043608 -0.016800 1.033911 
-0.041769 -0.016764 1.031672 
-0.039963 -0.016738 1.030059 
-0.038177 -0.016718 1.028856 
-0.036408 -0.016704 1.028022 
-0.034657 -0.016698 1.027637 
-0.032915 -0.016696 1.027498 
-0.031079 -0.016643 1.024239 
-0.023288 -0.016047 0.987555 
-0.021500 -0.015959 0.982146 
-0.019837 -0.015957 0.981999 
-0.018167 -0.015948 0.981457 
-0.016498 -0.015939 0.980916 
-0.014833 -0.015932 0.980462 
-0.013174 -0.015930 0.980331 
-0.011513 -0.015925 0.980040 
-0.009858 -0.015927 0.980169 
-0.008203 -0.015930 0.980379 
-0.006547 -0.015934 0.980595 
-0.004889 -0.015936 0.980708 
-0.003232 -0.015941 0.981008 
-0.001574 -0.015944 0.981236 
0.000084 -0.015946 0.981359 
0.001744 -0.015948 0.981475 
0.003403 -0.015950 0.981574 
0.005066 -0.015962 0.982307 
0.006731 -0.015971 0.982910 
0.008402 -0.015988 0.983948 
0.010074 -0.016003 0.984855 
0.011749 -0.016017 0.985703 
0.013420 -0.016022 0.986026 
0.015095 -0.016031 0.986554 
0.016773 -0.016040 0.987121 
0.018459 -0.016055 0.988050 
0.020155 -0.016075 0.989311 
0.021859 -0.016098 0.990725 
0.023571 -0.016124 0.992314 
0.025281 -0.016145 0.993578 
0.026991 -0.016163 0.994705 
0.028699 -0.016178 0.995599 
0.030422 -0.016199 0.996922 
0.032142 -0.016217 0.998003 
0.033889 -0.016245 0.999768 
0.035645 -0.016276 1.001623 
0.037416 -0.016309 1.003699 
0.039173 -0.016334 1.005239 
0.040938 -0.016361 1.006858 
0.042675 -0.016374 1.007681 
0.044394 -0.016380 1.008023 
0.046091 -0.016377 1.007883 
0.047778 -0.016371 1.007521 
0.049464 -0.016366 1.007165 
0.051150 -0.016360 1.006841 
0.052852 -0.016360 1.006836 
0.054560 -0.016362 1.006952 
0.056275 -0.016366 1.007182 
0.058005 -0.016373 1.007640 
0.059756 -0.016386 1.008443 
0.061518 -0.016402 1.009389 
0.063300 -0.016421 1.010601 
0.065108 -0.016446 1.012136 
0.066923 -0.016472 1.013716 
0.068765 -0.016503 1.015610 
0.070630 -0.016538 1.017749 
0.072529 -0.016578 1.020259 
0.074432 -0.016618 1.022704 
0.076342 -0.016658 1.025138 
0.078241 -0.016693 1.027317 
0.080136 -0.016726 1.029352 
0.082004 -0.016752 1.030955 
0.083867 -0.016776 1.032430 
0.085743 -0.016802 1.034009 
-0.059087 -0.015438 1.060771 
-0.057199 -0.015413 1.059012 
-0.055261 -0.015372 1.056197 
-0.053281 -0.015316 1.052357 
-0.051314 -0.015260 1.048503 
-0.049368 -0.015207 1.044841 
-0.047442 -0.015156 1.041336 
-0.045546 -0.015110 1.038236 
-0.043685 -0.015074 1.035727 
-0.041843 -0.015041 1.033494 
-0.040029 -0.015016 1.031758 
-0.038230 -0.014995 1.030292 
-0.036450 -0.014979 1.029201 
-0.034693 -0.014972 1.028698 
-0.032953 -0.014971 1.028684 
-0.031127 -0.014929 1.025797 
-0.023347 -0.014409 0.990031 
-0.021548 -0.014326 0.984318 
-0.019876 -0.014320 0.983920 
-0.018200 -0.014310 0.983248 
-0.016527 -0.014301 0.982588 
-0.014860 -0.014295 0.982229 
-0.013199 -0.014295 0.982200 
-0.011534 -0.014289 0.981811 
-0.009876 -0.014292 0.982022 
-0.008219 -0.014297 0.982337 
-0.006559 -0.014299 0.982463 
-0.004898 -0.014299 0.982489 
-0.003238 -0.014304 0.982794 
-0.001577 -0.014305 0.982891 
0.000085 -0.014304 0.982808 
0.001746 -0.014305 0.982912 
0.003408 -0.014307 0.983012 
0.005075 -0.014320 0.983946 
0.006742 -0.014329 0.984562 
0.008417 -0.014346 0.985716 
0.010094 -0.014361 0.986722 
0.011773 -0.014375 0.987709 
0.013447 -0.014379 0.987970 
0.015125 -0.014387 0.988522 
0.016806 -0.014395 0.989083 
0.018495 -0.014408 0.989992 
0.020191 -0.014424 0.991064 
0.021894 -0.014442 0.992335 
0.023606 -0.014464 0.993799 
0.025316 -0.014481 0.994951 
0.027026 -0.014495 0.995978 
0.028739 -0.014510 0.996991 
0.030469 -0.014531 0.998449 
0.032198 -0.014550 0.999746 
0.033959 -0.014581 1.001824 
0.035723 -0.014610 1.003817 
0.037507 -0.014643 1.006146 
0.039270 -0.014666 1.007719 
0.041039 -0.014690 1.009341 
0.042771 -0.014699 1.009956 
0.044488 -0.014702 1.010169 
0.046179 -0.014697 1.009801 
0.047867 -0.014691 1.009400 
0.049545 -0.014682 1.008823 
0.051228 -0.014676 1.008367 
0.052926 -0.014674 1.008242 
0.054630 -0.014674 1.008235 
0.056347 -0.014677 1.008457 
0.058078 -0.014684 1.008925 
0.059838 -0.014697 1.009841 
0.061611 -0.014713 1.010916 
0.063410 -0.014734 1.012345 
0.065222 -0.014757 1.013920 
0.067047 -0.014781 1.015597 
0.068885 -0.014807 1.017386 
0.070746 -0.014837 1.019416 
0.072632 -0.014870 1.021709 
0.074538 -0.014906 1.024158 
0.076452 -0.014941 1.026606 
0.078362 -0.014975 1.028905 
0.080270 -0.015006 1.031071 
0.082150 -0.015031 1.032789 
0.084017 -0.015053 1.034274 
0.085886 -0.015074 1.035738 
0.087606 -0.016824 1.035366 
0.087741 -0.015092 1.036965 
-0.059205 -0.013668 1.062891 
-0.057268 -0.013634 1.060286 
-0.055317 -0.013595 1.057261 
-0.053334 -0.013545 1.053391 
-0.051365 -0.013496 1.049548 
-0.049422 -0.013450 1.045976 
-0.047504 -0.013408 1.042694 
-0.045615 -0.013371 1.039820 
-0.043757 -0.013340 1.037454 
-0.041914 -0.013312 1.035238 
-0.040100 -0.013291 1.033602 
-0.038302 -0.013273 1.032226 
-0.036517 -0.013259 1.031105 
-0.034760 -0.013254 1.030698 
-0.033018 -0.013254 1.030701 
-0.031139 -0.013196 1.026192 
-0.029155 -0.014809 1.017509 
-0.029165 -0.013089 1.017870 
-0.027197 -0.014681 1.008705 
-0.027203 -0.012974 1.008924 
-0.025252 -0.014542 0.999186 
-0.025263 -0.012854 0.999640 
-0.023364 -0.012740 0.990782 
-0.021599 -0.012687 0.986676 
-0.019917 -0.012678 0.985974 
-0.018236 -0.012668 0.985172 
-0.016557 -0.012658 0.984391 
-0.014886 -0.012652 0.983929 
-0.013223 -0.012653 0.983990 
-0.011555 -0.012648 0.983602 
-0.009895 -0.012651 0.983819 
-0.008234 -0.012655 0.984121 
-0.006572 -0.012658 0.984355 
-0.004907 -0.012657 0.984300 
-0.003244 -0.012661 0.984615 
-0.001580 -0.012661 0.984603 
0.000085 -0.012659 0.984490 
0.001749 -0.012659 0.984483 
0.003414 -0.012661 0.984588 
0.005083 -0.012673 0.985548 
0.006754 -0.012682 0.986271 
0.008432 -0.012697 0.987437 
0.010111 -0.012711 0.988466 
0.011794 -0.012723 0.989472 
0.013471 -0.012727 0.989747 
0.015154 -0.012736 0.990417 
0.016838 -0.012743 0.990975 
0.018530 -0.012754 0.991858 
0.020228 -0.012767 0.992877 
0.021931 -0.012782 0.994011 
0.023644 -0.012799 0.995367 
0.025355 -0.012814 0.996508 
0.027071 -0.012829 0.997663 
0.028788 -0.012842 0.998708 
0.030524 -0.012862 1.000275 
0.032261 -0.012881 1.001695 
0.034029 -0.012909 1.003896 
0.035802 -0.012936 1.006030 
0.037595 -0.012968 1.008496 
0.039366 -0.012990 1.010204 
0.041136 -0.013010 1.011732 
0.042872 -0.013017 1.012325 
0.044583 -0.013017 1.012318 
0.046272 -0.013011 1.011829 
0.047958 -0.013004 1.011307 
0.049638 -0.012996 1.010700 
0.051311 -0.012988 1.010015 
0.053011 -0.012986 1.009867 
0.054711 -0.012984 1.009733 
0.056425 -0.012986 1.009867 
0.058160 -0.012992 1.010349 
0.059924 -0.013004 1.011287 
0.061694 -0.013017 1.012275 
0.063501 -0.013036 1.013805 
0.065315 -0.013056 1.015367 
0.067135 -0.013076 1.016925 
0.068975 -0.013099 1.018711 
0.070844 -0.013127 1.020825 
0.072726 -0.013155 1.023020 
0.074642 -0.013188 1.025583 
0.076567 -0.013221 1.028156 
0.078500 -0.013254 1.030710 
0.080414 -0.013282 1.032913 
0.082308 -0.013306 1.034775 
0.084170 -0.013324 1.036164 
0.086032 -0.013341 1.037499 
0.087870 -0.013354 1.038486 
-0.061247 -0.011913 1.067161 
-0.059321 -0.011889 1.064974 
-0.057382 -0.011860 1.062397 
-0.055418 -0.011825 1.059201 
-0.053425 -0.011780 1.055197 
-0.051452 -0.011737 1.051335 
-0.049506 -0.011697 1.047751 
-0.047585 -0.011660 1.044468 
-0.045692 -0.011628 1.041585 
-0.043841 -0.011604 1.039435 
-0.041999 -0.011581 1.037353 
-0.040184 -0.011563 1.035755 
-0.038385 -0.011549 1.034478 
-0.036605 -0.011539 1.033575 
-0.034844 -0.011534 1.033173 
-0.033098 -0.011534 1.033195 
-0.031167 -0.011467 1.027125 
-0.029186 -0.011371 1.018581 
-0.027215 -0.011268 1.009372 
-0.025275 -0.011165 1.000102 
-0.023376 -0.011066 0.991262 
-0.021644 -0.011038 0.988702 
-0.019956 -0.011028 0.987885 
-0.018271 -0.011020 0.987084 
-0.016589 -0.011011 0.986305 
-0.014916 -0.011007 0.985940 
-0.013251 -0.011008 0.986030 
-0.011580 -0.011005 0.985747 
-0.009915 -0.011006 0.985855 
-0.008250 -0.011008 0.986038 
-0.006585 -0.011011 0.986280 
-0.004917 -0.011010 0.986224 
-0.003250 -0.011012 0.986447 
-0.001583 -0.011012 0.986426 
0.000085 -0.011011 0.986287 
0.001752 -0.011009 0.986182 
0.003420 -0.011011 0.986287 
0.005092 -0.011022 0.987270 
0.006766 -0.011030 0.988012 
0.008447 -0.011044 0.989296 
0.010131 -0.011057 0.990425 
0.011819 -0.011069 0.991527 
0.013500 -0.011073 0.991898 
0.015187 -0.011081 0.992553 
0.016873 -0.011085 0.992994 
0.018564 -0.011093 0.993659 
0.020260 -0.011102 0.994457 
0.021964 -0.011113 0.995484 
0.023676 -0.011127 0.996728 
0.025390 -0.011140 0.997883 
0.027112 -0.011154 0.999159 
0.028838 -0.011168 1.000422 
0.030581 -0.011188 1.002133 
0.032332 -0.011207 1.003882 
0.034108 -0.011233 1.006222 
0.035890 -0.011259 1.008499 
0.037684 -0.011285 1.010884 
0.039454 -0.011303 1.012465 
0.041219 -0.011317 1.013758 
0.042952 -0.011322 1.014218 
0.044662 -0.011321 1.014107 
0.046348 -0.011314 1.013505 
0.048032 -0.011307 1.012880 
0.049709 -0.011299 1.012153 
0.051378 -0.011290 1.011336 
0.053074 -0.011287 1.011075 
0.054782 -0.011287 1.011051 
0.056505 -0.011290 1.011293 
0.058250 -0.011296 1.011896 
0.060024 -0.011308 1.012968 
0.061802 -0.011321 1.014048 
0.063606 -0.011336 1.015476 
0.065414 -0.011352 1.016902 
0.067236 -0.011370 1.018453 
0.069077 -0.011389 1.020226 
0.070951 -0.011413 1.022368 
0.072835 -0.011438 1.024561 
0.074754 -0.011467 1.027126 
0.076683 -0.011495 1.029708 
0.078621 -0.011524 1.032302 
0.080541 -0.011549 1.034555 
0.082441 -0.011571 1.036445 
0.084313 -0.011587 1.037929 
0.086169 -0.011601 1.039150 
-0.063244 -0.010135 1.070417 
-0.061339 -0.010120 1.068759 
-0.059421 -0.010101 1.066773 
-0.057489 -0.010078 1.064380 
-0.055527 -0.010049 1.061271 
-0.053536 -0.010012 1.057397 
-0.051571 -0.009978 1.053765 
-0.049625 -0.009945 1.050289 
-0.047705 -0.009915 1.047111 
-0.045802 -0.009886 1.044090 
-0.043946 -0.009866 1.041937 
-0.042104 -0.009847 1.039946 
-0.040285 -0.009832 1.038366 
-0.038484 -0.009820 1.037145 
-0.036696 -0.009811 1.036163 
-0.034928 -0.009806 1.035662 
-0.033122 -0.009790 1.033966 
-0.031138 -0.009716 1.026163 
-0.029149 -0.009632 1.017286 
-0.027176 -0.009543 1.007909 
-0.025243 -0.009457 0.998826 
-0.023384 -0.009389 0.991609 
-0.021685 -0.009380 0.990598 
-0.019994 -0.009372 0.989796 
-0.018308 -0.009365 0.989081 
-0.016621 -0.009357 0.988203 
-0.014944 -0.009353 0.987760 
-0.013274 -0.009353 0.987759 
-0.011601 -0.009350 0.987479 
-0.009933 -0.009351 0.987595 
-0.008264 -0.009353 0.987776 
-0.006596 -0.009355 0.987987 
-0.004925 -0.009354 0.987921 
-0.003256 -0.009356 0.988143 
-0.001585 -0.009356 0.988115 
0.000085 -0.009355 0.987987 
0.001755 -0.009355 0.987971 
0.003426 -0.009357 0.988196 
0.005102 -0.009366 0.989182 
0.006780 -0.009374 0.990038 
0.008465 -0.009386 0.991313 
0.010151 -0.009396 0.992347 
0.011840 -0.009405 0.993328 
0.013524 -0.009409 0.993676 
0.015213 -0.009414 0.994217 
0.016899 -0.009417 0.994554 
0.018593 -0.009423 0.995229 
0.020292 -0.009431 0.996035 
0.021999 -0.009441 0.997075 
0.023714 -0.009453 0.998343 
0.025437 -0.009466 0.999716 
0.027162 -0.009478 1.001008 
0.028897 -0.009492 1.002498 
0.030652 -0.009511 1.004448 
0.032414 -0.009530 1.006455 
0.034197 -0.009552 1.008837 
0.035987 -0.009575 1.011222 
0.037776 -0.009595 1.013366 
0.039542 -0.009608 1.014703 
0.041299 -0.009618 1.015733 
0.043026 -0.009620 1.015967 
0.044733 -0.009617 1.015730 
0.046423 -0.009612 1.015135 
0.048109 -0.009606 1.014504 
0.049789 -0.009599 1.013783 
0.051467 -0.009592 1.013084 
0.053166 -0.009590 1.012823 
0.054877 -0.009590 1.012802 
0.056610 -0.009593 1.013167 
0.058358 -0.009599 1.013783 
0.060135 -0.009609 1.014850 
0.061917 -0.009619 1.015932 
0.063723 -0.009633 1.017342 
0.065527 -0.009645 1.018658 
0.067345 -0.009659 1.020111 
0.069183 -0.009675 1.021780 
0.071052 -0.009694 1.023828 
0.072924 -0.009713 1.025816 
0.074837 -0.009736 1.028275 
0.076768 -0.009761 1.030855 
0.078717 -0.009786 1.033567 
0.080642 -0.009808 1.035841 
0.082552 -0.009827 1.037843 
0.084435 -0.009842 1.039431 
0.086292 -0.009853 1.040628 
-0.061416 -0.008318 1.070107 
-0.059511 -0.008305 1.068382 
-0.057587 -0.008288 1.066208 
-0.055631 -0.008265 1.063255 
-0.053655 -0.008238 1.059731 
-0.051693 -0.008211 1.056246 
-0.049754 -0.008185 1.053014 
-0.047834 -0.008162 1.049945 
-0.045926 -0.008138 1.046906 
-0.044063 -0.008121 1.044711 
-0.042221 -0.008106 1.042819 
-0.040396 -0.008094 1.041237 
-0.038596 -0.008085 1.040143 
-0.036806 -0.008079 1.039273 
-0.035044 -0.008077 1.039110 
-0.033175 -0.008050 1.035601 
-0.031173 -0.007986 1.027324 
-0.027193 -0.007840 1.008533 
-0.025248 -0.007766 0.999050 
-0.023424 -0.007721 0.993313 
-0.021723 -0.007714 0.992298 
-0.020026 -0.007706 0.991379 
-0.018337 -0.007701 0.990680 
-0.016650 -0.007695 0.989905 
-0.014971 -0.007692 0.989566 
-0.013297 -0.007691 0.989457 
-0.011621 -0.007689 0.989170 
-0.009949 -0.007690 0.989261 
-0.008278 -0.007691 0.989355 
-0.006607 -0.007692 0.989569 
-0.004934 -0.007693 0.989596 
-0.003261 -0.007694 0.989802 
-0.001588 -0.007694 0.989788 
0.000085 -0.007693 0.989674 
0.001758 -0.007693 0.989670 
0.003432 -0.007696 0.990003 
0.005112 -0.007704 0.991091 
0.006794 -0.007712 0.992049 
0.008482 -0.007721 0.993321 
0.010172 -0.007729 0.994346 
0.011862 -0.007735 0.995124 
0.013546 -0.007737 0.995259 
0.015233 -0.007739 0.995580 
0.016920 -0.007741 0.995811 
0.018616 -0.007746 0.996485 
0.020318 -0.007752 0.997312 
0.022030 -0.007762 0.998490 
0.023748 -0.007772 0.999770 
0.025477 -0.007783 1.001267 
0.027207 -0.007794 1.002661 
0.028952 -0.007808 1.004400 
0.030714 -0.007824 1.006490 
0.032492 -0.007842 1.008863 
0.034283 -0.007862 1.011380 
0.036074 -0.007880 1.013661 
0.037857 -0.007894 1.015534 
0.039615 -0.007902 1.016589 
0.041361 -0.007908 1.017258 
0.043081 -0.007908 1.017262 
0.044790 -0.007906 1.017018 
0.046482 -0.007901 1.016428 
0.048171 -0.007896 1.015811 
0.049858 -0.007891 1.015192 
0.051550 -0.007888 1.014717 
0.053254 -0.007886 1.014487 
0.054975 -0.007887 1.014607 
0.056716 -0.007891 1.015070 
0.058468 -0.007895 1.015691 
0.060242 -0.007903 1.016648 
0.062026 -0.007911 1.017722 
0.063835 -0.007922 1.019144 
0.065637 -0.007932 1.020365 
0.067458 -0.007943 1.021814 
0.069298 -0.007956 1.023489 
0.071164 -0.007971 1.025435 
0.073031 -0.007986 1.027314 
0.074945 -0.008005 1.029751 
0.076876 -0.008025 1.032305 
0.078819 -0.008045 1.034904 
0.080745 -0.008062 1.037175 
0.082658 -0.008078 1.039170 
0.084543 -0.008090 1.040751 
0.086384 -0.008098 1.041734 
-0.061507 -0.006514 1.071686 
-0.059596 -0.006503 1.069908 
-0.057677 -0.006491 1.067866 
-0.055725 -0.006474 1.065057 
-0.053755 -0.006453 1.061711 
-0.051808 -0.006435 1.058614 
-0.049884 -0.006417 1.055765 
-0.047975 -0.006401 1.053030 
-0.046066 -0.006383 1.050108 
-0.044203 -0.006370 1.048007 
-0.042358 -0.006359 1.046215 
-0.040531 -0.006350 1.044717 
-0.038732 -0.006345 1.043831 
-0.036949 -0.006341 1.043294 
-0.035184 -0.006341 1.043256 
-0.033240 -0.006307 1.037621 
-0.029173 -0.007914 1.018134 
-0.029183 -0.006190 1.018470 
-0.027192 -0.006130 1.008504 
-0.025244 -0.006072 0.998892 
-0.023462 -0.006047 0.994908 
-0.021760 -0.006042 0.994017 
-0.020061 -0.006036 0.993093 
-0.018371 -0.006033 0.992490 
-0.016680 -0.006028 0.991707 
-0.014997 -0.006025 0.991264 
-0.013318 -0.006024 0.991020 
-0.011640 -0.006022 0.990793 
-0.009964 -0.006022 0.990683 
-0.008289 -0.006022 0.990692 
-0.006615 -0.006023 0.990910 
-0.004940 -0.006023 0.990938 
-0.003266 -0.006024 0.991049 
-0.001590 -0.006024 0.991046 
0.000085 -0.006024 0.991140 
0.001761 -0.006025 0.991260 
0.003439 -0.006028 0.991809 
0.005121 -0.006035 0.992932 
0.006808 -0.006042 0.994097 
0.008498 -0.006050 0.995278 
0.010191 -0.006056 0.996296 
0.011884 -0.006060 0.996956 
0.013571 -0.006060 0.997077 
0.015259 -0.006062 0.997287 
0.016949 -0.006063 0.997508 
0.018648 -0.006067 0.998184 
0.020353 -0.006072 0.999022 
0.022070 -0.006080 1.000315 
0.023792 -0.006088 1.001611 
0.025526 -0.006098 1.003227 
0.027266 -0.006108 1.004840 
0.029022 -0.006120 1.006827 
0.030793 -0.006133 1.009070 
0.032580 -0.006149 1.011595 
0.034372 -0.006163 1.013999 
0.036158 -0.006176 1.016034 
0.037933 -0.006185 1.017560 
0.039684 -0.006190 1.018368 
0.041424 -0.006193 1.018810 
0.043141 -0.006192 1.018692 
0.044848 -0.006190 1.018339 
0.046542 -0.006186 1.017729 
0.048233 -0.006182 1.017113 
0.049928 -0.006179 1.016624 
0.051630 -0.006177 1.016289 
0.053343 -0.006177 1.016187 
0.055079 -0.006179 1.016529 
0.056824 -0.006182 1.017004 
0.058585 -0.006186 1.017723 
0.060363 -0.006192 1.018688 
0.062151 -0.006198 1.019770 
0.063957 -0.006206 1.021085 
0.065762 -0.006214 1.022316 
0.067572 -0.006221 1.023553 
0.069415 -0.006232 1.025216 
0.071281 -0.006243 1.027130 
0.073143 -0.006254 1.028890 
0.075051 -0.006268 1.031206 
0.076983 -0.006283 1.033741 
0.078910 -0.006298 1.036103 
0.080830 -0.006311 1.038258 
0.082735 -0.006322 1.040140 
0.084622 -0.006332 1.041723 
0.086465 -0.006338 1.042719 
-0.061534 -0.004699 1.072167 
-0.059626 -0.004692 1.070442 
-0.057731 -0.004685 1.068861 
-0.055799 -0.004674 1.066465 
-0.053846 -0.004661 1.063501 
-0.051916 -0.004650 1.060814 
-0.050011 -0.004639 1.058455 
-0.048109 -0.004628 1.055980 
-0.046212 -0.004617 1.053426 
-0.044348 -0.004609 1.051461 
-0.042503 -0.004601 1.049784 
-0.040661 -0.004594 1.048059 
-0.038855 -0.004590 1.047145 
-0.037066 -0.004587 1.046598 
-0.035293 -0.004587 1.046481 
-0.033281 -0.004554 1.038908 
-0.027194 -0.004421 1.008593 
-0.025245 -0.004378 0.998906 
-0.023503 -0.004368 0.996644 
-0.021802 -0.004365 0.995943 
-0.020102 -0.004362 0.995114 
-0.018409 -0.004359 0.994523 
-0.016714 -0.004356 0.993755 
-0.015027 -0.004354 0.993293 
-0.013342 -0.004352 0.992819 
-0.011659 -0.004350 0.992445 
-0.009979 -0.004349 0.992220 
-0.008302 -0.004349 0.992235 
-0.006625 -0.004350 0.992378 
-0.004948 -0.004350 0.992504 
-0.003271 -0.004351 0.992616 
-0.001593 -0.004351 0.992717 
0.000085 -0.004352 0.992936 
0.001765 -0.004354 0.993278 
0.003446 -0.004357 0.993958 
0.005133 -0.004362 0.995201 
0.006824 -0.004367 0.996404 
0.008518 -0.004373 0.997598 
0.010215 -0.004377 0.998621 
0.011911 -0.004380 0.999268 
0.013602 -0.004380 0.999377 
0.015293 -0.004381 0.999478 
0.016985 -0.004381 0.999587 
0.018685 -0.004384 1.000145 
0.020390 -0.004387 1.000859 
0.022108 -0.004392 1.002046 
0.023833 -0.004398 1.003343 
0.025576 -0.004406 1.005173 
0.027323 -0.004413 1.006933 
0.029090 -0.004423 1.009170 
0.030869 -0.004434 1.011559 
0.032663 -0.004445 1.014173 
0.034451 -0.004455 1.016357 
0.036237 -0.004463 1.018262 
0.038007 -0.004469 1.019558 
0.039758 -0.004472 1.020259 
0.041497 -0.004473 1.020603 
0.043213 -0.004472 1.020374 
0.044921 -0.004471 1.020006 
0.046618 -0.004468 1.019397 
0.048312 -0.004465 1.018782 
0.050011 -0.004463 1.018296 
0.051726 -0.004463 1.018183 
0.053444 -0.004462 1.018111 
0.055184 -0.004464 1.018464 
0.056938 -0.004467 1.019043 
0.058709 -0.004470 1.019876 
0.060491 -0.004474 1.020852 
0.062291 -0.004480 1.022067 
0.064101 -0.004486 1.023382 
0.065910 -0.004491 1.024603 
0.067714 -0.004496 1.025702 
0.069553 -0.004503 1.027247 
0.071407 -0.004510 1.028944 
0.073263 -0.004517 1.030576 
0.075156 -0.004526 1.032655 
0.077084 -0.004537 1.035092 
0.078996 -0.004546 1.037231 
0.080908 -0.004555 1.039267 
0.082804 -0.004563 1.041015 
0.084684 -0.004569 1.042493 
0.086548 -0.004575 1.043716 
-0.061519 -0.002881 1.071893 
-0.059627 -0.002877 1.070463 
-0.057744 -0.002874 1.069112 
-0.055840 -0.002869 1.067252 
-0.053917 -0.002862 1.064905 
-0.052009 -0.002857 1.062715 
-0.050120 -0.002851 1.060749 
-0.048232 -0.002846 1.058686 
-0.046342 -0.002840 1.056396 
-0.044480 -0.002835 1.054590 
-0.042630 -0.002830 1.052920 
-0.040778 -0.002825 1.051062 
-0.038958 -0.002822 1.049897 
-0.037156 -0.002820 1.049133 
-0.035320 -0.002815 1.047296 
-0.033251 -0.002790 1.037967 
-0.031236 -0.004512 1.029406 
-0.031199 -0.002764 1.028199 
-0.029158 -0.002735 1.017610 
-0.027168 -0.002708 1.007618 
-0.025260 -0.002687 0.999499 
-0.023554 -0.002685 0.998822 
-0.021850 -0.002683 0.998110 
-0.020146 -0.002681 0.997291 
-0.018449 -0.002679 0.996713 
-0.016751 -0.002677 0.995955 
-0.015059 -0.002676 0.995380 
-0.013368 -0.002674 0.994774 
-0.011681 -0.002673 0.994289 
-0.009996 -0.002672 0.993954 
-0.008316 -0.002672 0.993965 
-0.006636 -0.002672 0.993990 
-0.004956 -0.002672 0.994001 
-0.003276 -0.002672 0.994098 
-0.001595 -0.002672 0.994207 
0.000086 -0.002673 0.994554 
0.001768 -0.002675 0.995129 
0.003453 -0.002677 0.996050 
0.005145 -0.002681 0.997520 
0.006841 -0.002685 0.998946 
0.008539 -0.002688 1.000058 
0.010239 -0.002691 1.000982 
0.011939 -0.002692 1.001612 
0.013632 -0.002692 1.001612 
0.015326 -0.002692 1.001623 
0.017023 -0.002693 1.001836 
0.018726 -0.002694 1.002375 
0.020433 -0.002696 1.002961 
0.022152 -0.002699 1.004015 
0.023880 -0.002702 1.005300 
0.025626 -0.002707 1.007155 
0.027384 -0.002713 1.009169 
0.029158 -0.002719 1.011549 
0.030942 -0.002725 1.013960 
0.032733 -0.002732 1.016335 
0.034520 -0.002737 1.018364 
0.036300 -0.002742 1.020031 
0.038070 -0.002745 1.021243 
0.039825 -0.002747 1.021969 
0.041571 -0.002748 1.022428 
0.043286 -0.002747 1.022097 
0.044992 -0.002746 1.021606 
0.046690 -0.002744 1.020970 
0.048387 -0.002743 1.020352 
0.050094 -0.002742 1.019994 
0.051824 -0.002742 1.020110 
0.053556 -0.002742 1.020247 
0.055300 -0.002743 1.020607 
0.057064 -0.002745 1.021291 
0.058840 -0.002747 1.022150 
0.060627 -0.002750 1.023154 
0.062432 -0.002753 1.024390 
0.064246 -0.002757 1.025698 
0.066050 -0.002760 1.026784 
0.067843 -0.002762 1.027653 
0.069669 -0.002766 1.028961 
0.071510 -0.002770 1.030420 
0.073360 -0.002774 1.031941 
0.075248 -0.002779 1.033921 
0.077178 -0.002786 1.036356 
0.079084 -0.002791 1.038382 
0.080997 -0.002797 1.040407 
0.082894 -0.002801 1.042139 
0.084784 -0.002805 1.043720 
0.086662 -0.002809 1.045087 
-0.059634 -0.001063 1.070593 
-0.057758 -0.001062 1.069356 
-0.055874 -0.001060 1.067911 
-0.053976 -0.001058 1.066069 
-0.052079 -0.001056 1.064136 
-0.050200 -0.001055 1.062454 
-0.048332 -0.001053 1.060881 
-0.046456 -0.001051 1.058984 
-0.044600 -0.001050 1.057427 
-0.042754 -0.001048 1.055993 
-0.040896 -0.001047 1.054113 
-0.039065 -0.001045 1.052798 
-0.037206 -0.001043 1.050565 
-0.035304 -0.001039 1.046827 
-0.033224 -0.001030 1.037125 
-0.031172 -0.001020 1.027281 
-0.029137 -0.001010 1.016886 
-0.027188 -0.001001 1.008361 
-0.025316 -0.000995 1.001746 
-0.023604 -0.000994 1.000940 
-0.021893 -0.000993 1.000094 
-0.020186 -0.000992 0.999283 
-0.018488 -0.000992 0.998821 
-0.016789 -0.000991 0.998183 
-0.015094 -0.000991 0.997716 
-0.013401 -0.000990 0.997204 
-0.011709 -0.000990 0.996714 
-0.010020 -0.000989 0.996271 
-0.008335 -0.000989 0.996177 
-0.006650 -0.000989 0.996069 
-0.004965 -0.000989 0.995942 
-0.003282 -0.000989 0.996017 
-0.001598 -0.000989 0.996137 
0.000086 -0.000989 0.996616 
0.001772 -0.000990 0.997235 
0.003461 -0.000991 0.998257 
0.005156 -0.000993 0.999733 
0.006856 -0.000994 1.001170 
0.008558 -0.000995 1.002290 
0.010263 -0.000996 1.003312 
0.011967 -0.000997 1.003945 
0.013664 -0.000997 1.003945 
0.015362 -0.000997 1.003964 
0.017063 -0.000997 1.004191 
0.018769 -0.000997 1.004628 
0.020476 -0.000998 1.005091 
0.022196 -0.000999 1.006006 
0.023927 -0.001000 1.007295 
0.025677 -0.001002 1.009166 
0.027442 -0.001004 1.011331 
0.029222 -0.001006 1.013742 
0.031008 -0.001009 1.016128 
0.032798 -0.001011 1.018376 
0.034584 -0.001013 1.020268 
0.036365 -0.001014 1.021837 
0.038137 -0.001016 1.023049 
0.039896 -0.001016 1.023796 
0.041646 -0.001017 1.024268 
0.043363 -0.001017 1.023930 
0.045072 -0.001016 1.023425 
0.046773 -0.001015 1.022779 
0.048472 -0.001015 1.022159 
0.050188 -0.001015 1.021914 
0.051928 -0.001015 1.022158 
0.053670 -0.001015 1.022424 
0.055424 -0.001016 1.022896 
0.057192 -0.001016 1.023587 
0.058971 -0.001017 1.024434 
0.060764 -0.001018 1.025460 
0.062567 -0.001019 1.026600 
0.064371 -0.001020 1.027697 
0.066176 -0.001021 1.028753 
0.067964 -0.001022 1.029482 
0.069785 -0.001023 1.030681 
0.071622 -0.001025 1.032037 
0.073482 -0.001026 1.033654 
0.075364 -0.001028 1.035511 
0.077289 -0.001030 1.037846 
0.079189 -0.001032 1.039763 
0.081104 -0.001034 1.041775 
0.083002 -0.001036 1.043507 
0.084914 -0.001038 1.045323 
0.086817 -0.001039 1.046963 
-0.058100 0.000756 1.075699 
-0.055890 0.000750 1.068213 
-0.054010 0.000749 1.066755 
-0.052136 0.000748 1.065315 
-0.050274 0.000747 1.064008 
-0.048427 0.000747 1.062951 
-0.046573 0.000746 1.061660 
-0.044733 0.000745 1.060578 
-0.042892 0.000744 1.059388 
-0.041041 0.000743 1.057841 
-0.039211 0.000742 1.056733 
-0.037278 0.000739 1.052598 
-0.035288 0.000735 1.046340 
-0.033190 0.000728 1.036078 
-0.029099 0.000713 1.015567 
-0.027204 0.000709 1.008936 
-0.025379 0.000705 1.004212 
-0.023659 0.000705 1.003262 
-0.021941 0.000704 1.002290 
-0.020230 0.000703 1.001469 
-0.018529 0.000703 1.001020 
-0.016826 0.000703 1.000393 
-0.015128 0.000702 0.999930 
-0.013431 0.000702 0.999424 
-0.011735 0.000702 0.998942 
-0.010041 0.000701 0.998404 
-0.008352 0.000701 0.998294 
-0.006663 0.000701 0.998059 
-0.004975 0.000701 0.997803 
-0.003288 0.000701 0.997759 
-0.001601 0.000701 0.997881 
0.000086 0.000701 0.998480 
0.001775 0.000702 0.999206 
0.003468 0.000703 1.000244 
0.005167 0.000704 1.001817 
0.006871 0.000705 1.003344 
0.008577 0.000705 1.004480 
0.010285 0.000706 1.005408 
0.011992 0.000707 1.006024 
0.013692 0.000707 1.006013 
0.015394 0.000707 1.006045 
0.017099 0.000707 1.006299 
0.018808 0.000707 1.006753 
0.020522 0.000707 1.007314 
0.022242 0.000708 1.008120 
0.023977 0.000709 1.009403 
0.025732 0.000710 1.011298 
0.027503 0.000712 1.013579 
0.029286 0.000714 1.015994 
0.031077 0.000715 1.018385 
0.032867 0.000717 1.020509 
0.034653 0.000718 1.022300 
0.036433 0.000719 1.023757 
0.038205 0.000720 1.024873 
0.039967 0.000720 1.025608 
0.041720 0.000721 1.026077 
0.043440 0.000720 1.025736 
0.045151 0.000720 1.025230 
0.046860 0.000720 1.024690 
0.048568 0.000719 1.024184 
0.050289 0.000719 1.023962 
0.052033 0.000719 1.024226 
0.053786 0.000720 1.024622 
0.055544 0.000720 1.025108 
0.057316 0.000720 1.025813 
0.059105 0.000721 1.026760 
0.060907 0.000722 1.027881 
0.062707 0.000723 1.028898 
0.064508 0.000723 1.029886 
0.066317 0.000724 1.030931 
0.068100 0.000725 1.031548 
0.069918 0.000725 1.032634 
0.071757 0.000726 1.033983 
0.073612 0.000727 1.035491 
0.075482 0.000728 1.037126 
0.077399 0.000730 1.039324 
0.079293 0.000731 1.041120 
0.081201 0.000733 1.043028 
0.083103 0.000734 1.044775 
0.085039 0.000735 1.046864 
0.086969 0.000737 1.048787 
-0.055929 0.002563 1.068967 
-0.054062 0.002560 1.067775 
-0.052194 0.002557 1.066482 
-0.050341 0.002554 1.065434 
-0.048498 0.002552 1.064524 
-0.046654 0.002550 1.063503 
-0.044823 0.002548 1.062708 
-0.042993 0.002546 1.061904 
-0.041149 0.002543 1.060639 
-0.039255 0.002536 1.057919 
-0.037242 0.002521 1.051586 
-0.035174 0.002501 1.042974 
-0.031008 0.002450 1.021888 
-0.029047 0.002430 1.013731 
-0.027211 0.002420 1.009205 
-0.025430 0.002412 1.006231 
-0.023703 0.002410 1.005132 
-0.021979 0.002407 1.004038 
-0.020263 0.002405 1.003093 
-0.018559 0.002404 1.002649 
-0.016857 0.002403 1.002228 
-0.015156 0.002402 1.001788 
-0.013456 0.002401 1.001289 
-0.011758 0.002400 1.000909 
-0.010061 0.002398 1.000369 
-0.008368 0.002398 1.000156 
-0.006676 0.002397 0.999915 
-0.004984 0.002397 0.999640 
-0.003294 0.002397 0.999607 
-0.001604 0.002397 0.999834 
0.000086 0.002399 1.000443 
0.001779 0.002400 1.001161 
0.003474 0.002402 1.002070 
0.005176 0.002406 1.003527 
0.006882 0.002409 1.004966 
0.008591 0.002412 1.006105 
0.010301 0.002414 1.007044 
0.012014 0.002416 1.007877 
0.013719 0.002417 1.007971 
0.015425 0.002417 1.008106 
0.017136 0.002418 1.008476 
0.018849 0.002419 1.008947 
0.020565 0.002420 1.009423 
0.022284 0.002422 1.010018 
0.024019 0.002424 1.011188 
0.025774 0.002429 1.012973 
0.027546 0.002434 1.015150 
0.029332 0.002440 1.017567 
0.031128 0.002446 1.020061 
0.032922 0.002451 1.022212 
0.034708 0.002455 1.023922 
0.036490 0.002458 1.025370 
0.038261 0.002461 1.026358 
0.040019 0.002462 1.026962 
0.041770 0.002463 1.027312 
0.043497 0.002462 1.027077 
0.045216 0.002462 1.026699 
0.046933 0.002461 1.026292 
0.048650 0.002460 1.025914 
0.050385 0.002460 1.025915 
0.052138 0.002461 1.026295 
0.053901 0.002462 1.026820 
0.055664 0.002463 1.027329 
0.057446 0.002465 1.028141 
0.059239 0.002467 1.029086 
0.061045 0.002470 1.030195 
0.062848 0.002472 1.031218 
0.064652 0.002475 1.032187 
0.066464 0.002477 1.033229 
0.068252 0.002479 1.033849 
0.070068 0.002481 1.034851 
0.071896 0.002484 1.035989 
0.073745 0.002487 1.037362 
0.075599 0.002490 1.038733 
0.077501 0.002495 1.040697 
0.079387 0.002499 1.042363 
0.081298 0.002504 1.044275 
0.083205 0.002508 1.046051 
0.085146 0.002513 1.048174 
0.087568 0.002532 1.056022 
-0.054351 0.004393 1.073482 
-0.052232 0.004368 1.067268 
-0.050385 0.004364 1.066365 
-0.048558 0.004362 1.065832 
-0.046719 0.004359 1.064974 
-0.044897 0.004356 1.064462 
-0.043076 0.004354 1.063953 
-0.041240 0.004350 1.062968 
-0.039271 0.004331 1.058347 
-0.037177 0.004296 1.049724 
-0.032902 0.004204 1.027088 
-0.030897 0.004167 1.018214 
-0.028997 0.004142 1.012005 
-0.027215 0.004131 1.009339 
-0.025476 0.004126 1.008072 
-0.023743 0.004121 1.006860 
-0.022015 0.004116 1.005645 
-0.020293 0.004111 1.004589 
-0.018585 0.004109 1.004029 
-0.016882 0.004108 1.003706 
-0.015178 0.004106 1.003267 
-0.013478 0.004105 1.002984 
-0.011781 0.004104 1.002823 
-0.010081 0.004102 1.002388 
-0.008384 0.004101 1.002070 
-0.006688 0.004100 1.001829 
-0.004993 0.004099 1.001467 
-0.003299 0.004098 1.001341 
-0.001607 0.004099 1.001476 
0.000086 0.004101 1.001961 
0.001781 0.004104 1.002658 
0.003479 0.004107 1.003463 
0.005183 0.004113 1.004920 
0.006892 0.004119 1.006455 
0.008605 0.004124 1.007725 
0.010319 0.004129 1.008793 
0.012037 0.004133 1.009857 
0.013747 0.004134 1.010065 
0.015459 0.004135 1.010322 
0.017175 0.004137 1.010808 
0.018893 0.004139 1.011279 
0.020610 0.004140 1.011641 
0.022330 0.004142 1.012114 
0.024064 0.004146 1.013060 
0.025813 0.004152 1.014491 
0.027584 0.004160 1.016540 
0.029372 0.004170 1.018965 
0.031172 0.004181 1.021509 
0.032970 0.004190 1.023701 
0.034762 0.004197 1.025505 
0.036539 0.004202 1.026730 
0.038306 0.004205 1.027566 
0.040057 0.004207 1.027938 
0.041809 0.004208 1.028273 
0.043538 0.004207 1.028054 
0.045265 0.004206 1.027806 
0.046991 0.004205 1.027548 
0.048721 0.004205 1.027412 
0.050465 0.004205 1.027541 
0.052227 0.004207 1.028031 
0.053997 0.004210 1.028650 
0.055769 0.004212 1.029268 
0.057562 0.004216 1.030215 
0.059360 0.004220 1.031191 
0.061170 0.004225 1.032313 
0.062977 0.004229 1.033332 
0.064784 0.004233 1.034294 
0.066594 0.004237 1.035243 
0.068386 0.004239 1.035873 
0.070198 0.004243 1.036773 
0.072028 0.004248 1.037890 
0.073863 0.004252 1.039020 
0.075701 0.004257 1.040136 
0.077586 0.004264 1.041838 
0.079464 0.004270 1.043375 
0.081377 0.004278 1.045286 
0.083295 0.004286 1.047183 
0.085258 0.004295 1.049553 
-0.052510 0.006210 1.072959 
-0.050422 0.006176 1.067151 
-0.048594 0.006173 1.066618 
-0.046763 0.006170 1.065990 
-0.044946 0.006168 1.065630 
-0.043139 0.006167 1.065506 
-0.041322 0.006165 1.065106 
-0.039298 0.006130 1.059064 
-0.032847 0.005935 1.025352 
-0.030845 0.005883 1.016529 
-0.028997 0.005857 1.011996 
-0.027252 0.005850 1.010737 
-0.025511 0.005843 1.009461 
-0.023779 0.005836 1.008358 
-0.022048 0.005829 1.007144 
-0.020321 0.005822 1.005982 
-0.018610 0.005819 1.005390 
-0.016905 0.005817 1.005060 
-0.015199 0.005815 1.004623 
-0.013499 0.005814 1.004479 
-0.011800 0.005813 1.004433 
-0.010099 0.005812 1.004112 
-0.008398 0.005810 1.003802 
-0.006700 0.005808 1.003552 
-0.005002 0.005807 1.003292 
-0.003305 0.005806 1.003170 
-0.001610 0.005806 1.003207 
0.000086 0.005808 1.003474 
0.001784 0.005811 1.004040 
0.003483 0.005815 1.004611 
0.005189 0.005822 1.005977 
0.006900 0.005831 1.007530 
0.008617 0.005841 1.009126 
0.010336 0.005848 1.010437 
0.012059 0.005855 1.011662 
0.013774 0.005857 1.012020 
0.015491 0.005860 1.012400 
0.017208 0.005862 1.012768 
0.018927 0.005864 1.013120 
0.020647 0.005866 1.013460 
0.022370 0.005868 1.013908 
0.024103 0.005873 1.014705 
0.025854 0.005881 1.016099 
0.027624 0.005892 1.018030 
0.029415 0.005906 1.020463 
0.031216 0.005921 1.022930 
0.033016 0.005933 1.025137 
0.034807 0.005943 1.026838 
0.036585 0.005950 1.028022 
0.038349 0.005954 1.028733 
0.040102 0.005956 1.029094 
0.041856 0.005958 1.029434 
0.043592 0.005958 1.029332 
0.045327 0.005957 1.029210 
0.047061 0.005956 1.029084 
0.048801 0.005956 1.029085 
0.050553 0.005958 1.029334 
0.052318 0.005960 1.029832 
0.054092 0.005964 1.030461 
0.055873 0.005968 1.031187 
0.057670 0.005974 1.032147 
0.059479 0.005980 1.033260 
0.061295 0.005987 1.034421 
0.063106 0.005993 1.035452 
0.064911 0.005998 1.036313 
0.066730 0.006004 1.037362 
0.068527 0.006008 1.038007 
0.070342 0.006013 1.038906 
0.072168 0.006019 1.039900 
0.074002 0.006025 1.040975 
0.075825 0.006030 1.041846 
0.077696 0.006039 1.043312 
0.079576 0.006047 1.044839 
0.081500 0.006059 1.046863 
0.083413 0.006069 1.048667 
0.085801 0.006113 1.056245 
-0.048818 0.008018 1.071545 
-0.046785 0.007980 1.066478 
-0.044976 0.007979 1.066336 
-0.043173 0.007979 1.066340 
-0.041370 0.007979 1.066337 
-0.039276 0.007921 1.058492 
-0.032791 0.007660 1.023625 
-0.030844 0.007606 1.016483 
-0.029041 0.007584 1.013517 
-0.027295 0.007575 1.012340 
-0.025552 0.007566 1.011070 
-0.023817 0.007558 1.009992 
-0.022084 0.007549 1.008794 
-0.020357 0.007541 1.007729 
-0.018640 0.007535 1.007008 
-0.016931 0.007533 1.006661 
-0.015223 0.007530 1.006228 
-0.013521 0.007529 1.006123 
-0.011820 0.007529 1.006106 
-0.010117 0.007527 1.005910 
-0.008414 0.007526 1.005691 
-0.006712 0.007524 1.005437 
-0.005012 0.007522 1.005275 
-0.003312 0.007521 1.005150 
-0.001613 0.007522 1.005171 
0.000086 0.007523 1.005300 
0.001787 0.007527 1.005845 
0.003489 0.007529 1.006200 
0.005197 0.007540 1.007574 
0.006911 0.007551 1.009138 
0.008631 0.007563 1.010761 
0.010354 0.007574 1.012214 
0.012082 0.007585 1.013584 
0.013802 0.007588 1.014082 
0.015524 0.007592 1.014570 
0.017245 0.007595 1.014932 
0.018965 0.007596 1.015165 
0.020688 0.007599 1.015480 
0.022410 0.007600 1.015707 
0.024140 0.007605 1.016274 
0.025894 0.007615 1.017655 
0.027666 0.007629 1.019571 
0.029457 0.007647 1.021914 
0.031257 0.007665 1.024278 
0.033059 0.007681 1.026457 
0.034843 0.007692 1.027907 
0.036615 0.007699 1.028862 
0.038377 0.007703 1.029468 
0.040131 0.007706 1.029829 
0.041887 0.007709 1.030193 
0.043633 0.007710 1.030308 
0.045376 0.007710 1.030322 
0.047122 0.007711 1.030413 
0.048874 0.007712 1.030639 
0.050630 0.007714 1.030911 
0.052393 0.007717 1.031315 
0.054175 0.007723 1.032035 
0.055959 0.007728 1.032768 
0.057766 0.007736 1.033861 
0.059587 0.007746 1.035122 
0.061412 0.007755 1.036403 
0.063227 0.007763 1.037425 
0.065041 0.007770 1.038388 
0.066858 0.007777 1.039340 
0.068658 0.007782 1.040002 
0.070468 0.007788 1.040770 
0.072295 0.007795 1.041739 
0.074125 0.007802 1.042701 
0.075960 0.007810 1.043699 
0.077835 0.007821 1.045183 
0.079744 0.007835 1.047052 
0.081674 0.007850 1.049102 
0.083583 0.007863 1.050800 
-0.047167 0.009868 1.075196 
-0.045143 0.009823 1.070307 
-0.043162 0.009785 1.066075 
-0.041364 0.009785 1.066176 
-0.039192 0.009694 1.056228 
-0.032692 0.009367 1.020543 
-0.030821 0.009322 1.015712 
-0.029072 0.009312 1.014619 
-0.027326 0.009302 1.013458 
-0.025586 0.009292 1.012407 
-0.023851 0.009283 1.011440 
-0.022118 0.009273 1.010372 
-0.020391 0.009265 1.009425 
-0.018671 0.009258 1.008702 
-0.016961 0.009256 1.008438 
-0.015252 0.009253 1.008118 
-0.013548 0.009253 1.008128 
-0.011845 0.009254 1.008242 
-0.010140 0.009254 1.008250 
-0.008434 0.009252 1.008039 
-0.006728 0.009250 1.007790 
-0.005024 0.009248 1.007632 
-0.003320 0.009247 1.007496 
-0.001616 0.009246 1.007412 
0.000087 0.009245 1.007311 
0.001790 0.009249 1.007715 
0.003495 0.009251 1.007942 
0.005205 0.009262 1.009111 
0.006921 0.009276 1.010681 
0.008645 0.009292 1.012413 
0.010372 0.009306 1.013989 
0.012105 0.009320 1.015490 
0.013830 0.009326 1.016094 
0.015556 0.009331 1.016678 
0.017283 0.009335 1.017140 
0.019007 0.009338 1.017375 
0.020731 0.009340 1.017604 
0.022457 0.009342 1.017828 
0.024188 0.009346 1.018288 
0.025943 0.009358 1.019590 
0.027713 0.009374 1.021310 
0.029501 0.009393 1.023439 
0.031298 0.009413 1.025629 
0.033094 0.009431 1.027551 
0.034875 0.009443 1.028865 
0.036649 0.009452 1.029830 
0.038418 0.009459 1.030568 
0.040175 0.009462 1.030951 
0.041941 0.009467 1.031530 
0.043696 0.009470 1.031784 
0.045441 0.009470 1.031810 
0.047196 0.009472 1.032030 
0.048961 0.009476 1.032474 
0.050720 0.009479 1.032742 
0.052487 0.009482 1.033149 
0.054278 0.009490 1.033993 
0.056065 0.009497 1.034727 
0.057870 0.009506 1.035720 
0.059694 0.009518 1.036985 
0.061522 0.009529 1.038255 
0.063339 0.009539 1.039275 
0.065157 0.009547 1.040235 
0.066976 0.009556 1.041187 
0.068780 0.009562 1.041844 
0.070586 0.009568 1.042512 
0.072416 0.009577 1.043480 
0.074258 0.009587 1.044569 
0.076099 0.009597 1.045602 
0.077998 0.009613 1.047367 
0.079941 0.009634 1.049639 
0.081869 0.009652 1.051611 
0.083755 0.009664 1.052971 
-0.031044 0.011124 1.023068 
-0.029106 0.011045 1.015787 
-0.027363 0.011035 1.014845 
-0.025630 0.011027 1.014163 
-0.023893 0.011017 1.013215 
-0.022157 0.011006 1.012166 
-0.020429 0.010996 1.011327 
-0.018707 0.010989 1.010620 
-0.016992 0.010985 1.010254 
-0.015282 0.010984 1.010145 
-0.013576 0.010985 1.010267 
-0.011870 0.010986 1.010390 
-0.010163 0.010987 1.010503 
-0.008454 0.010986 1.010391 
-0.006743 0.010982 1.010048 
-0.005035 0.010981 1.009909 
-0.003327 0.010980 1.009782 
-0.001620 0.010977 1.009582 
0.000087 0.010975 1.009361 
0.001794 0.010978 1.009654 
0.003501 0.010979 1.009765 
0.005214 0.010992 1.010908 
0.006934 0.011009 1.012472 
0.008661 0.011029 1.014305 
0.010393 0.011047 1.015991 
0.012128 0.011063 1.017488 
0.013857 0.011070 1.018094 
0.015588 0.011077 1.018764 
0.017319 0.011083 1.019247 
0.019047 0.011085 1.019515 
0.020778 0.011089 1.019875 
0.022509 0.011093 1.020210 
0.024245 0.011098 1.020678 
