1619
0.006822 -0.207014 0.996213 
0.008506 -0.206991 0.996104 
0.010199 -0.207177 0.996998 
0.011889 -0.207265 0.997419 
0.013577 -0.207285 0.997517 
0.015266 -0.207327 0.997720 
0.016957 -0.207375 0.997950 
0.018646 -0.207403 0.998087 
0.020339 -0.207454 0.998328 
0.022031 -0.207501 0.998559 
0.023715 -0.207465 0.998381 
0.025395 -0.207397 0.998058 
0.027072 -0.207320 0.997687 
0.028741 -0.207196 0.997090 
0.030452 -0.207368 0.997916 
0.032164 -0.207525 0.998673 
0.033873 -0.207652 0.999281 
0.035578 -0.207744 0.999726 
0.037268 -0.207744 0.999726 
0.038929 -0.207587 0.998969 
0.040590 -0.207445 0.998288 
0.042259 -0.207354 0.997851 
0.043926 -0.207262 0.997404 
0.045605 -0.207227 0.997238 
0.047265 -0.207116 0.996705 
0.048937 -0.207060 0.996433 
0.050619 -0.207051 0.996390 
0.069263 -0.219796 1.049165 
0.067535 -0.219944 1.049872 
0.067569 -0.218273 1.050397 
0.069283 -0.218081 1.049470 
0.070974 -0.219602 1.048239 
0.070987 -0.217863 1.048421 
0.072715 -0.217730 1.047782 
0.074422 -0.219318 1.046884 
0.074441 -0.217599 1.047152 
-0.076413 -0.207256 1.005582 
-0.074693 -0.207202 1.005320 
-0.072977 -0.207154 1.005086 
-0.071252 -0.207081 1.004730 
-0.069547 -0.207060 1.004627 
-0.067833 -0.207014 1.004406 
-0.066112 -0.206942 1.004055 
-0.064378 -0.206821 1.003472 
-0.062657 -0.206741 1.003080 
-0.060946 -0.206689 1.002830 
-0.059244 -0.206668 1.002726 
-0.057557 -0.206695 1.002860 
-0.055880 -0.206766 1.003203 
-0.054198 -0.206819 1.003460 
-0.052521 -0.206892 1.003815 
-0.050841 -0.206965 1.004169 
-0.049156 -0.207014 1.004406 
-0.047468 -0.207060 1.004627 
-0.045774 -0.207081 1.004730 
-0.044076 -0.207081 1.004730 
-0.042377 -0.207081 1.004731 
-0.040683 -0.207102 1.004836 
-0.038980 -0.207081 1.004734 
-0.037277 -0.207057 1.004615 
-0.035559 -0.206941 1.004054 
-0.033827 -0.206727 1.003015 
-0.032086 -0.206436 1.001604 
-0.030330 -0.206010 0.999534 
-0.028571 -0.205514 0.997127 
-0.026805 -0.204904 0.994169 
-0.025039 -0.204203 0.990769 
-0.023273 -0.203408 0.986910 
-0.021536 -0.202760 0.983768 
-0.019814 -0.202158 0.980848 
-0.018125 -0.201815 0.979181 
-0.016455 -0.201638 0.978321 
-0.014799 -0.201617 0.978220 
-0.013144 -0.201598 0.978128 
-0.011496 -0.201684 0.978547 
-0.009844 -0.201732 0.978781 
-0.008192 -0.201803 0.979124 
-0.006540 -0.201894 0.979566 
-0.004896 -0.202410 0.982069 
-0.003244 -0.202898 0.984434 
-0.001584 -0.203529 0.987496 
0.000085 -0.204769 0.993511 
0.003466 -0.206054 0.999747 
0.005163 -0.206307 1.000977 
0.006852 -0.206206 1.000485 
0.008527 -0.205823 0.998626 
0.010210 -0.205720 0.998127 
0.011903 -0.205816 0.998595 
0.013594 -0.205861 0.998814 
0.015288 -0.205931 0.999153 
0.016985 -0.206029 0.999626 
0.018682 -0.206109 1.000015 
0.020383 -0.206206 1.000486 
0.022081 -0.206276 1.000824 
0.023768 -0.206232 1.000613 
0.025448 -0.206136 1.000146 
0.027128 -0.206052 0.999741 
0.028803 -0.205949 0.999240 
0.030515 -0.206099 0.999966 
0.032229 -0.206252 1.000710 
0.033930 -0.206306 1.000973 
0.035622 -0.206307 1.000978 
0.037293 -0.206188 1.000401 
0.038955 -0.206031 0.999639 
0.040610 -0.205855 0.998783 
0.042295 -0.205841 0.998716 
0.043978 -0.205815 0.998588 
0.045668 -0.205822 0.998623 
0.047327 -0.205697 0.998016 
0.049014 -0.205694 0.998001 
0.050697 -0.205679 0.997929 
0.052819 -0.207387 1.006217 
0.065861 -0.216717 1.051483 
0.067572 -0.216503 1.050446 
0.069290 -0.216324 1.049576 
0.070997 -0.216117 1.048572 
0.072726 -0.215987 1.047943 
0.074454 -0.215861 1.047329 
-0.078141 -0.205625 1.005941 
-0.076415 -0.205557 1.005608 
-0.074691 -0.205491 1.005284 
-0.072976 -0.205449 1.005080 
-0.071252 -0.205378 1.004730 
-0.069539 -0.205334 1.004517 
-0.067818 -0.205263 1.004169 
-0.066088 -0.205164 1.003686 
-0.064352 -0.205040 1.003080 
-0.062627 -0.204942 1.002600 
-0.060917 -0.204893 1.002360 
-0.059216 -0.204871 1.002252 
-0.057529 -0.204895 1.002371 
-0.055847 -0.204941 1.002597 
-0.054165 -0.204991 1.002840 
-0.052489 -0.205065 1.003203 
-0.050817 -0.205164 1.003686 
-0.049138 -0.205240 1.004055 
-0.047457 -0.205311 1.004406 
-0.045770 -0.205357 1.004627 
-0.044080 -0.205399 1.004834 
-0.042395 -0.205466 1.005161 
-0.040715 -0.205560 1.005623 
-0.039025 -0.205614 1.005889 
-0.037333 -0.205662 1.006124 
-0.035628 -0.205636 1.005994 
-0.033900 -0.205472 1.005193 
-0.032167 -0.205254 1.004124 
-0.030420 -0.204921 1.002496 
-0.028670 -0.204533 1.000599 
-0.026877 -0.203762 0.996825 
-0.025085 -0.202897 0.992595 
-0.023298 -0.201953 0.987976 
-0.021542 -0.201151 0.984054 
-0.019804 -0.200395 0.980353 
-0.018120 -0.200103 0.978926 
-0.016452 -0.199951 0.978182 
-0.014796 -0.199908 0.977974 
-0.013140 -0.199868 0.977776 
-0.011489 -0.199908 0.977974 
-0.009837 -0.199931 0.978084 
-0.008202 -0.200398 0.980369 
-0.006562 -0.200919 0.982916 
-0.004925 -0.201908 0.987757 
-0.003270 -0.202869 0.992456 
0.003503 -0.206525 1.010343 
0.005208 -0.206395 1.009707 
0.006895 -0.205811 1.006850 
0.008569 -0.205140 1.003567 
0.010248 -0.204777 1.001794 
0.011933 -0.204632 1.001081 
0.013624 -0.204615 1.001000 
0.015318 -0.204641 1.001127 
0.017015 -0.204696 1.001395 
0.018714 -0.204758 1.001700 
0.020417 -0.204857 1.002183 
0.022121 -0.204945 1.002616 
0.023808 -0.204876 1.002276 
0.025487 -0.204752 1.001669 
0.027172 -0.204688 1.001358 
0.028854 -0.204612 1.000984 
0.030563 -0.204728 1.001550 
0.032284 -0.204902 1.002406 
0.033982 -0.204926 1.002521 
0.035664 -0.204851 1.002154 
0.037343 -0.204765 1.001734 
0.039028 -0.204723 1.001527 
0.040698 -0.204604 1.000948 
0.042404 -0.204671 1.001275 
0.044114 -0.204751 1.001666 
0.045819 -0.204804 1.001925 
0.047472 -0.204627 1.001058 
0.049166 -0.204634 1.001092 
0.050993 -0.205178 1.003756 
0.062469 -0.217284 1.054234 
0.060698 -0.215535 1.054424 
0.062429 -0.215359 1.053560 
0.064159 -0.216972 1.052719 
0.064133 -0.215099 1.052287 
0.065854 -0.214911 1.051368 
0.067574 -0.214730 1.050481 
0.069290 -0.214543 1.049567 
0.070997 -0.214342 1.048583 
0.072725 -0.214210 1.047939 
0.074457 -0.214095 1.047374 
0.076178 -0.213955 1.046693 
-0.078167 -0.203988 1.006276 
-0.076434 -0.203903 1.005857 
-0.074703 -0.203820 1.005447 
-0.072982 -0.203762 1.005163 
-0.071245 -0.203654 1.004627 
-0.069524 -0.203586 1.004292 
-0.067794 -0.203489 1.003815 
-0.066050 -0.203344 1.003101 
-0.064309 -0.203201 1.002396 
-0.062578 -0.203085 1.001820 
-0.060864 -0.203017 1.001489 
-0.059165 -0.202996 1.001386 
-0.057484 -0.203040 1.001599 
-0.055804 -0.203085 1.001823 
-0.054128 -0.203153 1.002158 
-0.052457 -0.203244 1.002608 
-0.050792 -0.203361 1.003183 
-0.049120 -0.203463 1.003686 
-0.047446 -0.203561 1.004169 
-0.045769 -0.203652 1.004620 
-0.044090 -0.203741 1.005057 
-0.042415 -0.203856 1.005626 
-0.040744 -0.204003 1.006349 
-0.039068 -0.204131 1.006984 
-0.037384 -0.204232 1.007480 
-0.035688 -0.204273 1.007684 
-0.033972 -0.204202 1.007331 
-0.032250 -0.204081 1.006738 
-0.030513 -0.203847 1.005582 
-0.028776 -0.203581 1.004270 
-0.026956 -0.202663 0.999742 
-0.025137 -0.201631 0.994649 
-0.023327 -0.200527 0.989205 
-0.021553 -0.199582 0.984544 
-0.019799 -0.198685 0.980117 
-0.018124 -0.198484 0.979124 
-0.016458 -0.198355 0.978489 
-0.014800 -0.198309 0.978263 
-0.013142 -0.198245 0.977945 
-0.011488 -0.198241 0.977926 
-0.009856 -0.198660 0.979994 
-0.008238 -0.199586 0.984564 
-0.006606 -0.200575 0.989442 
-0.004968 -0.202017 0.996555 
0.001812 -0.206738 1.019843 
0.003537 -0.206788 1.020089 
0.008617 -0.204575 1.009173 
0.010292 -0.203956 1.006117 
0.011981 -0.203752 1.005111 
0.013663 -0.203499 1.003867 
0.015348 -0.203340 1.003081 
0.017046 -0.203363 1.003193 
0.018743 -0.203378 1.003267 
0.020445 -0.203433 1.003538 
0.022148 -0.203498 1.003861 
0.023832 -0.203385 1.003304 
0.025510 -0.203242 1.002596 
0.027200 -0.203200 1.002392 
0.028888 -0.203159 1.002187 
0.030602 -0.203284 1.002806 
0.032339 -0.203548 1.004105 
0.034050 -0.203629 1.004508 
0.035742 -0.203596 1.004344 
0.037437 -0.203579 1.004260 
0.039153 -0.203672 1.004718 
0.040835 -0.203592 1.004325 
0.042553 -0.203690 1.004806 
0.044280 -0.203818 1.005441 
0.045998 -0.203898 1.005835 
0.047648 -0.203686 1.004788 
0.049357 -0.203725 1.004982 
0.051212 -0.204351 1.008067 
0.060564 -0.213277 1.052100 
0.062385 -0.213423 1.052819 
0.064101 -0.213212 1.051778 
0.065843 -0.213093 1.051191 
0.067574 -0.212948 1.050476 
0.069301 -0.212797 1.049732 
0.071015 -0.212616 1.048841 
0.072742 -0.212482 1.048181 
0.074467 -0.212349 1.047521 
0.076184 -0.212197 1.046773 
-0.079886 -0.202328 1.006503 
-0.078150 -0.202238 1.006058 
-0.076417 -0.202153 1.005632 
-0.074692 -0.202086 1.005304 
-0.072967 -0.202016 1.004954 
-0.071229 -0.201906 1.004406 
-0.069500 -0.201813 1.003944 
-0.067762 -0.201694 1.003349 
-0.066018 -0.201548 1.002627 
-0.064285 -0.201428 1.002028 
-0.062562 -0.201335 1.001564 
-0.060849 -0.201269 1.001237 
-0.059156 -0.201267 1.001229 
-0.057470 -0.201291 1.001348 
-0.055785 -0.201318 1.001480 
-0.054104 -0.201365 1.001712 
-0.052433 -0.201452 1.002146 
-0.050768 -0.201565 1.002711 
-0.049102 -0.201686 1.003314 
-0.047435 -0.201810 1.003929 
-0.045764 -0.201928 1.004514 
-0.044096 -0.202062 1.005183 
-0.042426 -0.202205 1.005894 
-0.040765 -0.202402 1.006874 
-0.039098 -0.202580 1.007760 
-0.037425 -0.202746 1.008583 
-0.035743 -0.202881 1.009255 
-0.034045 -0.202926 1.009479 
-0.032335 -0.202908 1.009388 
-0.030615 -0.202819 1.008948 
-0.028893 -0.202701 1.008363 
-0.027083 -0.201920 1.004474 
-0.025238 -0.200746 0.998634 
-0.023400 -0.199469 0.992281 
-0.021597 -0.198324 0.986585 
-0.019821 -0.197239 0.981190 
-0.018123 -0.196821 0.979111 
-0.016461 -0.196731 0.978662 
-0.014802 -0.196683 0.978423 
-0.013144 -0.196615 0.978086 
-0.011513 -0.197007 0.980035 
-0.009901 -0.197905 0.984501 
-0.008295 -0.199305 0.991468 
-0.006669 -0.200798 0.998893 
0.000087 -0.205974 1.016072 
-0.001638 -0.205235 1.020968 
0.000088 -0.206081 1.025176 
0.001826 -0.206620 1.027858 
0.003564 -0.206645 1.027978 
0.005254 -0.206501 1.018672 
0.005292 -0.206262 1.026074 
0.006998 -0.205406 1.021815 
0.010355 -0.203489 1.012282 
0.012034 -0.202952 1.009608 
0.013708 -0.202465 1.007185 
0.015382 -0.202079 1.005264 
0.017070 -0.201952 1.004637 
0.018755 -0.201810 1.003929 
0.020455 -0.201836 1.004058 
0.022157 -0.201879 1.004273 
0.023842 -0.201769 1.003722 
0.025524 -0.201651 1.003136 
0.027224 -0.201677 1.003269 
0.028924 -0.201706 1.003413 
0.030650 -0.201902 1.004388 
0.032401 -0.202236 1.006047 
0.034132 -0.202411 1.006917 
0.035842 -0.202456 1.007141 
0.037557 -0.202524 1.007478 
0.039289 -0.202675 1.008230 
0.040989 -0.202652 1.008118 
0.042717 -0.202762 1.008665 
0.044455 -0.202913 1.009413 
0.046179 -0.202992 1.009808 
0.047839 -0.202789 1.008797 
0.049572 -0.202902 1.009362 
0.051435 -0.203523 1.012452 
0.053441 -0.206375 1.018054 
0.058294 -0.211496 1.043314 
0.058291 -0.209714 1.043247 
0.060434 -0.211041 1.049850 
0.062331 -0.211453 1.051900 
0.064048 -0.211254 1.050906 
0.065803 -0.211182 1.050550 
0.067557 -0.211114 1.050211 
0.069299 -0.211013 1.049710 
0.071021 -0.210857 1.048936 
0.072747 -0.210721 1.048255 
0.074475 -0.210594 1.047626 
0.076185 -0.210427 1.046793 
0.078556 -0.213837 1.054862 
0.077889 -0.210250 1.045912 
-0.081606 -0.200667 1.006732 
-0.079884 -0.200617 1.006482 
-0.078151 -0.200537 1.006079 
-0.076414 -0.200440 1.005594 
-0.074676 -0.200339 1.005087 
-0.072943 -0.200247 1.004624 
-0.071205 -0.200133 1.004055 
-0.069460 -0.199997 1.003370 
-0.067715 -0.199854 1.002654 
-0.065980 -0.199733 1.002046 
-0.064256 -0.199638 1.001570 
-0.062541 -0.199569 1.001222 
-0.060834 -0.199523 1.000991 
-0.059147 -0.199539 1.001074 
-0.057461 -0.199563 1.001192 
-0.055777 -0.199594 1.001348 
-0.054092 -0.199623 1.001496 
-0.052422 -0.199709 1.001925 
-0.050750 -0.199798 1.002371 
-0.049085 -0.199916 1.002963 
-0.047419 -0.200041 1.003589 
-0.045754 -0.200181 1.004296 
-0.044096 -0.200361 1.005198 
-0.042437 -0.200549 1.006138 
-0.040784 -0.200786 1.007329 
-0.039128 -0.201028 1.008545 
-0.037466 -0.201261 1.009712 
-0.035800 -0.201488 1.010852 
-0.034115 -0.201632 1.011571 
-0.032418 -0.201714 1.011983 
-0.030713 -0.201747 1.012151 
-0.029005 -0.201774 1.012283 
-0.027209 -0.201147 1.009138 
-0.023478 -0.198448 0.995601 
-0.021646 -0.197098 0.988827 
-0.019843 -0.195798 0.982302 
-0.018122 -0.195142 0.979015 
-0.016461 -0.195077 0.978685 
-0.014803 -0.195029 0.978445 
-0.013144 -0.194961 0.978103 
-0.011515 -0.195380 0.980209 
-0.009926 -0.196725 0.986954 
-0.008337 -0.198608 0.996402 
-0.006719 -0.200593 1.006361 
-0.005027 -0.202699 1.008348 
-0.003344 -0.204037 1.015007 
-0.005073 -0.202829 1.017576 
-0.003380 -0.204463 1.025775 
-0.001652 -0.205278 1.029866 
0.000089 -0.205653 1.031747 
0.001836 -0.205985 1.033410 
0.003582 -0.205941 1.033190 
0.005316 -0.205454 1.030746 
0.008678 -0.204287 1.016249 
0.008734 -0.203883 1.022868 
0.010415 -0.202948 1.018176 
0.012089 -0.202160 1.014220 
0.013757 -0.201470 1.010762 
0.015419 -0.200866 1.007731 
0.017098 -0.200570 1.006245 
0.018772 -0.200282 1.004798 
0.020462 -0.200195 1.004365 
0.022159 -0.200191 1.004341 
0.023842 -0.200062 1.003697 
0.025529 -0.199987 1.003321 
0.027238 -0.200085 1.003813 
0.028952 -0.200204 1.004408 
0.030695 -0.200492 1.005851 
0.032467 -0.200935 1.008075 
0.034221 -0.201233 1.009570 
0.035952 -0.201369 1.010253 
0.037690 -0.201525 1.011035 
0.039434 -0.201703 1.011930 
0.041141 -0.201689 1.011857 
0.042873 -0.201790 1.012366 
0.044617 -0.201935 1.013093 
0.046348 -0.202017 1.013503 
0.048023 -0.201854 1.012687 
0.049761 -0.201959 1.013214 
0.051616 -0.202516 1.016006 
0.053672 -0.205535 1.022459 
0.053770 -0.204172 1.024318 
0.055963 -0.207622 1.032840 
0.055935 -0.205768 1.032322 
0.058155 -0.207462 1.040822 
0.060305 -0.208814 1.047603 
0.062247 -0.209389 1.050489 
0.063971 -0.209219 1.049635 
0.065742 -0.209207 1.049577 
0.067510 -0.209189 1.049486 
0.069259 -0.209114 1.049108 
0.070987 -0.208977 1.048423 
0.072705 -0.208822 1.047647 
0.074440 -0.208721 1.047138 
0.076151 -0.208559 1.046326 
0.077855 -0.208384 1.045449 
-0.081631 -0.199022 1.007044 
-0.079893 -0.198934 1.006596 
-0.078160 -0.198854 1.006191 
-0.076418 -0.198746 1.005648 
-0.074667 -0.198612 1.004966 
-0.072918 -0.198476 1.004281 
-0.071178 -0.198358 1.003686 
-0.069425 -0.198197 1.002868 
-0.067675 -0.198036 1.002053 
-0.065941 -0.197919 1.001460 
-0.064219 -0.197829 1.001006 
-0.062514 -0.197787 1.000793 
-0.060809 -0.197744 1.000577 
-0.059122 -0.197761 1.000664 
-0.057436 -0.197780 1.000759 
-0.055758 -0.197829 1.001005 
-0.054074 -0.197860 1.001162 
-0.052405 -0.197948 1.001609 
-0.050734 -0.198035 1.002047 
-0.049068 -0.198148 1.002623 
-0.047402 -0.198270 1.003239 
-0.045739 -0.198411 1.003953 
-0.044086 -0.198612 1.004970 
-0.042431 -0.198817 1.006006 
-0.040779 -0.199053 1.007200 
-0.039127 -0.199312 1.008509 
-0.037474 -0.199591 1.009923 
-0.035820 -0.199890 1.011436 
-0.034152 -0.200132 1.012662 
-0.032472 -0.200328 1.013653 
-0.030787 -0.200513 1.014590 
-0.029097 -0.200693 1.015500 
-0.027287 -0.200010 1.012040 
-0.025340 -0.199864 1.002703 
-0.025402 -0.198643 1.005123 
-0.023528 -0.197180 0.997724 
-0.021670 -0.195638 0.989921 
-0.019847 -0.194167 0.982476 
-0.018128 -0.193550 0.979354 
-0.016470 -0.193527 0.979239 
-0.014811 -0.193483 0.979017 
-0.013153 -0.193440 0.978796 
-0.011548 -0.194263 0.982961 
-0.009976 -0.196038 0.991946 
-0.008399 -0.198392 1.003857 
-0.005118 -0.202869 1.026511 
-0.003402 -0.204040 1.032436 
-0.001660 -0.204409 1.034300 
0.000089 -0.204367 1.034086 
0.001837 -0.204332 1.033913 
0.003584 -0.204305 1.033775 
0.005325 -0.204046 1.032467 
0.007055 -0.203604 1.030227 
0.008765 -0.202867 1.026500 
0.010460 -0.202089 1.022563 
0.012139 -0.201267 1.018403 
0.013806 -0.200468 1.014361 
0.015463 -0.199720 1.010575 
0.017134 -0.199284 1.008371 
0.018798 -0.198851 1.006179 
0.020477 -0.198647 1.005143 
0.022162 -0.198511 1.004456 
0.023841 -0.198358 1.003684 
0.025526 -0.198266 1.003220 
0.027245 -0.198430 1.004047 
0.028967 -0.198602 1.004920 
0.030728 -0.199005 1.006958 
0.032518 -0.199542 1.009675 
0.034303 -0.199998 1.011979 
0.036056 -0.200230 1.013156 
0.037819 -0.200496 1.014503 
0.039569 -0.200673 1.015395 
0.041283 -0.200664 1.015352 
0.043011 -0.200714 1.015606 
0.044749 -0.200810 1.016092 
0.046481 -0.200872 1.016404 
0.048170 -0.200751 1.015790 
0.049926 -0.200905 1.016570 
0.051785 -0.201450 1.019330 
0.053873 -0.202824 1.026280 
0.055955 -0.204092 1.032697 
0.058102 -0.205509 1.039868 
0.060186 -0.206630 1.045539 
0.062165 -0.207333 1.049098 
0.063917 -0.207266 1.048757 
0.065710 -0.207328 1.049070 
0.067485 -0.207333 1.049097 
0.069233 -0.207255 1.048704 
0.070951 -0.207096 1.047895 
0.072668 -0.206940 1.047110 
0.074411 -0.206865 1.046730 
0.076132 -0.206732 1.046056 
0.077845 -0.206587 1.045320 
-0.081651 -0.197364 1.007292 
-0.079912 -0.197275 1.006838 
-0.078166 -0.197163 1.006266 
-0.076417 -0.197041 1.005643 
-0.074657 -0.196882 1.004833 
-0.072892 -0.196703 1.003922 
-0.071145 -0.196564 1.003211 
-0.069392 -0.196402 1.002385 
-0.067635 -0.196221 1.001460 
-0.065902 -0.196104 1.000862 
-0.064182 -0.196017 1.000417 
-0.062479 -0.195981 1.000233 
-0.060776 -0.195943 1.000040 
-0.059091 -0.195961 1.000133 
-0.057405 -0.195977 1.000213 
-0.055733 -0.196043 1.000550 
-0.054055 -0.196094 1.000810 
-0.052393 -0.196205 1.001377 
-0.050723 -0.196292 1.001823 
-0.049057 -0.196402 1.002383 
-0.047390 -0.196517 1.002969 
-0.045727 -0.196657 1.003686 
-0.044070 -0.196838 1.004610 
-0.042416 -0.197041 1.005645 
-0.040768 -0.197292 1.006926 
-0.039120 -0.197570 1.008343 
-0.037474 -0.197875 1.009904 
-0.035833 -0.198245 1.011789 
-0.034179 -0.198574 1.013467 
-0.032509 -0.198837 1.014811 
-0.030829 -0.199069 1.015994 
-0.029144 -0.199294 1.017141 
-0.027326 -0.198576 1.013482 
-0.025429 -0.197150 1.006202 
-0.023545 -0.195628 0.998433 
-0.021680 -0.194048 0.990372 
-0.019853 -0.192567 0.982811 
-0.018138 -0.192000 0.979915 
-0.016484 -0.192022 0.980029 
-0.014827 -0.192021 0.980022 
-0.013195 -0.192387 0.981892 
-0.011610 -0.193639 0.988284 
-0.006829 -0.200425 1.022914 
-0.005143 -0.202104 1.031484 
-0.003411 -0.202836 1.035219 
-0.001661 -0.202827 1.035176 
0.000089 -0.202808 1.035079 
0.001839 -0.202795 1.035012 
0.003588 -0.202773 1.034897 
0.005333 -0.202597 1.033999 
0.007068 -0.202221 1.032082 
0.008783 -0.201544 1.028626 
0.010485 -0.200826 1.024963 
0.012171 -0.200062 1.021063 
0.013842 -0.199263 1.016985 
0.015498 -0.198455 1.012860 
0.017164 -0.197923 1.010145 
0.018819 -0.197371 1.007329 
0.020488 -0.197043 1.005657 
0.022160 -0.196795 1.004387 
0.023839 -0.196637 1.003582 
0.025525 -0.196554 1.003158 
0.027260 -0.196837 1.004602 
0.028999 -0.197116 1.006026 
0.030781 -0.197637 1.008685 
0.032589 -0.198263 1.011882 
0.034388 -0.198772 1.014480 
0.036152 -0.199044 1.015867 
0.037916 -0.199288 1.017111 
0.039660 -0.199410 1.017737 
0.041372 -0.199369 1.017526 
0.043093 -0.199372 1.017541 
0.044817 -0.199389 1.017628 
0.046552 -0.199453 1.017953 
0.048259 -0.199394 1.017652 
0.050034 -0.199615 1.018783 
0.051829 -0.199895 1.020212 
0.053861 -0.201040 1.026056 
0.055896 -0.202129 1.031611 
0.057989 -0.203349 1.037842 
0.060022 -0.204298 1.042682 
0.062049 -0.205173 1.047147 
0.063843 -0.205249 1.047539 
0.065655 -0.205379 1.048199 
0.067431 -0.205390 1.048256 
0.069183 -0.205329 1.047943 
0.070907 -0.205191 1.047241 
0.072630 -0.205058 1.046561 
0.074382 -0.205011 1.046324 
0.076128 -0.204949 1.046005 
0.078516 -0.206581 1.054332 
-0.081596 -0.195523 1.006607 
-0.079869 -0.195462 1.006290 
-0.078125 -0.195355 1.005742 
-0.076377 -0.195232 1.005108 
-0.074616 -0.195070 1.004275 
-0.072844 -0.194872 1.003254 
-0.071097 -0.194733 1.002537 
-0.069345 -0.194572 1.001712 
-0.067582 -0.194372 1.000681 
-0.065857 -0.194274 1.000175 
-0.064150 -0.194225 0.999922 
-0.062454 -0.194207 0.999833 
-0.060759 -0.194194 0.999766 
-0.059082 -0.194235 0.999975 
-0.057390 -0.194230 0.999948 
-0.055711 -0.194272 1.000166 
-0.054034 -0.194322 1.000425 
-0.052374 -0.194438 1.001022 
-0.050706 -0.194529 1.001489 
-0.049040 -0.194637 1.002044 
-0.047377 -0.194766 1.002711 
-0.045710 -0.194883 1.003314 
-0.044050 -0.195045 1.004144 
-0.042396 -0.195246 1.005182 
-0.040748 -0.195492 1.006447 
-0.039106 -0.195791 1.007984 
-0.037468 -0.196137 1.009767 
-0.035837 -0.196551 1.011898 
-0.034195 -0.196945 1.013926 
-0.032534 -0.197272 1.015608 
-0.030857 -0.197526 1.016921 
-0.029178 -0.197795 1.018301 
-0.027395 -0.197354 1.016031 
-0.025488 -0.195899 1.008540 
-0.021723 -0.192750 0.992332 
-0.019886 -0.191220 0.984451 
-0.018143 -0.190391 0.980185 
-0.016493 -0.190473 0.980609 
-0.014839 -0.190517 0.980832 
-0.013238 -0.191337 0.985057 
-0.011676 -0.193058 0.993918 
-0.006863 -0.199675 1.027980 
-0.005156 -0.200892 1.034248 
-0.003414 -0.201252 1.036101 
-0.001663 -0.201295 1.036323 
0.000089 -0.201301 1.036353 
0.001841 -0.201331 1.036509 
0.003593 -0.201282 1.036256 
0.005338 -0.201023 1.034920 
0.007072 -0.200589 1.032685 
0.008791 -0.199967 1.029487 
0.010496 -0.199294 1.026021 
0.012183 -0.198533 1.022100 
0.013866 -0.197881 1.018748 
0.015534 -0.197194 1.015207 
0.017253 -0.197225 1.015370 
0.018975 -0.197283 1.015667 
0.020663 -0.197011 1.014269 
0.022357 -0.196828 1.013327 
0.024057 -0.196716 1.012746 
0.025699 -0.196181 1.009995 
0.027367 -0.195900 1.008546 
0.029125 -0.196259 1.010398 
0.030901 -0.196694 1.012634 
0.032691 -0.197160 1.015034 
0.034464 -0.197489 1.016729 
0.036222 -0.197704 1.017834 
0.037976 -0.197878 1.018731 
0.039711 -0.197938 1.019040 
0.041425 -0.197896 1.018821 
0.043151 -0.197914 1.018918 
0.044873 -0.197912 1.018907 
0.046616 -0.198000 1.019356 
0.048342 -0.198011 1.019417 
0.050128 -0.198257 1.020683 
0.051934 -0.198564 1.022264 
0.053918 -0.199514 1.027153 
0.055901 -0.200395 1.031687 
0.057937 -0.201410 1.036915 
0.059934 -0.202234 1.041156 
0.061939 -0.203036 1.045285 
0.063773 -0.203252 1.046396 
0.065610 -0.203460 1.047469 
0.067390 -0.203489 1.047617 
0.069132 -0.203403 1.047173 
0.070863 -0.203290 1.046592 
0.072595 -0.203186 1.046059 
0.074373 -0.203212 1.046190 
0.076146 -0.203225 1.046257 
-0.083257 -0.193723 1.006121 
-0.081566 -0.193746 1.006238 
-0.079842 -0.193691 1.005954 
-0.078097 -0.193580 1.005378 
-0.076341 -0.193436 1.004632 
-0.074564 -0.193232 1.003572 
-0.072785 -0.193016 1.002448 
-0.071040 -0.192878 1.001730 
-0.069283 -0.192703 1.000823 
-0.067522 -0.192505 0.999794 
-0.065804 -0.192424 0.999375 
-0.064098 -0.192375 0.999118 
-0.062404 -0.192359 0.999034 
-0.060724 -0.192386 0.999175 
-0.059053 -0.192446 0.999487 
-0.057363 -0.192444 0.999477 
-0.055691 -0.192505 0.999794 
-0.054020 -0.192576 1.000163 
-0.052362 -0.192694 1.000775 
-0.050694 -0.192788 1.001264 
-0.049029 -0.192894 1.001815 
-0.047366 -0.193021 1.002474 
-0.045699 -0.193136 1.003074 
-0.044035 -0.193278 1.003807 
-0.042382 -0.193477 1.004844 
-0.040734 -0.193719 1.006097 
-0.039093 -0.194014 1.007632 
-0.037456 -0.194362 1.009437 
-0.035833 -0.194817 1.011800 
-0.034199 -0.195251 1.014056 
-0.032550 -0.195642 1.016086 
-0.030879 -0.195942 1.017646 
-0.029205 -0.196254 1.019263 
-0.027427 -0.195860 1.017218 
-0.025560 -0.194736 1.011383 
-0.019940 -0.190058 0.987083 
-0.018186 -0.189170 0.982473 
-0.016506 -0.188957 0.981366 
-0.014852 -0.189024 0.981714 
-0.013278 -0.190243 0.988045 
-0.011713 -0.191975 0.997042 
-0.006880 -0.198433 1.030581 
-0.005160 -0.199271 1.034934 
-0.003417 -0.199693 1.037124 
-0.001665 -0.199807 1.037716 
0.000089 -0.199862 1.038004 
0.001845 -0.199937 1.038394 
0.003599 -0.199890 1.038147 
0.005347 -0.199628 1.036787 
0.007085 -0.199210 1.034617 
0.008804 -0.198525 1.031061 
0.010508 -0.197786 1.027224 
0.012198 -0.197036 1.023324 
0.013884 -0.196411 1.020079 
0.015598 -0.196288 1.019443 
0.017343 -0.196528 1.020690 
0.019098 -0.196828 1.022245 
0.020808 -0.196661 1.021378 
0.022511 -0.196456 1.020315 
0.024135 -0.195635 1.016052 
0.025780 -0.195087 1.013203 
0.027455 -0.194816 1.011797 
0.031019 -0.195719 1.016485 
0.032795 -0.196065 1.018282 
0.034543 -0.196213 1.019052 
0.036283 -0.196309 1.019552 
0.038020 -0.196374 1.019888 
0.039743 -0.196373 1.019882 
0.041459 -0.196331 1.019665 
0.043187 -0.196349 1.019760 
0.044911 -0.196351 1.019768 
0.046666 -0.196482 1.020448 
0.048411 -0.196562 1.020863 
0.050206 -0.196834 1.022275 
0.052020 -0.197160 1.023972 
0.053944 -0.197865 1.027634 
0.055873 -0.198550 1.031187 
0.057870 -0.199424 1.035726 
0.059858 -0.200216 1.039844 
0.061872 -0.201047 1.044158 
0.063739 -0.201367 1.045822 
0.065572 -0.201568 1.046866 
0.067343 -0.201574 1.046894 
0.069079 -0.201472 1.046368 
0.070819 -0.201391 1.045947 
0.072563 -0.201323 1.045591 
0.074375 -0.201446 1.046228 
0.076185 -0.201555 1.046795 
-0.084895 -0.191875 1.005374 
-0.083208 -0.191904 1.005525 
-0.081518 -0.191928 1.005651 
-0.079796 -0.191873 1.005365 
-0.078040 -0.191737 1.004650 
-0.076278 -0.191575 1.003801 
-0.074501 -0.191371 1.002730 
-0.072716 -0.191134 1.001492 
-0.070966 -0.190980 1.000684 
-0.069218 -0.190825 0.999871 
-0.067458 -0.190630 0.998852 
-0.065737 -0.190535 0.998354 
-0.064033 -0.190487 0.998101 
-0.062348 -0.190493 0.998131 
-0.060676 -0.190543 0.998393 
-0.059014 -0.190627 0.998832 
-0.057332 -0.190647 0.998939 
-0.055672 -0.190746 0.999457 
-0.054008 -0.190837 0.999933 
-0.052349 -0.190954 1.000545 
-0.050689 -0.191070 1.001155 
-0.049024 -0.191176 1.001709 
-0.047361 -0.191300 1.002363 
-0.045694 -0.191414 1.002959 
-0.044026 -0.191535 1.003593 
-0.042368 -0.191712 1.004519 
-0.040720 -0.191947 1.005752 
-0.039075 -0.192217 1.007167 
-0.037439 -0.192560 1.008965 
-0.035825 -0.193057 1.011568 
-0.034200 -0.193536 1.014076 
-0.032562 -0.193993 1.016469 
-0.030902 -0.194357 1.018380 
-0.029236 -0.194733 1.020350 
-0.027467 -0.194422 1.018718 
-0.025646 -0.193670 1.014780 
-0.020000 -0.188960 0.990097 
-0.018234 -0.188002 0.985077 
-0.016550 -0.187793 0.983984 
-0.014922 -0.188244 0.986350 
-0.013368 -0.189853 0.994778 
-0.008534 -0.196406 1.020054 
-0.010230 -0.194124 1.017157 
-0.008589 -0.195916 1.026548 
-0.006911 -0.197562 1.035173 
-0.005173 -0.198032 1.037632 
-0.003421 -0.198125 1.038123 
-0.001667 -0.198308 1.039081 
0.000089 -0.198438 1.039763 
0.001849 -0.198585 1.040530 
0.003608 -0.198589 1.040551 
0.005362 -0.198395 1.039539 
0.007119 -0.198389 1.039506 
0.008867 -0.198196 1.038492 
0.025888 -0.194176 1.017429 
0.027553 -0.193793 1.015422 
0.029344 -0.194280 1.017975 
0.031121 -0.194632 1.019817 
0.032873 -0.194801 1.020705 
0.034601 -0.194813 1.020770 
0.036326 -0.194807 1.020738 
0.038050 -0.194801 1.020707 
0.039768 -0.194763 1.020507 
0.041493 -0.194762 1.020502 
0.043223 -0.194784 1.020617 
0.044953 -0.194805 1.020723 
0.046711 -0.194941 1.021440 
0.048464 -0.195045 1.021981 
0.050251 -0.195277 1.023201 
0.052059 -0.195569 1.024729 
0.053922 -0.196046 1.027226 
0.055804 -0.196556 1.029898 
0.057773 -0.197334 1.033980 
0.059767 -0.198151 1.038260 
0.061784 -0.198993 1.042669 
0.065542 -0.199703 1.046388 
0.067305 -0.199686 1.046299 
-0.084869 -0.190112 1.005061 
-0.083174 -0.190123 1.005118 
-0.081481 -0.190136 1.005188 
-0.079754 -0.190071 1.004844 
-0.077986 -0.189900 1.003943 
-0.076206 -0.189695 1.002861 
-0.074422 -0.189470 1.001671 
-0.072629 -0.189211 1.000300 
-0.070874 -0.189039 0.999389 
-0.069136 -0.188907 0.998695 
-0.067387 -0.188736 0.997791 
-0.065674 -0.188661 0.997394 
-0.063980 -0.188638 0.997268 
-0.062297 -0.188648 0.997324 
-0.060634 -0.188720 0.997706 
-0.058987 -0.188847 0.998375 
-0.057313 -0.188891 0.998609 
-0.055655 -0.188994 0.999154 
-0.054002 -0.189122 0.999829 
-0.052344 -0.189239 1.000449 
-0.050684 -0.189353 1.001052 
-0.049019 -0.189459 1.001609 
-0.047361 -0.189601 1.002363 
-0.045694 -0.189714 1.002959 
-0.044026 -0.189834 1.003593 
-0.042363 -0.189987 1.004404 
-0.040714 -0.190216 1.005614 
-0.039068 -0.190478 1.006996 
-0.037433 -0.190819 1.008801 
-0.035824 -0.191334 1.011526 
-0.034210 -0.191877 1.014394 
-0.032584 -0.192402 1.017168 
-0.030931 -0.192814 1.019345 
-0.029278 -0.193277 1.021795 
-0.027558 -0.193329 1.022070 
-0.025782 -0.192968 1.020160 
-0.016702 -0.187832 0.993010 
-0.015063 -0.188336 0.995674 
-0.013496 -0.189968 1.004303 
-0.011814 -0.191923 1.005626 
-0.011905 -0.191679 1.013345 
-0.010289 -0.193510 1.023025 
-0.008621 -0.194900 1.030377 
-0.006925 -0.196199 1.037243 
-0.005176 -0.196386 1.038232 
-0.003424 -0.196571 1.039207 
-0.001669 -0.196804 1.040442 
0.000090 -0.197024 1.041607 
0.001853 -0.197248 1.042787 
0.003617 -0.197327 1.043204 
0.005378 -0.197232 1.042706 
0.007159 -0.197728 1.045325 
0.008940 -0.198046 1.047009 
0.010610 -0.197946 1.037182 
0.036372 -0.193323 1.022037 
0.038081 -0.193229 1.021544 
0.039795 -0.193167 1.021214 
0.041527 -0.193189 1.021332 
0.043263 -0.193234 1.021566 
0.045000 -0.193277 1.021796 
0.046765 -0.193433 1.022620 
0.048520 -0.193535 1.023161 
0.050304 -0.193744 1.024264 
0.052090 -0.193949 1.025348 
0.053903 -0.194236 1.026863 
0.055726 -0.194540 1.028473 
-0.086577 -0.188429 1.005172 
-0.084868 -0.188407 1.005055 
-0.083163 -0.188393 1.004984 
-0.081461 -0.188386 1.004945 
-0.079719 -0.188283 1.004395 
-0.077942 -0.188092 1.003378 
-0.076146 -0.187846 1.002066 
-0.074352 -0.187595 1.000726 
-0.072552 -0.187315 0.999232 
-0.070790 -0.187124 0.998212 
-0.069048 -0.186976 0.997422 
-0.067308 -0.186828 0.996631 
-0.065605 -0.186775 0.996352 
-0.063913 -0.186751 0.996224 
-0.062239 -0.186782 0.996385 
-0.060584 -0.186875 0.996884 
-0.058953 -0.187045 0.997789 
-0.057287 -0.187115 0.998161 
-0.055637 -0.187240 0.998833 
-0.053991 -0.187387 0.999617 
-0.052339 -0.187522 1.000335 
-0.050678 -0.187636 1.000941 
-0.049014 -0.187742 1.001507 
-0.047361 -0.187902 1.002363 
-0.045694 -0.188014 1.002959 
-0.044026 -0.188133 1.003593 
-0.042363 -0.188283 1.004396 
-0.040710 -0.188490 1.005498 
-0.039063 -0.188745 1.006861 
-0.037431 -0.189103 1.008766 
-0.035827 -0.189637 1.011617 
-0.034219 -0.190203 1.014636 
-0.032603 -0.190789 1.017764 
-0.030963 -0.191286 1.020415 
-0.029320 -0.191819 1.023260 
-0.027649 -0.192232 1.025459 
-0.025918 -0.192253 1.025573 
-0.015218 -0.188569 1.005920 
-0.013609 -0.189846 1.012731 
-0.011980 -0.191161 1.019748 
-0.010329 -0.192516 1.026975 
-0.008637 -0.193509 1.032270 
-0.006926 -0.194462 1.037354 
-0.005178 -0.194699 1.038620 
-0.003427 -0.194952 1.039969 
-0.001671 -0.195251 1.041565 
0.000090 -0.195563 1.043227 
0.001856 -0.195883 1.044938 
0.003627 -0.196080 1.045986 
0.005396 -0.196109 1.046141 
0.007189 -0.196775 1.049697 
0.008999 -0.197570 1.053935 
0.010726 -0.198343 1.048579 
0.010828 -0.198438 1.058564 
0.012517 -0.198635 1.050121 
0.039831 -0.191608 1.022134 
0.041561 -0.191616 1.022174 
0.043299 -0.191660 1.022411 
0.045039 -0.191708 1.022665 
0.046804 -0.191857 1.023462 
0.048554 -0.191935 1.023878 
0.050332 -0.192115 1.024838 
0.052101 -0.192252 1.025565 
0.053890 -0.192449 1.026616 
-0.086613 -0.186802 1.005587 
-0.084896 -0.186764 1.005384 
-0.083185 -0.186739 1.005248 
-0.081472 -0.186707 1.005077 
-0.079711 -0.186562 1.004293 
-0.077916 -0.186329 1.003043 
-0.076103 -0.186043 1.001504 
-0.074293 -0.185751 0.999931 
-0.072491 -0.185467 0.998401 
-0.070724 -0.185258 0.997274 
-0.068977 -0.185095 0.996400 
-0.067247 -0.184968 0.995716 
-0.065545 -0.184917 0.995441 
-0.063847 -0.184874 0.995208 
-0.062181 -0.184921 0.995459 
-0.060534 -0.185031 0.996053 
-0.058904 -0.185201 0.996968 
-0.057254 -0.185314 0.997578 
-0.055617 -0.185481 0.998475 
-0.053978 -0.185649 0.999380 
-0.052332 -0.185801 1.000202 
-0.050677 -0.185936 1.000923 
-0.049013 -0.186042 1.001496 
-0.047356 -0.186184 1.002260 
-0.045689 -0.186293 1.002849 
-0.044021 -0.186410 1.003479 
-0.042359 -0.186562 1.004293 
-0.040706 -0.186768 1.005407 
-0.039064 -0.187043 1.006884 
-0.037436 -0.187418 1.008904 
-0.035840 -0.187989 1.011979 
-0.034242 -0.188614 1.015342 
-0.032638 -0.189262 1.018831 
-0.031010 -0.189845 1.021967 
-0.029375 -0.190443 1.025188 
-0.027705 -0.190879 1.027537 
-0.026010 -0.191189 1.029204 
-0.024084 -0.191451 1.021293 
-0.024210 -0.190713 1.026640 
-0.015378 -0.188823 1.016466 
-0.013719 -0.189648 1.020907 
-0.012049 -0.190529 1.025650 
-0.010366 -0.191476 1.030747 
-0.008653 -0.192117 1.034198 
-0.006927 -0.192756 1.037637 
-0.005181 -0.193057 1.039257 
-0.003430 -0.193350 1.040838 
-0.001673 -0.193694 1.042689 
0.000090 -0.194076 1.044747 
0.001860 -0.194465 1.046839 
0.003635 -0.194737 1.048302 
0.005412 -0.194918 1.049276 
0.007215 -0.195720 1.053594 
0.009054 -0.196978 1.060364 
0.010922 -0.198340 1.067697 
0.012671 -0.199273 1.063021 
0.041590 -0.190018 1.022901 
0.043331 -0.190069 1.023175 
0.045077 -0.190135 1.023528 
0.046838 -0.190261 1.024206 
0.048577 -0.190291 1.024371 
0.050338 -0.190403 1.024971 
0.052088 -0.190465 1.025306 
0.053844 -0.190544 1.025733 
0.055582 -0.190559 1.025813 
-0.084911 -0.185093 1.005565 
-0.083198 -0.185063 1.005402 
-0.081474 -0.185009 1.005108 
-0.079710 -0.184858 1.004285 
-0.077898 -0.184586 1.002811 
-0.076077 -0.184283 1.001161 
-0.074259 -0.183972 0.999475 
-0.072458 -0.183690 0.997940 
-0.070676 -0.183443 0.996602 
-0.068930 -0.183280 0.995714 
-0.067200 -0.183154 0.995028 
-0.065493 -0.183083 0.994646 
-0.063790 -0.183022 0.994314 
-0.062124 -0.183066 0.994551 
-0.060477 -0.183171 0.995122 
-0.058849 -0.183341 0.996044 
-0.057213 -0.183492 0.996868 
-0.055585 -0.183682 0.997899 
-0.053959 -0.183889 0.999024 
-0.052319 -0.184062 0.999964 
-0.050671 -0.184216 1.000801 
-0.049008 -0.184324 1.001386 
-0.047351 -0.184465 1.002150 
-0.045683 -0.184571 1.002726 
-0.044015 -0.184685 1.003349 
-0.042358 -0.184858 1.004285 
-0.040711 -0.185087 1.005530 
-0.039078 -0.185405 1.007260 
-0.037459 -0.185818 1.009503 
-0.035873 -0.186449 1.012930 
-0.034287 -0.187135 1.016657 
-0.032688 -0.187825 1.020405 
-0.031069 -0.188468 1.023901 
-0.029434 -0.189086 1.027258 
-0.027756 -0.189485 1.029423 
-0.026049 -0.189724 1.030725 
-0.024282 -0.189533 1.029684 
-0.022401 -0.190091 1.023291 
-0.022503 -0.189211 1.027938 
-0.020590 -0.189345 1.019279 
-0.020719 -0.188794 1.025669 
-0.017055 -0.188367 1.014013 
-0.018795 -0.188626 1.015406 
-0.018949 -0.188436 1.023724 
-0.017222 -0.188478 1.023952 
-0.015525 -0.188893 1.026211 
-0.013825 -0.189363 1.028762 
-0.012120 -0.189897 1.031661 
-0.010408 -0.190481 1.034835 
-0.008672 -0.190790 1.036512 
-0.006932 -0.191135 1.038388 
-0.005185 -0.191433 1.040007 
-0.003432 -0.191746 1.041709 
-0.001675 -0.192132 1.043807 
0.000090 -0.192562 1.046139 
0.001863 -0.192975 1.048385 
0.003642 -0.193333 1.050328 
0.005424 -0.193582 1.051681 
0.007245 -0.194721 1.057870 
0.009112 -0.196433 1.067169 
0.011017 -0.198236 1.076964 
0.012813 -0.199690 1.074963 
0.018507 -0.202327 1.089161 
0.016816 -0.202292 1.099002 
0.018674 -0.202294 1.099014 
0.020391 -0.202758 1.091483 
0.020532 -0.202299 1.099042 
-0.086630 -0.183427 1.005777 
-0.084912 -0.183391 1.005578 
-0.083199 -0.183362 1.005417 
-0.081466 -0.183287 1.005006 
-0.079692 -0.183114 1.004061 
-0.077878 -0.182840 1.002555 
-0.076051 -0.182523 1.000817 
-0.074227 -0.182199 0.999040 
-0.072427 -0.181920 0.997514 
-0.070645 -0.181673 0.996159 
-0.068891 -0.181490 0.995155 
-0.067168 -0.181380 0.994553 
-0.065462 -0.181312 0.994178 
-0.063760 -0.181251 0.993845 
-0.062087 -0.181273 0.993967 
-0.060441 -0.181376 0.994528 
-0.058808 -0.181523 0.995337 
-0.057173 -0.181675 0.996171 
-0.055547 -0.181865 0.997210 
-0.053934 -0.182112 0.998563 
-0.052302 -0.182306 0.999628 
-0.050660 -0.182481 1.000589 
-0.049003 -0.182608 1.001284 
-0.047350 -0.182764 1.002138 
-0.045682 -0.182867 1.002707 
-0.044014 -0.182979 1.003317 
-0.042362 -0.183172 1.004378 
-0.040720 -0.183423 1.005754 
-0.039097 -0.183784 1.007732 
-0.037493 -0.184277 1.010437 
-0.035920 -0.184972 1.014246 
-0.034344 -0.185722 1.018362 
-0.032751 -0.186456 1.022384 
-0.031133 -0.187119 1.026022 
-0.029485 -0.187669 1.029034 
-0.027796 -0.188011 1.030911 
-0.026076 -0.188176 1.031818 
-0.024343 -0.188258 1.032267 
-0.022593 -0.188223 1.032073 
-0.020836 -0.188110 1.031452 
-0.019085 -0.188043 1.031084 
-0.017346 -0.188083 1.031304 
-0.015608 -0.188150 1.031675 
-0.013875 -0.188307 1.032531 
-0.012146 -0.188552 1.033877 
-0.010415 -0.188868 1.035610 
-0.008679 -0.189172 1.037277 
-0.006938 -0.189514 1.039149 
-0.005189 -0.189806 1.040753 
-0.003436 -0.190160 1.042693 
-0.001677 -0.190571 1.044947 
0.000090 -0.191020 1.047409 
0.001865 -0.191450 1.049767 
0.003647 -0.191845 1.051932 
0.005433 -0.192118 1.053430 
0.007245 -0.192932 1.057894 
0.009108 -0.194542 1.066721 
0.014919 -0.201764 1.096132 
0.014895 -0.199580 1.094347 
0.016812 -0.200386 1.098768 
0.018675 -0.200441 1.099066 
0.020540 -0.200508 1.099435 
-0.086625 -0.181712 1.005721 
-0.084907 -0.181675 1.005516 
-0.083196 -0.181651 1.005380 
-0.081455 -0.181559 1.004871 
-0.079681 -0.181387 1.003923 
-0.077867 -0.181115 1.002413 
-0.076040 -0.180801 1.000679 
-0.074210 -0.180465 0.998816 
-0.072411 -0.180189 0.997289 
-0.070620 -0.179923 0.995817 
-0.068859 -0.179720 0.994697 
-0.067137 -0.179612 0.994095 
-0.065432 -0.179545 0.993728 
-0.063732 -0.179487 0.993406 
-0.062059 -0.179507 0.993518 
-0.060413 -0.179606 0.994066 
-0.058773 -0.179731 0.994756 
-0.057140 -0.179884 0.995600 
-0.055520 -0.180089 0.996739 
-0.053915 -0.180356 0.998213 
-0.052289 -0.180570 0.999397 
-0.050655 -0.180765 1.000480 
-0.049003 -0.180910 1.001284 
-0.047350 -0.181065 1.002138 
-0.045682 -0.181168 1.002707 
-0.044014 -0.181278 1.003317 
-0.042367 -0.181488 1.004481 
-0.040729 -0.181759 1.005981 
-0.039131 -0.182236 1.008622 
-0.037562 -0.182898 1.012282 
-0.036008 -0.183703 1.016741 
-0.034443 -0.184524 1.021285 
-0.032852 -0.185292 1.025535 
-0.031218 -0.185883 1.028805 
-0.029541 -0.186279 1.030996 
-0.027832 -0.186504 1.032241 
-0.026097 -0.186572 1.032618 
-0.024355 -0.186602 1.032783 
-0.022600 -0.186529 1.032379 
-0.020843 -0.186423 1.031794 
-0.019094 -0.186381 1.031559 
-0.017356 -0.186443 1.031903 
-0.015617 -0.186513 1.032291 
-0.013886 -0.186693 1.033288 
-0.012155 -0.186938 1.034642 
-0.010423 -0.187252 1.036382 
-0.008685 -0.187547 1.038017 
-0.006942 -0.187884 1.039879 
-0.005192 -0.188176 1.041496 
-0.003439 -0.188554 1.043587 
-0.001678 -0.188984 1.045969 
0.000090 -0.189430 1.048438 
0.001867 -0.189876 1.050904 
0.003651 -0.190263 1.053049 
0.005439 -0.190536 1.054557 
0.007251 -0.191294 1.058752 
0.009114 -0.192850 1.067364 
0.011007 -0.196242 1.076041 
0.011012 -0.194496 1.076473 
0.012939 -0.197974 1.085539 
0.012938 -0.196112 1.085418 
0.014887 -0.197631 1.093826 
0.016805 -0.198441 1.098308 
0.018669 -0.198515 1.098718 
0.020538 -0.198627 1.099339 
-0.086583 -0.179920 1.005235 
-0.084876 -0.179904 1.005142 
-0.083172 -0.179894 1.005086 
-0.081427 -0.179794 1.004527 
-0.079663 -0.179645 1.003694 
-0.077857 -0.179394 1.002293 
-0.076038 -0.179100 1.000653 
-0.074210 -0.178770 0.998809 
-0.072417 -0.178514 0.997375 
-0.070619 -0.178230 0.995793 
-0.068856 -0.178025 0.994646 
-0.067128 -0.177902 0.993957 
-0.065418 -0.177821 0.993507 
-0.063718 -0.177766 0.993196 
-0.062046 -0.177784 0.993297 
-0.060399 -0.177880 0.993837 
-0.058754 -0.177986 0.994426 
-0.057120 -0.178134 0.995257 
-0.055501 -0.178337 0.996390 
-0.053896 -0.178600 0.997856 
-0.052266 -0.178796 0.998955 
-0.050638 -0.179009 1.000143 
-0.048992 -0.179173 1.001060 
-0.047336 -0.179312 1.001834 
-0.045673 -0.179433 1.002513 
-0.044010 -0.179562 1.003235 
-0.042363 -0.179769 1.004389 
-0.040739 -0.180095 1.006212 
-0.039180 -0.180751 1.009876 
-0.037643 -0.181571 1.014459 
-0.036111 -0.182496 1.019626 
-0.034557 -0.183398 1.024664 
-0.032958 -0.184146 1.028846 
-0.031292 -0.184578 1.031259 
-0.029584 -0.184795 1.032468 
-0.027851 -0.184883 1.032961 
-0.026102 -0.184858 1.032820 
-0.024351 -0.184825 1.032639 
-0.022595 -0.184735 1.032137 
-0.020843 -0.184672 1.031785 
-0.019096 -0.184653 1.031676 
-0.017360 -0.184736 1.032140 
-0.015623 -0.184828 1.032655 
-0.013892 -0.185030 1.033781 
-0.012161 -0.185275 1.035150 
-0.010429 -0.185605 1.036996 
-0.008690 -0.185897 1.038626 
-0.006947 -0.186250 1.040602 
-0.005197 -0.186564 1.042352 
-0.003442 -0.186944 1.044477 
-0.001680 -0.187375 1.046886 
0.000090 -0.187814 1.049337 
0.001868 -0.188231 1.051670 
0.003653 -0.188595 1.053699 
0.005443 -0.188886 1.055326 
0.007266 -0.189898 1.060980 
0.009133 -0.191436 1.069576 
0.011032 -0.193023 1.078439 
0.012961 -0.194612 1.087320 
0.014910 -0.196076 1.095495 
0.016807 -0.196596 1.098401 
0.018670 -0.196667 1.098801 
0.020545 -0.196827 1.099696 
-0.086552 -0.178154 1.004880 
-0.084851 -0.178149 1.004856 
-0.083152 -0.178147 1.004845 
-0.081409 -0.178051 1.004300 
-0.079654 -0.177924 1.003586 
-0.077866 -0.177714 1.002402 
-0.076056 -0.177446 1.000890 
-0.074227 -0.177119 0.999047 
-0.072434 -0.176865 0.997610 
-0.070640 -0.176597 0.996100 
-0.068871 -0.176377 0.994858 
-0.067135 -0.176236 0.994066 
-0.065425 -0.176156 0.993616 
-0.063725 -0.176100 0.993297 
-0.062046 -0.176100 0.993297 
-0.060399 -0.176196 0.993837 
-0.058754 -0.176300 0.994426 
-0.057114 -0.176428 0.995147 
-0.055489 -0.176609 0.996167 
-0.053877 -0.176847 0.997509 
-0.052237 -0.177002 0.998387 
-0.050603 -0.177193 0.999462 
-0.048964 -0.177374 1.000485 
-0.047314 -0.177533 1.001379 
-0.045659 -0.177677 1.002191 
-0.044006 -0.177844 1.003133 
-0.042367 -0.178085 1.004493 
-0.040792 -0.178621 1.007518 
-0.039271 -0.179456 1.012224 
-0.037766 -0.180440 1.017780 
-0.036253 -0.181482 1.023656 
-0.034695 -0.182389 1.028768 
-0.033051 -0.182916 1.031743 
-0.031349 -0.183158 1.033111 
-0.029608 -0.183197 1.033328 
-0.027855 -0.183156 1.033094 
-0.026099 -0.183086 1.032704 
-0.024346 -0.183031 1.032395 
-0.022590 -0.182945 1.031906 
-0.020840 -0.182904 1.031676 
-0.019098 -0.182923 1.031785 
-0.017364 -0.183027 1.032367 
-0.015630 -0.183159 1.033112 
-0.013900 -0.183381 1.034364 
-0.012169 -0.183645 1.035856 
-0.010436 -0.183973 1.037705 
-0.008697 -0.184283 1.039455 
-0.006953 -0.184638 1.041457 
-0.005201 -0.184955 1.043244 
-0.003445 -0.185331 1.045365 
-0.001681 -0.185776 1.047874 
0.000090 -0.186190 1.050209 
0.001870 -0.186584 1.052433 
0.003656 -0.186943 1.054456 
0.005453 -0.187440 1.057259 
0.007287 -0.188650 1.064087 
0.009159 -0.190157 1.072587 
0.011062 -0.191724 1.081427 
0.012991 -0.193224 1.089886 
0.014924 -0.194396 1.096496 
0.016800 -0.194652 1.097943 
0.018665 -0.194744 1.098462 
0.020539 -0.194910 1.099395 
-0.088238 -0.176424 1.004730 
-0.086539 -0.176424 1.004730 
-0.084841 -0.176424 1.004730 
-0.083142 -0.176424 1.004730 
-0.081408 -0.176347 1.004292 
-0.079656 -0.176225 1.003601 
-0.077884 -0.176056 1.002638 
-0.076084 -0.175813 1.001251 
-0.074255 -0.175491 0.999421 
-0.072455 -0.175225 0.997902 
-0.070668 -0.174975 0.996482 
-0.068896 -0.174756 0.995231 
-0.067153 -0.174596 0.994324 
-0.065448 -0.174533 0.993961 
-0.063752 -0.174491 0.993725 
-0.062072 -0.174492 0.993728 
-0.060420 -0.174571 0.994178 
-0.058774 -0.174674 0.994763 
-0.057121 -0.174762 0.995267 
-0.055482 -0.174901 0.996057 
-0.053858 -0.175095 0.997161 
-0.052206 -0.175207 0.997798 
-0.050566 -0.175371 0.998733 
-0.048933 -0.175567 0.999851 
-0.047291 -0.175747 1.000876 
-0.045642 -0.175914 1.001828 
-0.044004 -0.176136 1.003094 
-0.042389 -0.176474 1.005014 
-0.040853 -0.177179 1.009030 
-0.039371 -0.178192 1.014803 
-0.037893 -0.179316 1.021204 
-0.036385 -0.180398 1.027363 
-0.034805 -0.181219 1.032037 
-0.033126 -0.181576 1.034070 
-0.031389 -0.181639 1.034429 
-0.029622 -0.181529 1.033806 
-0.027858 -0.181421 1.033189 
-0.026098 -0.181328 1.032662 
-0.024342 -0.181258 1.032262 
-0.022587 -0.181176 1.031793 
-0.020843 -0.181174 1.031785 
-0.019103 -0.181216 1.032019 
-0.017368 -0.181321 1.032618 
-0.015635 -0.181473 1.033484 
-0.013905 -0.181692 1.034734 
-0.012173 -0.181956 1.036234 
-0.010440 -0.182282 1.038094 
-0.008702 -0.182635 1.040103 
-0.006957 -0.182990 1.042124 
-0.005206 -0.183344 1.044143 
-0.003447 -0.183717 1.046263 
-0.001683 -0.184153 1.048746 
0.000090 -0.184541 1.050960 
0.001871 -0.184931 1.053177 
0.003658 -0.185249 1.054989 
0.005456 -0.185734 1.057754 
0.007287 -0.186849 1.064100 
0.009156 -0.188284 1.072276 
0.011056 -0.189786 1.080828 
0.012983 -0.191252 1.089177 
0.014913 -0.192392 1.095667 
0.016791 -0.192697 1.097408 
0.018658 -0.192814 1.098075 
0.020532 -0.192976 1.098993 
0.022552 -0.196252 1.106963 
0.022402 -0.193086 1.099619 
-0.088238 -0.174721 1.004730 
-0.086539 -0.174721 1.004730 
-0.084841 -0.174721 1.004730 
-0.083142 -0.174721 1.004730 
-0.081417 -0.174664 1.004403 
-0.079673 -0.174563 1.003826 
-0.077912 -0.174418 1.002990 
-0.076120 -0.174198 1.001725 
-0.074292 -0.173883 0.999917 
-0.072490 -0.173617 0.998382 
-0.070702 -0.173370 0.996965 
-0.068923 -0.173135 0.995614 
-0.067172 -0.172960 0.994608 
-0.065471 -0.172910 0.994320 
-0.063775 -0.172868 0.994078 
-0.062095 -0.172871 0.994095 
-0.060443 -0.172951 0.994553 
-0.058796 -0.173052 0.995137 
-0.057135 -0.173116 0.995503 
-0.055482 -0.173212 0.996056 
-0.053840 -0.173345 0.996821 
-0.052174 -0.173411 0.997199 
-0.050529 -0.173550 0.998001 
-0.048896 -0.173742 0.999105 
-0.047257 -0.173925 1.000158 
-0.045620 -0.174133 1.001353 
-0.044007 -0.174449 1.003171 
-0.042445 -0.175001 1.006343 
-0.040950 -0.175886 1.011434 
-0.039505 -0.177075 1.018269 
-0.038038 -0.178267 1.025124 
-0.036514 -0.179290 1.031005 
-0.034890 -0.179908 1.034558 
-0.033178 -0.180106 1.035698 
-0.031413 -0.180025 1.035236 
-0.029634 -0.179852 1.034240 
-0.027863 -0.179702 1.033377 
-0.026100 -0.179592 1.032744 
-0.024342 -0.179505 1.032246 
-0.022587 -0.179425 1.031785 
-0.020843 -0.179427 1.031793 
-0.019105 -0.179489 1.032153 
-0.017371 -0.179597 1.032771 
-0.015640 -0.179771 1.033774 
-0.013910 -0.180007 1.035128 
-0.012180 -0.180288 1.036748 
-0.010446 -0.180612 1.038608 
-0.008709 -0.181003 1.040856 
-0.006963 -0.181359 1.042904 
-0.005210 -0.181712 1.044937 
-0.003450 -0.182057 1.046919 
-0.001684 -0.182485 1.049381 
0.000090 -0.182850 1.051479 
0.001872 -0.183238 1.053710 
0.003659 -0.183531 1.055397 
0.005458 -0.184015 1.058180 
0.007298 -0.185324 1.065704 
0.009169 -0.186736 1.073827 
0.011070 -0.188183 1.082148 
0.012998 -0.189623 1.090425 
0.014928 -0.190734 1.096816 
0.016790 -0.190818 1.097297 
0.018656 -0.190934 1.097964 
0.020518 -0.190983 1.098248 
0.022370 -0.190947 1.098040 
-0.088238 -0.173017 1.004730 
-0.086539 -0.173017 1.004730 
-0.084841 -0.173017 1.004730 
-0.083134 -0.173000 1.004627 
-0.081409 -0.172944 1.004303 
-0.079666 -0.172845 1.003731 
-0.077914 -0.172723 1.003022 
-0.076130 -0.172524 1.001864 
-0.074318 -0.172249 1.000267 
-0.072522 -0.172001 0.998826 
-0.070741 -0.171775 0.997514 
-0.068954 -0.171525 0.996061 
-0.067195 -0.171333 0.994951 
-0.065494 -0.171285 0.994671 
-0.063798 -0.171244 0.994433 
-0.062119 -0.171252 0.994479 
-0.060467 -0.171332 0.994945 
-0.058818 -0.171428 0.995503 
-0.057148 -0.171469 0.995736 
-0.055482 -0.171524 0.996055 
-0.053822 -0.171598 0.996488 
-0.052145 -0.171622 0.996628 
-0.050494 -0.171737 0.997297 
-0.048857 -0.171910 0.998299 
-0.047215 -0.172077 0.999271 
-0.045595 -0.172339 1.000789 
-0.044026 -0.172823 1.003599 
-0.042507 -0.173547 1.007804 
-0.041052 -0.174605 1.013951 
-0.039624 -0.175875 1.021323 
-0.038139 -0.176996 1.027832 
-0.036578 -0.177853 1.032813 
-0.034920 -0.178306 1.035442 
-0.033181 -0.178366 1.035788 
-0.031410 -0.178252 1.035128 
-0.029632 -0.178085 1.034157 
-0.027860 -0.177935 1.033285 
-0.026097 -0.177822 1.032634 
-0.024339 -0.177736 1.032132 
-0.022584 -0.177657 1.031676 
-0.020843 -0.177678 1.031797 
-0.019107 -0.177761 1.032277 
-0.017375 -0.177890 1.033029 
-0.015646 -0.178084 1.034154 
-0.013917 -0.178339 1.035633 
-0.012187 -0.178637 1.037363 
-0.010452 -0.178958 1.039226 
-0.008714 -0.179346 1.041480 
-0.006967 -0.179698 1.043526 
-0.005213 -0.180049 1.045565 
-0.003452 -0.180391 1.047550 
-0.001685 -0.180817 1.050025 
0.000091 -0.181195 1.052221 
0.001873 -0.181582 1.054467 
0.003662 -0.181892 1.056264 
0.005468 -0.182567 1.060185 
0.007310 -0.183825 1.067491 
0.009181 -0.185160 1.075245 
0.011084 -0.186584 1.083511 
0.013012 -0.187984 1.091643 
0.014930 -0.188898 1.096952 
