1626
0.005287 -0.301646 1.025123 
0.007029 -0.302034 1.026440 
0.008773 -0.302314 1.027392 
0.010516 -0.302494 1.028005 
0.012264 -0.302742 1.028846 
0.014015 -0.302994 1.029705 
0.015764 -0.303154 1.030248 
0.017512 -0.303265 1.030626 
0.019252 -0.303227 1.030494 
0.020983 -0.303074 1.029975 
0.022706 -0.302821 1.029115 
0.024425 -0.302570 1.028262 
0.026136 -0.302251 1.027180 
0.027842 -0.301924 1.026067 
0.029538 -0.301528 1.024722 
0.031226 -0.301098 1.023260 
0.032912 -0.300704 1.021921 
0.034595 -0.300316 1.020602 
0.036287 -0.300033 1.019641 
0.037984 -0.299824 1.018931 
0.039693 -0.299720 1.018576 
0.041414 -0.299719 1.018575 
-0.054531 -0.304915 1.042236 
-0.052713 -0.304591 1.041130 
-0.050909 -0.304330 1.040237 
-0.049113 -0.304100 1.039449 
-0.047305 -0.303775 1.038339 
-0.045487 -0.303353 1.036897 
-0.043671 -0.302918 1.035410 
-0.041846 -0.302374 1.033551 
-0.040025 -0.301822 1.031664 
-0.038217 -0.301316 1.029935 
-0.036432 -0.300959 1.028714 
-0.034654 -0.300617 1.027544 
-0.032897 -0.300434 1.026920 
-0.031141 -0.300249 1.026288 
-0.029396 -0.300138 1.025908 
-0.027640 -0.299907 1.025120 
-0.025897 -0.299796 1.024737 
-0.024153 -0.299648 1.024232 
-0.022408 -0.299467 1.023616 
-0.020666 -0.299297 1.023033 
-0.018929 -0.299188 1.022662 
-0.017191 -0.299014 1.022064 
-0.015455 -0.298864 1.021552 
-0.013723 -0.298752 1.021170 
-0.011992 -0.298649 1.020818 
-0.010265 -0.298615 1.020704 
-0.008541 -0.298650 1.020822 
-0.006816 -0.298690 1.020957 
-0.005091 -0.298765 1.021216 
-0.003366 -0.298838 1.021465 
-0.001640 -0.298941 1.021816 
0.000088 -0.299143 1.022507 
0.001819 -0.299488 1.023686 
0.003553 -0.299821 1.024825 
0.005292 -0.300183 1.026061 
0.007035 -0.300530 1.027248 
0.008778 -0.300743 1.027976 
0.010521 -0.300888 1.028472 
0.012269 -0.301134 1.029311 
0.014020 -0.301355 1.030066 
0.015768 -0.301483 1.030506 
0.017514 -0.301559 1.030763 
0.019250 -0.301451 1.030394 
0.020972 -0.301165 1.029420 
0.022685 -0.300807 1.028194 
0.024394 -0.300446 1.026960 
0.026096 -0.300053 1.025617 
0.027794 -0.299660 1.024275 
0.029489 -0.299295 1.023025 
0.031177 -0.298899 1.021674 
0.032866 -0.298546 1.020466 
0.034554 -0.298230 1.019386 
0.036252 -0.298018 1.018660 
0.037951 -0.297842 1.018060 
0.039663 -0.297772 1.017821 
0.041393 -0.297836 1.018041 
0.043493 -0.302199 1.027002 
0.043130 -0.297946 1.018414 
-0.054518 -0.303079 1.041998 
-0.052711 -0.302816 1.041095 
-0.050909 -0.302567 1.040236 
-0.049114 -0.302341 1.039461 
-0.047316 -0.302085 1.038579 
-0.045508 -0.301733 1.037372 
-0.043698 -0.301349 1.036052 
-0.041877 -0.300846 1.034322 
-0.040055 -0.300299 1.032442 
-0.038244 -0.299782 1.030664 
-0.036454 -0.299389 1.029313 
-0.034666 -0.298983 1.027917 
-0.032905 -0.298770 1.027184 
-0.031149 -0.298581 1.026533 
-0.029399 -0.298433 1.026024 
-0.027643 -0.298200 1.025224 
-0.025903 -0.298125 1.024965 
-0.024161 -0.298012 1.024578 
-0.022416 -0.297844 1.023999 
-0.020673 -0.297672 1.023408 
-0.018936 -0.297557 1.023013 
-0.017196 -0.297383 1.022414 
-0.015461 -0.297245 1.021940 
-0.013730 -0.297174 1.021695 
-0.012000 -0.297107 1.021466 
-0.010272 -0.297076 1.021359 
-0.008546 -0.297109 1.021474 
-0.006822 -0.297211 1.021823 
-0.005096 -0.297320 1.022200 
-0.003369 -0.297431 1.022581 
-0.001641 -0.297566 1.023045 
0.000088 -0.297797 1.023840 
0.001820 -0.298045 1.024691 
0.003556 -0.298309 1.025599 
0.005295 -0.298600 1.026600 
0.007038 -0.298907 1.027653 
0.008780 -0.299080 1.028248 
0.010525 -0.299256 1.028853 
0.012274 -0.299500 1.029693 
0.014025 -0.299719 1.030446 
0.015771 -0.299805 1.030742 
0.017516 -0.299839 1.030859 
0.019245 -0.299629 1.030136 
0.020959 -0.299237 1.028788 
0.022663 -0.298771 1.027188 
0.024361 -0.298302 1.025574 
0.026055 -0.297845 1.024005 
0.027750 -0.297457 1.022668 
0.029450 -0.297168 1.021676 
0.031141 -0.296818 1.020474 
0.032834 -0.296533 1.019494 
0.034525 -0.296250 1.018521 
0.036225 -0.296072 1.017907 
0.037924 -0.295904 1.017330 
0.039639 -0.295867 1.017204 
0.041368 -0.295935 1.017435 
0.043104 -0.296047 1.017821 
-0.054486 -0.301133 1.041376 
-0.052706 -0.301022 1.040993 
-0.050910 -0.300811 1.040265 
-0.049115 -0.300589 1.039495 
-0.047323 -0.300364 1.038717 
-0.045524 -0.300082 1.037742 
-0.043724 -0.299770 1.036663 
-0.041907 -0.299311 1.035075 
-0.040084 -0.298767 1.033195 
-0.038270 -0.298243 1.031382 
-0.036474 -0.297812 1.029892 
-0.034682 -0.297374 1.028377 
-0.032920 -0.297162 1.027643 
-0.031163 -0.296973 1.026992 
-0.029412 -0.296824 1.026475 
-0.027655 -0.296591 1.025670 
-0.025917 -0.296551 1.025530 
-0.024175 -0.296446 1.025169 
-0.022432 -0.296312 1.024704 
-0.020687 -0.296136 1.024098 
-0.018949 -0.296023 1.023707 
-0.017208 -0.295851 1.023110 
-0.015473 -0.295750 1.022761 
-0.013743 -0.295717 1.022646 
-0.012013 -0.295686 1.022540 
-0.010284 -0.295686 1.022540 
-0.008556 -0.295717 1.022646 
-0.006830 -0.295818 1.022995 
-0.005102 -0.295928 1.023376 
-0.003373 -0.296044 1.023777 
-0.001643 -0.296150 1.024146 
0.000088 -0.296382 1.024946 
0.001822 -0.296595 1.025685 
0.003559 -0.296824 1.026475 
0.005299 -0.297106 1.027450 
0.007043 -0.297408 1.028493 
0.008786 -0.297548 1.028978 
0.010532 -0.297723 1.029584 
0.012281 -0.297931 1.030304 
0.014029 -0.298051 1.030720 
0.015772 -0.298061 1.030752 
0.017512 -0.298017 1.030603 
0.019233 -0.297699 1.029500 
0.020939 -0.297205 1.027795 
0.022635 -0.296662 1.025916 
0.024327 -0.296153 1.024154 
0.026016 -0.295666 1.022469 
0.027713 -0.295325 1.021293 
0.029416 -0.295088 1.020473 
0.031112 -0.294816 1.019531 
0.032808 -0.294569 1.018679 
0.034501 -0.294321 1.017821 
0.036200 -0.294146 1.017215 
0.037903 -0.294012 1.016753 
0.039617 -0.293979 1.016639 
0.041345 -0.294046 1.016870 
0.043080 -0.294154 1.017243 
0.045224 -0.298681 1.026878 
0.044842 -0.294432 1.018204 
-0.054502 -0.299459 1.041695 
-0.052714 -0.299301 1.041144 
-0.050911 -0.299053 1.040281 
-0.049116 -0.298831 1.039512 
-0.047328 -0.298638 1.038840 
-0.045530 -0.298362 1.037880 
-0.043730 -0.298053 1.036805 
-0.041918 -0.297635 1.035348 
-0.040095 -0.297092 1.033460 
-0.038277 -0.296542 1.031548 
-0.036479 -0.296105 1.030028 
-0.034690 -0.295698 1.028613 
-0.032928 -0.295490 1.027888 
-0.031171 -0.295308 1.027256 
-0.029423 -0.295193 1.026855 
-0.027668 -0.294994 1.026163 
-0.025933 -0.294987 1.026140 
-0.024193 -0.294922 1.025912 
-0.022451 -0.294822 1.025563 
-0.020705 -0.294648 1.024961 
-0.018966 -0.294560 1.024652 
-0.017224 -0.294388 1.024055 
-0.015488 -0.294292 1.023721 
-0.013757 -0.294292 1.023721 
-0.012026 -0.294292 1.023721 
-0.010296 -0.294292 1.023721 
-0.008565 -0.294292 1.023721 
-0.006836 -0.294359 1.023955 
-0.005106 -0.294435 1.024218 
-0.003376 -0.294517 1.024505 
-0.001644 -0.294593 1.024767 
0.000088 -0.294823 1.025568 
0.001823 -0.295033 1.026299 
0.003561 -0.295257 1.027077 
0.005302 -0.295535 1.028046 
0.007047 -0.295806 1.028986 
0.008791 -0.295947 1.029478 
0.010536 -0.296095 1.029992 
0.012283 -0.296237 1.030486 
0.014027 -0.296279 1.030634 
0.015768 -0.296243 1.030506 
0.017501 -0.296098 1.030004 
0.019217 -0.295712 1.028659 
0.020917 -0.295150 1.026705 
0.022608 -0.294565 1.024671 
0.024295 -0.294025 1.022793 
0.025985 -0.293576 1.021232 
0.027686 -0.293314 1.020317 
0.029395 -0.293151 1.019753 
0.031094 -0.292921 1.018950 
0.032793 -0.292708 1.018211 
0.034489 -0.292493 1.017463 
0.036188 -0.292323 1.016870 
0.037894 -0.292226 1.016533 
0.039613 -0.292226 1.016533 
0.041340 -0.292289 1.016753 
0.043069 -0.292358 1.016993 
0.044824 -0.292590 1.017802 
0.046999 -0.297186 1.027728 
0.046605 -0.292967 1.019112 
-0.056265 -0.297701 1.041722 
-0.054484 -0.297595 1.041350 
-0.052700 -0.297458 1.040873 
-0.050899 -0.297216 1.040024 
-0.049099 -0.296968 1.039157 
-0.047312 -0.296777 1.038489 
-0.045519 -0.296532 1.037632 
-0.043710 -0.296163 1.036339 
-0.041899 -0.295746 1.034882 
-0.040081 -0.295239 1.033106 
-0.038268 -0.294728 1.031317 
-0.036471 -0.294298 1.029815 
-0.034691 -0.293961 1.028633 
-0.032929 -0.293756 1.027919 
-0.031172 -0.293582 1.027309 
-0.029428 -0.293502 1.027028 
-0.027679 -0.293368 1.026561 
-0.025946 -0.293403 1.026681 
-0.024206 -0.293342 1.026470 
-0.022465 -0.293276 1.026236 
-0.020718 -0.293097 1.025612 
-0.018978 -0.293011 1.025310 
-0.017237 -0.292875 1.024835 
-0.015501 -0.292812 1.024616 
-0.013769 -0.292812 1.024616 
-0.012037 -0.292809 1.024604 
-0.010304 -0.292776 1.024488 
-0.008571 -0.292745 1.024380 
-0.006840 -0.292809 1.024603 
-0.005109 -0.292878 1.024846 
-0.003378 -0.292951 1.025099 
-0.001645 -0.293020 1.025342 
0.000088 -0.293246 1.026132 
0.001824 -0.293424 1.026756 
0.003563 -0.293645 1.027528 
0.005305 -0.293924 1.028506 
0.007050 -0.294196 1.029459 
0.008795 -0.294346 1.029983 
0.010540 -0.294457 1.030369 
0.012285 -0.294526 1.030613 
0.014025 -0.294490 1.030486 
0.015762 -0.294383 1.030112 
0.017491 -0.294171 1.029371 
0.019204 -0.293761 1.027934 
0.020900 -0.293170 1.025867 
0.022587 -0.292558 1.023724 
0.024273 -0.292020 1.021844 
0.025961 -0.291581 1.020308 
0.027665 -0.291358 1.019527 
0.029375 -0.291229 1.019075 
0.031080 -0.291058 1.018478 
0.032781 -0.290876 1.017840 
0.034481 -0.290700 1.017224 
0.036184 -0.290565 1.016753 
0.037894 -0.290503 1.016533 
0.039609 -0.290472 1.016428 
0.041331 -0.290500 1.016525 
0.043054 -0.290532 1.016636 
0.044803 -0.290726 1.017314 
0.046577 -0.291064 1.018497 
0.048425 -0.293556 1.021161 
0.048395 -0.291645 1.020530 
-0.058046 -0.296039 1.042086 
-0.056250 -0.295857 1.041447 
-0.054467 -0.295736 1.041019 
-0.052679 -0.295576 1.040457 
-0.050878 -0.295334 1.039606 
-0.049075 -0.295057 1.038631 
-0.047289 -0.294873 1.037983 
-0.045497 -0.294628 1.037120 
-0.043683 -0.294223 1.035696 
-0.041872 -0.293799 1.034203 
-0.040059 -0.293329 1.032547 
-0.038253 -0.292865 1.030914 
-0.036459 -0.292451 1.029457 
-0.034686 -0.292181 1.028509 
-0.032925 -0.291980 1.027799 
-0.031169 -0.291808 1.027193 
-0.029428 -0.291763 1.027036 
-0.027688 -0.291729 1.026916 
-0.025959 -0.291805 1.027183 
-0.024223 -0.291815 1.027217 
-0.022487 -0.291810 1.027200 
-0.020740 -0.291665 1.026691 
-0.018999 -0.291581 1.026393 
-0.017257 -0.291480 1.026039 
-0.015520 -0.291421 1.025832 
-0.013785 -0.291421 1.025832 
-0.012050 -0.291385 1.025705 
-0.010313 -0.291316 1.025460 
-0.008578 -0.291249 1.025225 
-0.006845 -0.291277 1.025324 
-0.005112 -0.291281 1.025340 
-0.003379 -0.291316 1.025462 
-0.001646 -0.291348 1.025574 
0.000088 -0.291537 1.026239 
0.001824 -0.291684 1.026756 
0.003563 -0.291936 1.027645 
0.005306 -0.292251 1.028752 
0.007053 -0.292557 1.029829 
0.008799 -0.292738 1.030467 
0.010544 -0.292808 1.030714 
0.012286 -0.292805 1.030703 
0.014023 -0.292690 1.030300 
0.015755 -0.292518 1.029693 
0.017480 -0.292248 1.028743 
0.019193 -0.291845 1.027323 
0.020887 -0.291258 1.025259 
0.022576 -0.290687 1.023247 
0.024262 -0.290158 1.021385 
0.025952 -0.289756 1.019972 
0.027656 -0.289534 1.019189 
0.029365 -0.289401 1.018720 
0.031069 -0.289228 1.018113 
0.032773 -0.289077 1.017581 
0.034469 -0.288878 1.016879 
0.036176 -0.288777 1.016525 
0.037886 -0.288716 1.016311 
0.039596 -0.288653 1.016088 
0.041308 -0.288619 1.015967 
0.043030 -0.288644 1.016057 
0.044773 -0.288807 1.016629 
0.046546 -0.289143 1.017814 
0.048363 -0.289724 1.019857 
-0.058057 -0.294328 1.042284 
-0.056261 -0.294146 1.041641 
-0.054476 -0.294021 1.041197 
-0.052676 -0.293796 1.040401 
-0.050869 -0.293519 1.039420 
-0.049061 -0.293214 1.038339 
-0.047266 -0.292969 1.037471 
-0.045458 -0.292623 1.036246 
-0.043640 -0.292177 1.034666 
-0.041825 -0.291719 1.033045 
-0.040019 -0.291286 1.031511 
-0.038225 -0.290901 1.030150 
-0.036445 -0.290598 1.029075 
-0.034682 -0.290397 1.028364 
-0.032923 -0.290224 1.027752 
-0.031167 -0.290048 1.027127 
-0.029429 -0.290035 1.027082 
-0.027694 -0.290045 1.027117 
-0.025968 -0.290161 1.027527 
-0.024235 -0.290209 1.027697 
-0.022502 -0.290266 1.027900 
-0.020756 -0.290155 1.027507 
-0.019016 -0.290110 1.027347 
-0.017276 -0.290048 1.027127 
-0.015538 -0.290025 1.027045 
-0.013802 -0.290025 1.027045 
-0.012064 -0.289982 1.026895 
-0.010324 -0.289877 1.026523 
-0.008586 -0.289803 1.026260 
-0.006851 -0.289768 1.026137 
-0.005115 -0.289707 1.025921 
-0.003380 -0.289678 1.025816 
-0.001646 -0.289673 1.025801 
0.000088 -0.289800 1.026248 
0.001824 -0.289943 1.026756 
0.003563 -0.290228 1.027765 
0.005307 -0.290576 1.028997 
0.007054 -0.290888 1.030104 
0.008801 -0.291065 1.030730 
0.010545 -0.291100 1.030852 
0.012284 -0.291021 1.030573 
0.014018 -0.290839 1.029930 
0.015749 -0.290662 1.029302 
0.017472 -0.290364 1.028248 
0.019186 -0.289996 1.026945 
0.020882 -0.289448 1.025002 
0.022573 -0.288914 1.023110 
0.024256 -0.288361 1.021155 
0.025949 -0.287992 1.019846 
0.027649 -0.287735 1.018938 
0.029355 -0.287571 1.018355 
0.031057 -0.287395 1.017734 
0.032765 -0.287281 1.017330 
0.034461 -0.287086 1.016639 
0.036171 -0.287021 1.016407 
0.037885 -0.286987 1.016287 
0.039590 -0.286891 1.015946 
0.041297 -0.286820 1.015697 
0.043018 -0.286841 1.015769 
0.044761 -0.287006 1.016356 
0.046535 -0.287350 1.017575 
0.048353 -0.287935 1.019644 
-0.058042 -0.292486 1.042017 
-0.056244 -0.292296 1.041339 
-0.054459 -0.292161 1.040857 
-0.052648 -0.291876 1.039842 
-0.050841 -0.291595 1.038841 
-0.049022 -0.291224 1.037521 
-0.047223 -0.290943 1.036518 
-0.045405 -0.290528 1.035041 
-0.043587 -0.290074 1.033423 
-0.041774 -0.289613 1.031780 
-0.039980 -0.289255 1.030505 
-0.038198 -0.288950 1.029419 
-0.036433 -0.288753 1.028716 
-0.034677 -0.288617 1.028232 
-0.032922 -0.288471 1.027713 
-0.031166 -0.288297 1.027092 
-0.029428 -0.288285 1.027050 
-0.027696 -0.288328 1.027204 
-0.025971 -0.288449 1.027635 
-0.024240 -0.288532 1.027928 
-0.022510 -0.288624 1.028259 
-0.020766 -0.288554 1.028007 
-0.019026 -0.288517 1.027875 
-0.017287 -0.288488 1.027772 
-0.015548 -0.288463 1.027683 
-0.013810 -0.288463 1.027683 
-0.012071 -0.288424 1.027544 
-0.010330 -0.288317 1.027164 
-0.008592 -0.288238 1.026883 
-0.006855 -0.288199 1.026744 
-0.005118 -0.288136 1.026518 
-0.003382 -0.288107 1.026414 
-0.001647 -0.288098 1.026383 
0.000088 -0.288220 1.026819 
0.001825 -0.288332 1.027216 
0.003565 -0.288615 1.028225 
0.005309 -0.288931 1.029350 
0.007056 -0.289213 1.030357 
0.008802 -0.289358 1.030872 
0.010545 -0.289359 1.030877 
0.012282 -0.289214 1.030360 
0.014015 -0.289029 1.029701 
0.015746 -0.288850 1.029062 
0.017466 -0.288526 1.027908 
0.019181 -0.288188 1.026702 
0.020882 -0.287705 1.024983 
0.022575 -0.287208 1.023212 
0.024259 -0.286662 1.021269 
0.025955 -0.286323 1.020060 
0.027654 -0.286059 1.019118 
0.029360 -0.285895 1.018536 
0.031063 -0.285724 1.017927 
0.032775 -0.285648 1.017655 
0.034476 -0.285486 1.017079 
0.036191 -0.285452 1.016958 
0.037905 -0.285415 1.016823 
0.039680 -0.285819 1.018263 
0.041469 -0.286281 1.019910 
0.043204 -0.286357 1.020180 
0.044950 -0.286489 1.020653 
0.046713 -0.286724 1.021487 
0.048489 -0.287012 1.022516 
0.050579 -0.290825 1.029879 
0.050281 -0.287371 1.023794 
-0.058021 -0.290611 1.041626 
-0.056223 -0.290422 1.040951 
-0.054437 -0.290279 1.040438 
-0.052626 -0.289992 1.039408 
-0.050813 -0.289675 1.038271 
-0.048978 -0.289203 1.036581 
-0.047168 -0.288851 1.035318 
-0.045346 -0.288396 1.033687 
-0.043530 -0.287942 1.032060 
-0.041724 -0.287522 1.030557 
-0.039947 -0.287273 1.029663 
-0.038180 -0.287073 1.028945 
-0.036421 -0.286917 1.028387 
-0.034670 -0.286816 1.028023 
-0.032916 -0.286677 1.027525 
-0.031163 -0.286531 1.027003 
-0.029426 -0.286522 1.026971 
-0.027697 -0.286594 1.027228 
-0.025971 -0.286712 1.027651 
-0.024243 -0.286821 1.028044 
-0.022513 -0.286917 1.028387 
-0.020772 -0.286884 1.028268 
-0.019035 -0.286912 1.028368 
-0.017299 -0.286947 1.028493 
-0.015560 -0.286953 1.028516 
-0.013823 -0.286983 1.028625 
-0.012083 -0.286947 1.028493 
-0.010339 -0.286814 1.028016 
-0.008598 -0.286710 1.027645 
-0.006860 -0.286666 1.027487 
-0.005121 -0.286574 1.027158 
-0.003384 -0.286538 1.027027 
-0.001648 -0.286531 1.027004 
0.000088 -0.286653 1.027441 
0.001826 -0.286763 1.027834 
0.003567 -0.287041 1.028831 
0.005312 -0.287320 1.029833 
0.007059 -0.287596 1.030819 
0.008805 -0.287706 1.031214 
0.010549 -0.287706 1.031214 
0.012285 -0.287533 1.030594 
0.014018 -0.287348 1.029930 
0.015748 -0.287139 1.029182 
0.017468 -0.286816 1.028024 
0.019181 -0.286452 1.026720 
0.020884 -0.286001 1.025104 
0.022581 -0.285542 1.023457 
0.024265 -0.285004 1.021529 
0.025961 -0.284667 1.020321 
0.027660 -0.284401 1.019368 
0.029370 -0.284266 1.018884 
0.031074 -0.284102 1.018297 
0.032791 -0.284064 1.018159 
0.034501 -0.283967 1.017811 
0.036225 -0.283993 1.017906 
0.037942 -0.283963 1.017797 
0.039793 -0.284902 1.021164 
0.041673 -0.285955 1.024940 
0.043496 -0.286549 1.027066 
0.045322 -0.287115 1.029098 
0.047137 -0.287576 1.030750 
0.048876 -0.287553 1.030667 
0.050631 -0.287626 1.030929 
-0.058016 -0.288822 1.041544 
-0.056221 -0.288647 1.040911 
-0.054429 -0.288474 1.040288 
-0.052606 -0.288123 1.039023 
-0.050781 -0.287736 1.037626 
-0.048935 -0.287193 1.035670 
-0.047115 -0.286774 1.034156 
-0.045290 -0.286290 1.032412 
-0.043487 -0.285908 1.031034 
-0.041694 -0.285566 1.029802 
-0.039929 -0.285394 1.029182 
-0.038172 -0.285266 1.028719 
-0.036417 -0.285144 1.028279 
-0.034670 -0.285074 1.028027 
-0.032920 -0.284970 1.027652 
-0.031172 -0.284867 1.027279 
-0.029435 -0.284863 1.027265 
-0.027707 -0.284957 1.027606 
-0.025977 -0.285036 1.027891 
-0.024248 -0.285141 1.028268 
-0.022517 -0.285236 1.028611 
-0.020781 -0.285266 1.028719 
-0.019046 -0.285331 1.028953 
-0.017311 -0.285400 1.029202 
-0.015571 -0.285408 1.029230 
-0.013834 -0.285468 1.029447 
-0.012092 -0.285435 1.029329 
-0.010349 -0.285338 1.028978 
-0.008607 -0.285269 1.028731 
-0.006867 -0.285229 1.028587 
-0.005126 -0.285103 1.028132 
-0.003387 -0.285037 1.027892 
-0.001649 -0.285000 1.027760 
0.000088 -0.285093 1.028096 
0.001827 -0.285204 1.028495 
0.003569 -0.285446 1.029370 
0.005314 -0.285683 1.030225 
0.007061 -0.285917 1.031068 
0.008806 -0.285990 1.031330 
0.010549 -0.285960 1.031222 
0.012285 -0.285789 1.030606 
0.014018 -0.285606 1.029946 
0.015746 -0.285370 1.029095 
0.017466 -0.285047 1.027929 
0.019179 -0.284683 1.026617 
0.020884 -0.284268 1.025119 
0.022582 -0.283820 1.023503 
0.024269 -0.283323 1.021712 
0.025966 -0.282989 1.020507 
0.027671 -0.282782 1.019762 
0.029384 -0.282680 1.019394 
0.031094 -0.282558 1.018955 
0.032817 -0.282555 1.018942 
0.034535 -0.282521 1.018819 
0.036261 -0.282550 1.018926 
0.037981 -0.282529 1.018848 
0.039916 -0.284046 1.024321 
0.041893 -0.285718 1.030349 
0.043820 -0.286927 1.034710 
0.045730 -0.287939 1.038360 
0.049301 -0.288290 1.039625 
0.051023 -0.288091 1.038906 
-0.059810 -0.287213 1.042112 
-0.058039 -0.287169 1.041952 
-0.056238 -0.286970 1.041228 
-0.054425 -0.286692 1.040222 
-0.052585 -0.286247 1.038606 
-0.050748 -0.285791 1.036951 
-0.048891 -0.285181 1.034738 
-0.047061 -0.284697 1.032981 
-0.045239 -0.284221 1.031255 
-0.043449 -0.283913 1.030137 
-0.041669 -0.283652 1.029191 
-0.039915 -0.283554 1.028836 
-0.038168 -0.283492 1.028611 
-0.036420 -0.283427 1.028375 
-0.034677 -0.283390 1.028239 
-0.032931 -0.283318 1.027979 
-0.031186 -0.283256 1.027752 
-0.029448 -0.283253 1.027742 
-0.027718 -0.283323 1.027997 
-0.025983 -0.283362 1.028139 
-0.024251 -0.283431 1.028387 
-0.022517 -0.283492 1.028611 
-0.020781 -0.283524 1.028728 
-0.019048 -0.283623 1.029086 
-0.017315 -0.283730 1.029475 
-0.015577 -0.283776 1.029642 
-0.013841 -0.283870 1.029983 
-0.012101 -0.283893 1.030066 
-0.010357 -0.283833 1.029847 
-0.008615 -0.283796 1.029713 
-0.006874 -0.283761 1.029586 
-0.005131 -0.283631 1.029115 
-0.003390 -0.283531 1.028751 
-0.001650 -0.283460 1.028493 
0.000089 -0.283523 1.028722 
0.001828 -0.283634 1.029125 
0.003571 -0.283844 1.029887 
0.005316 -0.284047 1.030624 
0.007063 -0.284239 1.031321 
0.008807 -0.284275 1.031451 
0.010550 -0.284243 1.031334 
0.012286 -0.284076 1.030730 
0.014020 -0.283898 1.030084 
0.015748 -0.283658 1.029210 
0.017468 -0.283332 1.028028 
0.019179 -0.282938 1.026601 
0.020886 -0.282558 1.025221 
0.022584 -0.282117 1.023622 
0.024275 -0.281659 1.021960 
0.025973 -0.281329 1.020760 
0.027681 -0.281155 1.020132 
0.029396 -0.281060 1.019785 
0.031110 -0.280975 1.019478 
0.032834 -0.280978 1.019487 
0.034561 -0.281003 1.019577 
0.036288 -0.281035 1.019695 
0.038081 -0.281541 1.021529 
0.040106 -0.283650 1.029183 
0.042184 -0.285944 1.037508 
0.044202 -0.287662 1.043739 
-0.059823 -0.285510 1.042343 
-0.058040 -0.285407 1.041966 
-0.056232 -0.285174 1.041115 
-0.054395 -0.284769 1.039637 
-0.052543 -0.284256 1.037766 
-0.050700 -0.283762 1.035961 
-0.048843 -0.283150 1.033729 
-0.047016 -0.282674 1.031988 
-0.045207 -0.282269 1.030511 
-0.043428 -0.282032 1.029644 
-0.041659 -0.281840 1.028944 
-0.039911 -0.281778 1.028719 
-0.038168 -0.281749 1.028611 
-0.036420 -0.281684 1.028375 
-0.034681 -0.281676 1.028347 
-0.032938 -0.281638 1.028206 
-0.031197 -0.281612 1.028111 
-0.029459 -0.281615 1.028124 
-0.027727 -0.281681 1.028363 
-0.025989 -0.281685 1.028379 
-0.024254 -0.281719 1.028503 
-0.022517 -0.281749 1.028611 
-0.020781 -0.281782 1.028731 
-0.019051 -0.281913 1.029209 
-0.017320 -0.282058 1.029739 
-0.015583 -0.282138 1.030031 
-0.013848 -0.282265 1.030498 
-0.012108 -0.282320 1.030698 
-0.010365 -0.282292 1.030594 
-0.008622 -0.282262 1.030486 
-0.006880 -0.282259 1.030473 
-0.005136 -0.282158 1.030104 
-0.003393 -0.282050 1.029712 
-0.001652 -0.281944 1.029323 
0.000089 -0.281999 1.029523 
0.001830 -0.282077 1.029810 
0.003572 -0.282228 1.030360 
0.005318 -0.282399 1.030985 
0.007064 -0.282556 1.031559 
0.008808 -0.282558 1.031567 
0.010550 -0.282496 1.031339 
0.012286 -0.282331 1.030736 
0.014020 -0.282152 1.030082 
0.015746 -0.281882 1.029097 
0.017464 -0.281524 1.027790 
0.019174 -0.281124 1.026332 
0.020881 -0.280750 1.024967 
0.022579 -0.280315 1.023376 
0.024275 -0.279921 1.021939 
0.025975 -0.279620 1.020841 
0.027687 -0.279483 1.020340 
0.029405 -0.279421 1.020114 
0.031124 -0.279373 1.019938 
0.032849 -0.279375 1.019945 
0.034580 -0.279428 1.020138 
0.036312 -0.279488 1.020359 
0.038115 -0.280059 1.022441 
0.040224 -0.282733 1.032203 
0.042399 -0.285633 1.042792 
0.044514 -0.287908 1.051098 
0.046201 -0.289131 1.049071 
0.046602 -0.289841 1.058155 
0.048072 -0.289715 1.051188 
0.048489 -0.290432 1.060311 
0.054050 -0.293225 1.063924 
0.051839 -0.289119 1.055517 
0.053996 -0.291132 1.062870 
-0.059838 -0.283814 1.042604 
-0.058043 -0.283656 1.042023 
-0.056234 -0.283417 1.041146 
-0.054383 -0.282944 1.039409 
-0.052530 -0.282427 1.037508 
-0.050687 -0.281935 1.035700 
-0.048836 -0.281360 1.033590 
-0.047006 -0.280863 1.031762 
-0.045202 -0.280492 1.030401 
-0.043423 -0.280257 1.029536 
-0.041655 -0.280066 1.028836 
-0.039907 -0.280005 1.028611 
-0.038168 -0.280005 1.028611 
-0.036421 -0.279944 1.028387 
-0.034682 -0.279938 1.028366 
-0.032939 -0.279906 1.028248 
-0.031201 -0.279907 1.028250 
-0.029463 -0.279912 1.028268 
-0.027731 -0.279973 1.028495 
-0.025993 -0.279976 1.028503 
-0.024259 -0.280034 1.028719 
-0.022522 -0.280066 1.028836 
-0.020788 -0.280131 1.029073 
-0.019059 -0.280292 1.029664 
-0.017329 -0.280462 1.030291 
-0.015592 -0.280548 1.030606 
-0.013858 -0.280708 1.031193 
-0.012118 -0.280802 1.031537 
-0.010373 -0.280776 1.031443 
-0.008629 -0.280749 1.031343 
-0.006885 -0.280743 1.031323 
-0.005139 -0.280614 1.030848 
-0.003395 -0.280478 1.030350 
-0.001652 -0.280336 1.029828 
0.000089 -0.280354 1.029893 
0.001830 -0.280424 1.030151 
0.003573 -0.280542 1.030585 
0.005318 -0.280684 1.031105 
0.007064 -0.280810 1.031567 
0.008807 -0.280778 1.031451 
0.010547 -0.280682 1.031097 
0.012282 -0.280488 1.030385 
0.014014 -0.280284 1.029635 
0.015737 -0.279981 1.028524 
0.017454 -0.279618 1.027191 
0.019161 -0.279191 1.025620 
0.020869 -0.278847 1.024358 
0.022568 -0.278447 1.022886 
0.024271 -0.278148 1.021788 
0.025974 -0.277884 1.020821 
0.027692 -0.277808 1.020540 
0.029414 -0.277776 1.020423 
0.031137 -0.277755 1.020347 
0.032862 -0.277759 1.020359 
0.034597 -0.277842 1.020664 
0.036331 -0.277902 1.020885 
0.038141 -0.278518 1.023149 
0.040195 -0.280784 1.031474 
0.042378 -0.283722 1.042265 
0.044562 -0.286436 1.052236 
0.046734 -0.288869 1.061172 
0.048692 -0.289842 1.064747 
0.050162 -0.289744 1.057801 
0.050402 -0.289328 1.062858 
0.052114 -0.288855 1.061121 
0.053847 -0.288530 1.059927 
-0.059855 -0.282129 1.042909 
-0.058049 -0.281917 1.042126 
-0.056233 -0.281649 1.041134 
-0.054370 -0.281115 1.039161 
-0.052517 -0.280603 1.037267 
-0.050682 -0.280149 1.035590 
-0.048843 -0.279648 1.033738 
-0.047019 -0.279191 1.032046 
-0.045220 -0.278857 1.030811 
-0.043439 -0.278613 1.029910 
-0.041664 -0.278386 1.029073 
-0.039911 -0.278291 1.028719 
-0.038168 -0.278261 1.028611 
-0.036425 -0.278232 1.028503 
-0.034686 -0.278230 1.028495 
-0.032947 -0.278229 1.028491 
-0.031208 -0.278230 1.028495 
-0.029470 -0.278232 1.028503 
-0.027734 -0.278261 1.028611 
-0.025995 -0.278261 1.028611 
-0.024262 -0.278322 1.028836 
-0.022528 -0.278389 1.029082 
-0.020795 -0.278487 1.029447 
-0.019066 -0.278650 1.030047 
-0.017335 -0.278815 1.030658 
-0.015599 -0.278925 1.031065 
-0.013864 -0.279088 1.031666 
-0.012126 -0.279219 1.032150 
-0.010382 -0.279257 1.032291 
-0.008638 -0.279289 1.032408 
-0.006892 -0.279283 1.032388 
-0.005145 -0.279185 1.032025 
-0.003399 -0.279053 1.031538 
-0.001654 -0.278887 1.030923 
0.000089 -0.278868 1.030855 
0.001831 -0.278871 1.030865 
0.003575 -0.278921 1.031049 
0.005319 -0.278968 1.031223 
0.007063 -0.278998 1.031335 
0.008802 -0.278870 1.030861 
0.010538 -0.278678 1.030152 
0.012268 -0.278420 1.029198 
0.013996 -0.278183 1.028322 
0.015718 -0.277886 1.027224 
0.017432 -0.277527 1.025897 
0.019140 -0.277159 1.024535 
0.020851 -0.276876 1.023490 
0.022555 -0.276549 1.022281 
0.024266 -0.276350 1.021544 
0.025980 -0.276218 1.021056 
0.027708 -0.276237 1.021127 
0.029435 -0.276238 1.021132 
0.031165 -0.276274 1.021266 
0.032892 -0.276278 1.021278 
0.034621 -0.276303 1.021372 
0.036352 -0.276332 1.021479 
0.038162 -0.276934 1.023704 
0.040143 -0.278675 1.030139 
0.044511 -0.284329 1.051041 
0.046691 -0.286805 1.060193 
0.048672 -0.287917 1.064304 
0.050413 -0.287585 1.063076 
0.052158 -0.287302 1.062032 
0.053913 -0.287086 1.061233 
0.055969 -0.290240 1.066210 
0.055680 -0.286948 1.060720 
-0.059865 -0.280408 1.043081 
-0.058050 -0.280156 1.042146 
-0.056230 -0.279868 1.041074 
-0.054361 -0.279308 1.038992 
-0.052516 -0.278840 1.037249 
-0.050688 -0.278430 1.035725 
-0.048863 -0.278006 1.034147 
-0.047043 -0.277586 1.032585 
-0.045243 -0.277250 1.031334 
-0.043456 -0.276971 1.030297 
-0.041674 -0.276708 1.029319 
-0.039915 -0.276578 1.028836 
-0.038168 -0.276518 1.028611 
-0.036429 -0.276518 1.028611 
-0.034690 -0.276518 1.028611 
-0.032951 -0.276518 1.028611 
-0.031212 -0.276518 1.028611 
-0.029473 -0.276518 1.028611 
-0.027734 -0.276518 1.028611 
-0.025995 -0.276518 1.028611 
-0.024264 -0.276611 1.028956 
-0.022533 -0.276713 1.029338 
-0.020802 -0.276824 1.029749 
-0.019072 -0.276987 1.030357 
-0.017340 -0.277146 1.030948 
-0.015604 -0.277276 1.031431 
-0.013869 -0.277441 1.032045 
-0.012132 -0.277608 1.032665 
-0.010389 -0.277683 1.032947 
-0.008644 -0.277744 1.033173 
-0.006897 -0.277735 1.033139 
-0.005150 -0.277669 1.032894 
-0.003402 -0.277574 1.032539 
-0.001656 -0.277414 1.031943 
0.000089 -0.277396 1.031878 
0.001833 -0.277330 1.031632 
0.003577 -0.277308 1.031553 
0.005319 -0.277255 1.031353 
0.007061 -0.277183 1.031087 
0.008797 -0.276951 1.030223 
0.010528 -0.276684 1.029229 
0.012254 -0.276360 1.028023 
0.013978 -0.276095 1.027037 
0.015700 -0.275829 1.026048 
0.017412 -0.275477 1.024742 
0.019121 -0.275147 1.023512 
0.020833 -0.274906 1.022615 
0.022543 -0.274678 1.021766 
0.024260 -0.274561 1.021332 
0.025987 -0.274565 1.021345 
0.027723 -0.274657 1.021691 
0.029457 -0.274721 1.021926 
0.031193 -0.274791 1.022187 
0.032925 -0.274824 1.022310 
0.034653 -0.274821 1.022300 
0.036385 -0.274847 1.022396 
0.038191 -0.275412 1.024498 
0.040091 -0.276570 1.028806 
0.042167 -0.278793 1.037075 
0.046503 -0.283861 1.055928 
0.048514 -0.285188 1.060863 
0.050352 -0.285437 1.061790 
0.052183 -0.285637 1.062534 
0.053960 -0.285533 1.062147 
0.055736 -0.285433 1.061774 
0.057844 -0.288797 1.067556 
0.057506 -0.285308 1.061311 
-0.061650 -0.278736 1.043441 
-0.059847 -0.278557 1.042772 
-0.058031 -0.278299 1.041807 
-0.056209 -0.278001 1.040690 
-0.054348 -0.277478 1.038734 
-0.052516 -0.277078 1.037235 
-0.050695 -0.276709 1.035854 
-0.048881 -0.276353 1.034523 
-0.047066 -0.275970 1.033089 
-0.045265 -0.275636 1.031838 
-0.043472 -0.275328 1.030685 
-0.041684 -0.275029 1.029564 
-0.039920 -0.274866 1.028956 
-0.038168 -0.274774 1.028611 
-0.036429 -0.274774 1.028611 
-0.034693 -0.274803 1.028719 
-0.032955 -0.274805 1.028728 
-0.031219 -0.274835 1.028839 
-0.029480 -0.274836 1.028844 
-0.027740 -0.274835 1.028839 
-0.026001 -0.274834 1.028836 
-0.024273 -0.274958 1.029298 
-0.022541 -0.275066 1.029705 
-0.020812 -0.275211 1.030248 
-0.019083 -0.275404 1.030969 
-0.017350 -0.275561 1.031557 
-0.015614 -0.275689 1.032036 
-0.013879 -0.275884 1.032764 
-0.012142 -0.276086 1.033522 
-0.010398 -0.276195 1.033930 
-0.008654 -0.276290 1.034286 
-0.006906 -0.276314 1.034377 
-0.005156 -0.276279 1.034246 
-0.003407 -0.276219 1.034021 
-0.001658 -0.276064 1.033439 
0.000089 -0.276047 1.033378 
0.001835 -0.275945 1.032994 
0.003580 -0.275826 1.032547 
0.005322 -0.275636 1.031838 
0.007061 -0.275429 1.031062 
0.008792 -0.275059 1.029677 
0.010518 -0.274662 1.028192 
0.012238 -0.274271 1.026727 
0.013959 -0.273973 1.025612 
0.015678 -0.273717 1.024653 
0.017389 -0.273376 1.023376 
0.019100 -0.273114 1.022397 
0.020813 -0.272910 1.021634 
0.022530 -0.272784 1.021162 
0.024255 -0.272769 1.021104 
0.025994 -0.272905 1.021614 
0.027741 -0.273101 1.022347 
0.029487 -0.273266 1.022967 
0.031229 -0.273369 1.023352 
0.032966 -0.273432 1.023587 
0.034696 -0.273427 1.023567 
0.036429 -0.273446 1.023639 
0.038170 -0.273520 1.023918 
0.039981 -0.274071 1.025979 
0.048203 -0.281573 1.054063 
0.050154 -0.282525 1.057625 
0.052080 -0.283277 1.060443 
0.053945 -0.283655 1.061857 
0.055797 -0.283943 1.062936 
0.057560 -0.283776 1.062310 
0.059658 -0.287030 1.067717 
0.059298 -0.283499 1.061272 
-0.061677 -0.277091 1.043907 
-0.059878 -0.276929 1.043298 
-0.058056 -0.276655 1.042266 
-0.056228 -0.276330 1.041044 
-0.054372 -0.275839 1.039193 
-0.052544 -0.275471 1.037805 
-0.050723 -0.275108 1.036439 
-0.048908 -0.274756 1.035111 
-0.047098 -0.274403 1.033780 
-0.045295 -0.274071 1.032529 
-0.043497 -0.273738 1.031276 
-0.041704 -0.273412 1.030047 
-0.039938 -0.273245 1.029419 
-0.038176 -0.273090 1.028836 
-0.036433 -0.273059 1.028719 
-0.034694 -0.273061 1.028728 
-0.032955 -0.273065 1.028740 
-0.031220 -0.273098 1.028864 
-0.029480 -0.273099 1.028870 
-0.027744 -0.273126 1.028972 
-0.026007 -0.273155 1.029082 
-0.024281 -0.273310 1.029664 
-0.022554 -0.273477 1.030292 
-0.020828 -0.273680 1.031058 
-0.019099 -0.273876 1.031795 
-0.017364 -0.274033 1.032388 
-0.015628 -0.274191 1.032982 
-0.013892 -0.274388 1.033724 
-0.012153 -0.274594 1.034503 
-0.010410 -0.274736 1.035038 
-0.008664 -0.274863 1.035517 
-0.006914 -0.274892 1.035623 
-0.005163 -0.274860 1.035505 
-0.003412 -0.274832 1.035396 
-0.001660 -0.274679 1.034822 
0.000089 -0.274664 1.034764 
0.001837 -0.274530 1.034259 
0.003583 -0.274343 1.033556 
0.005325 -0.274024 1.032353 
0.007061 -0.273684 1.031074 
0.008787 -0.273155 1.029081 
0.010507 -0.272632 1.027108 
0.012221 -0.272149 1.025290 
0.013936 -0.271793 1.023951 
0.015653 -0.271540 1.022998 
0.017365 -0.271263 1.021951 
0.019079 -0.271069 1.021223 
0.020796 -0.270958 1.020802 
0.022522 -0.270952 1.020782 
0.024254 -0.271027 1.021062 
0.026000 -0.271234 1.021844 
0.027754 -0.271494 1.022822 
0.029508 -0.271723 1.023687 
0.031254 -0.271858 1.024196 
0.032997 -0.271954 1.024557 
0.034736 -0.272008 1.024759 
0.036476 -0.272062 1.024963 
0.038217 -0.272122 1.025189 
0.039970 -0.272253 1.025684 
0.041953 -0.275632 1.031824 
0.041854 -0.273233 1.029373 
0.043757 -0.274253 1.033217 
0.049943 -0.279548 1.053165 
0.051959 -0.280823 1.057970 
0.053920 -0.281722 1.061357 
0.055853 -0.282425 1.064002 
0.057617 -0.282255 1.063365 
0.059349 -0.281945 1.062194 
-0.061740 -0.275599 1.044962 
-0.059935 -0.275424 1.044298 
-0.058117 -0.275173 1.043347 
-0.056283 -0.274831 1.042051 
-0.054424 -0.274340 1.040187 
-0.052589 -0.273943 1.038682 
-0.050765 -0.273579 1.037301 
-0.048943 -0.273194 1.035844 
-0.047135 -0.272867 1.034604 
-0.045327 -0.272510 1.033250 
-0.043528 -0.272182 1.032007 
-0.041733 -0.271858 1.030777 
-0.039966 -0.271689 1.030135 
-0.038198 -0.271502 1.029427 
-0.036449 -0.271439 1.029190 
-0.034709 -0.271438 1.029185 
-0.032970 -0.271441 1.029197 
-0.031234 -0.271479 1.029339 
-0.029494 -0.271480 1.029345 
-0.027760 -0.271540 1.029573 
-0.026025 -0.271598 1.029793 
-0.024298 -0.271756 1.030392 
-0.022571 -0.271927 1.031039 
-0.020845 -0.272156 1.031906 
-0.019116 -0.272380 1.032757 
-0.017381 -0.272542 1.033371 
-0.015645 -0.272736 1.034106 
-0.013908 -0.272962 1.034963 
-0.012168 -0.273166 1.035736 
-0.010423 -0.273339 1.036393 
-0.008676 -0.273498 1.036994 
-0.006925 -0.273559 1.037225 
-0.005171 -0.273559 1.037225 
-0.003418 -0.273559 1.037225 
-0.001663 -0.273407 1.036649 
0.000089 -0.273391 1.036591 
0.001841 -0.273229 1.035975 
0.003588 -0.272951 1.034923 
0.005329 -0.272506 1.033234 
0.007063 -0.272006 1.031338 
0.008784 -0.271320 1.028737 
0.010497 -0.270646 1.026180 
0.012207 -0.270101 1.024116 
0.013919 -0.269716 1.022656 
0.015635 -0.269491 1.021803 
0.017346 -0.269249 1.020886 
0.019067 -0.269174 1.020599 
0.020789 -0.269130 1.020434 
0.022519 -0.269188 1.020655 
0.024256 -0.269322 1.021162 
0.026011 -0.269611 1.022258 
0.027766 -0.269873 1.023249 
0.029524 -0.270132 1.024233 
0.031277 -0.270322 1.024954 
0.033026 -0.270450 1.025438 
0.034768 -0.270515 1.025686 
0.036514 -0.270607 1.026034 
0.038258 -0.270671 1.026278 
0.040009 -0.270781 1.026693 
0.041822 -0.271284 1.028600 
0.043630 -0.271711 1.030219 
0.045737 -0.275662 1.038526 
0.045495 -0.272451 1.033027 
0.047528 -0.274108 1.039306 
0.051733 -0.277814 1.053359 
0.053796 -0.279280 1.058917 
0.055815 -0.280432 1.063284 
0.057655 -0.280639 1.064072 
0.059381 -0.280292 1.062756 
0.061451 -0.283357 1.067514 
0.061072 -0.279811 1.060933 
-0.061806 -0.274120 1.046078 
-0.060002 -0.273961 1.045471 
-0.058184 -0.273723 1.044563 
-0.056354 -0.273408 1.043361 
-0.054492 -0.272918 1.041488 
-0.052648 -0.272491 1.039859 
-0.050817 -0.272096 1.038351 
-0.048986 -0.271676 1.036751 
-0.047170 -0.271315 1.035371 
-0.045360 -0.270957 1.034005 
-0.043560 -0.270637 1.032784 
-0.041765 -0.270316 1.031559 
-0.039996 -0.270146 1.030910 
-0.038226 -0.269953 1.030175 
-0.036471 -0.269858 1.029813 
-0.034730 -0.269854 1.029797 
-0.032989 -0.269855 1.029803 
-0.031252 -0.269890 1.029933 
-0.029512 -0.269894 1.029952 
-0.027777 -0.269955 1.030183 
-0.026044 -0.270048 1.030539 
-0.024317 -0.270213 1.031165 
-0.022590 -0.270412 1.031926 
-0.020865 -0.270671 1.032917 
-0.019137 -0.270929 1.033901 
-0.017400 -0.271095 1.034533 
-0.015664 -0.271315 1.035372 
-0.013925 -0.271540 1.036231 
-0.012183 -0.271744 1.037010 
-0.010436 -0.271914 1.037660 
-0.008687 -0.272073 1.038264 
-0.006933 -0.272135 1.038500 
-0.005178 -0.272135 1.038500 
-0.003422 -0.272135 1.038500 
-0.001665 -0.271983 1.037923 
0.000089 -0.271968 1.037864 
0.001843 -0.271777 1.037137 
0.003591 -0.271409 1.035731 
0.005331 -0.270866 1.033661 
0.007063 -0.270265 1.031367 
0.008780 -0.269455 1.028274 
0.010490 -0.268716 1.025454 
0.012198 -0.268167 1.023358 
0.013908 -0.267781 1.021888 
0.015623 -0.267560 1.021044 
0.017337 -0.267380 1.020355 
0.019062 -0.267373 1.020328 
0.020789 -0.267400 1.020432 
0.022527 -0.267553 1.021017 
0.024273 -0.267779 1.021878 
0.026029 -0.268067 1.022979 
0.027785 -0.268321 1.023947 
0.029543 -0.268568 1.024891 
0.031294 -0.268729 1.025503 
0.033044 -0.268863 1.026015 
0.034796 -0.268993 1.026512 
0.036549 -0.269122 1.027004 
0.038295 -0.269195 1.027281 
0.040046 -0.269290 1.027644 
0.041802 -0.269413 1.028113 
0.043535 -0.269382 1.027994 
0.045313 -0.269615 1.028887 
0.053549 -0.276215 1.054071 
0.055656 -0.277838 1.060264 
0.057595 -0.278544 1.062958 
0.059416 -0.278659 1.063398 
0.061108 -0.278176 1.061556 
0.063182 -0.281217 1.066262 
0.062786 -0.277659 1.059581 
-0.061869 -0.272625 1.047145 
-0.060067 -0.272481 1.046592 
-0.058247 -0.272246 1.045689 
-0.056424 -0.271978 1.044660 
-0.054560 -0.271492 1.042794 
-0.052714 -0.271063 1.041145 
-0.050874 -0.270640 1.039523 
-0.049039 -0.270215 1.037887 
-0.047222 -0.269853 1.036499 
-0.045409 -0.269497 1.035131 
-0.043608 -0.269177 1.033904 
-0.041810 -0.268858 1.032678 
-0.040035 -0.268658 1.031910 
-0.038259 -0.268439 1.031067 
-0.036499 -0.268313 1.030582 
-0.034752 -0.268278 1.030449 
-0.033009 -0.268275 1.030439 
-0.031271 -0.268309 1.030569 
-0.029530 -0.268315 1.030590 
-0.027794 -0.268375 1.030822 
-0.026063 -0.268498 1.031295 
-0.024337 -0.268691 1.032034 
-0.022612 -0.268927 1.032942 
-0.020891 -0.269248 1.034174 
-0.019165 -0.269564 1.035388 
-0.017428 -0.269763 1.036154 
-0.015689 -0.269985 1.037004 
-0.013947 -0.270204 1.037848 
-0.012200 -0.270371 1.038490 
-0.010451 -0.270541 1.039142 
-0.008699 -0.270701 1.039755 
-0.006944 -0.270793 1.040110 
-0.005186 -0.270795 1.040118 
-0.003427 -0.270793 1.040110 
-0.001668 -0.270610 1.039408 
0.000089 -0.270564 1.039229 
0.001845 -0.270315 1.038272 
0.003594 -0.269855 1.036505 
0.005333 -0.269186 1.033935 
0.007061 -0.268452 1.031118 
0.008774 -0.267516 1.027524 
0.010479 -0.266717 1.024453 
0.012187 -0.266176 1.022375 
0.013897 -0.265826 1.021032 
0.015612 -0.265641 1.020320 
0.017329 -0.265523 1.019865 
0.019059 -0.265608 1.020193 
0.020794 -0.265736 1.020685 
0.022541 -0.265993 1.021673 
0.024298 -0.266314 1.022904 
0.026058 -0.266628 1.024111 
0.027812 -0.266851 1.024967 
0.029568 -0.267061 1.025774 
0.031321 -0.267216 1.026371 
0.033072 -0.267348 1.026877 
0.034830 -0.267513 1.027511 
0.036588 -0.267673 1.028123 
0.038341 -0.267770 1.028499 
0.040089 -0.267834 1.028742 
0.041837 -0.267894 1.028976 
0.043558 -0.267778 1.028528 
0.045260 -0.267560 1.027692 
0.047230 -0.270634 1.032776 
0.047073 -0.267991 1.029346 
0.049252 -0.272159 1.038594 
0.048980 -0.268905 1.032857 
0.055487 -0.275199 1.057031 
0.057530 -0.276431 1.061766 
0.059450 -0.277013 1.064001 
0.061142 -0.276528 1.062139 
0.062828 -0.276046 1.060286 
-0.061922 -0.271083 1.048048 
-0.060122 -0.270956 1.047555 
-0.058302 -0.270730 1.046683 
-0.056479 -0.270470 1.045676 
-0.054618 -0.270012 1.043905 
-0.052770 -0.269588 1.042266 
-0.050923 -0.269136 1.040519 
-0.049087 -0.268713 1.038886 
-0.047272 -0.268382 1.037603 
-0.045463 -0.268058 1.036352 
-0.043660 -0.267744 1.035139 
-0.041865 -0.267458 1.034031 
-0.040086 -0.267253 1.033239 
-0.038308 -0.267031 1.032382 
-0.036541 -0.266878 1.031788 
-0.034785 -0.266788 1.031440 
-0.033038 -0.266756 1.031316 
-0.031291 -0.266726 1.031202 
-0.029544 -0.266699 1.031098 
-0.027807 -0.266757 1.031323 
-0.026079 -0.266910 1.031912 
-0.024355 -0.267134 1.032778 
-0.022634 -0.267429 1.033921 
-0.020916 -0.267811 1.035397 
-0.019189 -0.268138 1.036660 
-0.017451 -0.268366 1.037541 
-0.015710 -0.268584 1.038385 
-0.013965 -0.268800 1.039219 
-0.012215 -0.268937 1.039748 
-0.010463 -0.269102 1.040386 
-0.008710 -0.269261 1.041002 
-0.006952 -0.269356 1.041371 
-0.005192 -0.269360 1.041384 
-0.003431 -0.269328 1.041260 
-0.001669 -0.269111 1.040421 
0.000090 -0.269001 1.039997 
0.001845 -0.268658 1.038671 
0.003594 -0.268103 1.036526 
0.005331 -0.267335 1.033555 
0.007056 -0.266507 1.030354 
0.008765 -0.265512 1.026507 
0.010468 -0.264692 1.023340 
0.012172 -0.264132 1.021174 
0.013881 -0.263797 1.019877 
0.015596 -0.263646 1.019296 
0.017316 -0.263589 1.019075 
0.019049 -0.263738 1.019651 
0.020793 -0.263988 1.020617 
0.022548 -0.264344 1.021991 
0.024314 -0.264761 1.023604 
0.026077 -0.265084 1.024855 
0.027832 -0.265300 1.025688 
0.029582 -0.265443 1.026243 
0.031335 -0.265594 1.026824 
0.033083 -0.265697 1.027225 
0.034848 -0.265915 1.028067 
0.036616 -0.266131 1.028901 
0.038378 -0.266285 1.029497 
0.040128 -0.266350 1.029748 
0.041877 -0.266402 1.029949 
0.043594 -0.266253 1.029372 
0.045287 -0.265977 1.028305 
0.047018 -0.265934 1.028139 
0.048830 -0.266339 1.029705 
0.055293 -0.272451 1.053335 
0.057429 -0.274148 1.059897 
0.059439 -0.275157 1.063797 
0.061143 -0.274735 1.062167 
0.062844 -0.274319 1.060559 
-0.060142 -0.269270 1.047905 
-0.058323 -0.269051 1.047054 
-0.056504 -0.268819 1.046150 
-0.054644 -0.268367 1.044391 
-0.052801 -0.267976 1.042870 
-0.050952 -0.267527 1.041120 
-0.049121 -0.267141 1.039621 
-0.047306 -0.266815 1.038350 
-0.045502 -0.266530 1.037242 
-0.043702 -0.266250 1.036152 
-0.041910 -0.265994 1.035155 
-0.040130 -0.265792 1.034370 
-0.038353 -0.265595 1.033602 
-0.036584 -0.265441 1.033003 
-0.034826 -0.265349 1.032647 
-0.033072 -0.265287 1.032405 
-0.031323 -0.265251 1.032263 
-0.029574 -0.265218 1.032137 
-0.027832 -0.265247 1.032249 
-0.026099 -0.265372 1.032735 
-0.024377 -0.265624 1.033715 
-0.022652 -0.265893 1.034763 
-0.020933 -0.266281 1.036272 
-0.019207 -0.266635 1.037650 
-0.017470 -0.266897 1.038670 
-0.015727 -0.267117 1.039525 
-0.013982 -0.267359 1.040467 
-0.012229 -0.267490 1.040980 
-0.010477 -0.267682 1.041727 
-0.008721 -0.267844 1.042356 
-0.006962 -0.267945 1.042747 
-0.005199 -0.267948 1.042760 
-0.003435 -0.267882 1.042505 
-0.001671 -0.267599 1.041403 
0.000090 -0.267394 1.040603 
0.001846 -0.266952 1.038885 
0.003593 -0.266275 1.036249 
0.005327 -0.265414 1.032901 
0.007050 -0.264529 1.029456 
0.008757 -0.263538 1.025599 
0.010459 -0.262731 1.022459 
0.012163 -0.262210 1.020431 
0.013873 -0.261909 1.019258 
0.015587 -0.261761 1.018682 
0.017305 -0.261706 1.018469 
0.019042 -0.261911 1.019266 
0.020788 -0.262196 1.020377 
0.022544 -0.262561 1.021798 
0.024310 -0.262979 1.023423 
0.026072 -0.263297 1.024662 
0.027827 -0.263510 1.025491 
0.029577 -0.263656 1.026058 
0.031332 -0.263831 1.026740 
0.033084 -0.263962 1.027248 
0.034853 -0.264209 1.028211 
0.036622 -0.264428 1.029062 
0.038389 -0.264615 1.029791 
0.040144 -0.264711 1.030164 
0.041899 -0.264796 1.030494 
0.043621 -0.264673 1.030014 
0.045309 -0.264361 1.028803 
0.046968 -0.263913 1.027058 
0.048693 -0.263851 1.026816 
0.050909 -0.268119 1.036586 
0.050680 -0.265166 1.031935 
0.057266 -0.271576 1.056881 
0.059371 -0.273043 1.062587 
0.061167 -0.273038 1.062569 
0.062882 -0.272688 1.061208 
-0.060153 -0.267541 1.048090 
-0.058337 -0.267341 1.047309 
-0.056523 -0.267134 1.046498 
-0.054668 -0.266716 1.044859 
-0.052830 -0.266355 1.043445 
-0.050981 -0.265912 1.041709 
-0.049150 -0.265533 1.040223 
-0.047334 -0.265211 1.038964 
-0.045534 -0.264960 1.037979 
-0.043739 -0.264715 1.037021 
-0.041952 -0.264499 1.036173 
-0.040174 -0.264328 1.035504 
-0.038399 -0.264163 1.034856 
-0.036633 -0.264037 1.034364 
-0.034868 -0.263918 1.033899 
-0.033108 -0.263823 1.033526 
-0.031352 -0.263749 1.033237 
-0.029598 -0.263682 1.032975 
-0.027849 -0.263656 1.032872 
-0.026115 -0.263780 1.033358 
-0.024392 -0.264034 1.034353 
-0.022668 -0.264324 1.035489 
-0.020948 -0.264711 1.037004 
-0.019221 -0.265064 1.038385 
-0.017482 -0.265326 1.039414 
-0.015740 -0.265572 1.040376 
-0.013992 -0.265790 1.041230 
-0.012240 -0.265952 1.041866 
-0.010487 -0.266179 1.042754 
-0.008731 -0.266370 1.043504 
-0.006969 -0.266470 1.043893 
-0.005205 -0.266500 1.044011 
-0.003438 -0.266374 1.043520 
-0.001672 -0.266029 1.042168 
0.000090 -0.265694 1.040854 
0.001845 -0.265123 1.038620 
0.003591 -0.264348 1.035583 
0.005323 -0.263434 1.032002 
0.007044 -0.262561 1.028580 
0.008752 -0.261643 1.024985 
0.010455 -0.260903 1.022087 
0.012159 -0.260389 1.020071 
0.013869 -0.260109 1.018974 
0.015582 -0.259954 1.018367 
0.017300 -0.259897 1.018147 
0.019034 -0.260079 1.018856 
0.020780 -0.260364 1.019973 
0.022534 -0.260714 1.021346 
0.024296 -0.261097 1.022846 
0.026051 -0.261350 1.023839 
0.027801 -0.261533 1.024556 
0.029546 -0.261649 1.025010 
0.031297 -0.261800 1.025600 
0.033044 -0.261906 1.026017 
0.034816 -0.262184 1.027105 
0.036591 -0.262463 1.028198 
0.038371 -0.262747 1.029311 
0.040140 -0.262940 1.030067 
0.041910 -0.263118 1.030764 
0.043642 -0.263054 1.030515 
0.045340 -0.262801 1.029520 
0.047012 -0.262417 1.028016 
0.048677 -0.262026 1.026486 
0.050587 -0.262929 1.030025 
0.052826 -0.267193 1.039822 
0.052720 -0.264901 1.037748 
0.057165 -0.269312 1.055029 
0.059363 -0.271202 1.062434 
0.061189 -0.271337 1.062963 
0.062936 -0.271119 1.062109 
-0.060148 -0.265745 1.048016 
-0.058338 -0.265569 1.047321 
-0.056523 -0.265361 1.046499 
-0.054682 -0.265012 1.045125 
-0.052850 -0.264686 1.043839 
-0.051006 -0.264274 1.042214 
-0.049179 -0.263924 1.040833 
-0.047372 -0.263661 1.039798 
-0.045571 -0.263414 1.038820 
-0.043780 -0.263201 1.037982 
-0.041996 -0.263017 1.037258 
-0.040218 -0.262858 1.036628 
-0.038442 -0.262699 1.036000 
-0.036677 -0.262604 1.035627 
-0.034911 -0.262486 1.035161 
-0.033149 -0.262389 1.034779 
-0.031390 -0.262315 1.034488 
-0.029633 -0.262244 1.034209 
-0.027882 -0.262219 1.034109 
-0.026144 -0.262314 1.034483 
-0.024415 -0.262531 1.035338 
-0.022687 -0.262785 1.036343 
-0.020963 -0.263136 1.037725 
-0.019232 -0.263456 1.038989 
-0.017492 -0.263714 1.040007 
-0.015749 -0.263961 1.040978 
-0.014001 -0.264179 1.041840 
-0.012247 -0.264350 1.042513 
-0.010495 -0.264606 1.043524 
-0.008738 -0.264830 1.044406 
-0.006975 -0.264933 1.044812 
-0.005210 -0.264961 1.044922 
-0.003441 -0.264801 1.044292 
-0.001673 -0.264394 1.042688 
0.000090 -0.263935 1.040878 
0.001845 -0.263297 1.038361 
0.003589 -0.262457 1.035046 
0.005319 -0.261523 1.031366 
0.007040 -0.260662 1.027969 
0.008749 -0.259821 1.024653 
0.010452 -0.259098 1.021800 
0.012156 -0.258583 1.019771 
0.013864 -0.258297 1.018640 
0.015575 -0.258108 1.017896 
0.017292 -0.258049 1.017664 
0.019025 -0.258229 1.018373 
0.020767 -0.258479 1.019358 
0.022515 -0.258763 1.020480 
0.024268 -0.259062 1.021660 
0.026014 -0.259244 1.022375 
0.027755 -0.259365 1.022853 
0.029495 -0.259457 1.023216 
0.031247 -0.259641 1.023941 
0.032994 -0.259774 1.024465 
0.034767 -0.260079 1.025668 
0.036553 -0.260446 1.027115 
0.038349 -0.260852 1.028718 
0.040133 -0.261148 1.029885 
0.041914 -0.261397 1.030869 
0.043657 -0.261398 1.030872 
0.045362 -0.261181 1.030015 
0.047056 -0.260919 1.028983 
0.048748 -0.260663 1.027971 
0.050601 -0.261255 1.030309 
0.052720 -0.263139 1.037735 
0.054937 -0.267151 1.046564 
0.054916 -0.265273 1.046153 
0.057128 -0.267347 1.054334 
0.059308 -0.269155 1.061464 
0.061218 -0.269662 1.063461 
0.062989 -0.269549 1.063018 
0.065125 -0.272767 1.068564 
0.064757 -0.269425 1.062526 
-0.055125 -0.265375 1.053598 
-0.052859 -0.262959 1.044007 
-0.051024 -0.262601 1.042584 
-0.049204 -0.262293 1.041362 
-0.047402 -0.262063 1.040448 
-0.045604 -0.261839 1.039559 
-0.043816 -0.261658 1.038840 
-0.042039 -0.261532 1.038343 
-0.040269 -0.261436 1.037959 
-0.038497 -0.261314 1.037474 
-0.036730 -0.261223 1.037114 
-0.034961 -0.261104 1.036643 
-0.033193 -0.260981 1.036152 
-0.031429 -0.260880 1.035752 
-0.029670 -0.260814 1.035490 
-0.027917 -0.260785 1.035375 
-0.026173 -0.260848 1.035627 
-0.024436 -0.261000 1.036231 
-0.022703 -0.261221 1.037105 
-0.020973 -0.261504 1.038229 
-0.019237 -0.261765 1.039268 
-0.017495 -0.261986 1.040145 
-0.015751 -0.262229 1.041109 
-0.014002 -0.262445 1.041964 
-0.012250 -0.262646 1.042764 
-0.010499 -0.262934 1.043906 
-0.008742 -0.263164 1.044821 
-0.006978 -0.263263 1.045214 
-0.005212 -0.263292 1.045327 
-0.003442 -0.263103 1.044577 
-0.001673 -0.262667 1.042849 
0.000090 -0.262174 1.040890 
0.001844 -0.261451 1.038019 
0.003587 -0.260551 1.034445 
0.005316 -0.259621 1.030752 
0.007037 -0.258801 1.027497 
0.008747 -0.258005 1.024337 
0.010452 -0.257347 1.021726 
0.012155 -0.256837 1.019703 
0.013861 -0.256520 1.018442 
0.015568 -0.256272 1.017458 
0.017284 -0.256214 1.017226 
