1631
-0.025754 -0.275684 1.019083 
-0.024017 -0.275521 1.018481 
-0.022282 -0.275347 1.017837 
-0.020548 -0.275179 1.017216 
-0.018812 -0.274934 1.016312 
-0.017084 -0.274772 1.015713 
-0.015360 -0.274661 1.015302 
-0.013642 -0.274621 1.015154 
-0.011922 -0.274540 1.014853 
-0.010205 -0.274490 1.014671 
-0.008493 -0.274600 1.015075 
-0.006779 -0.274690 1.015409 
-0.005063 -0.274707 1.015471 
-0.003347 -0.274808 1.015847 
-0.001631 -0.274923 1.016270 
0.000087 -0.274894 1.016162 
0.001806 -0.275012 1.016601 
0.003527 -0.275207 1.017319 
0.005250 -0.275386 1.017983 
0.006976 -0.275588 1.018729 
0.008705 -0.275773 1.019412 
0.010435 -0.275955 1.020086 
0.012167 -0.276122 1.020704 
0.013914 -0.276545 1.022266 
0.015686 -0.277323 1.025143 
0.017486 -0.278392 1.029094 
0.019306 -0.279559 1.033407 
0.021150 -0.280843 1.038155 
0.023008 -0.282107 1.042826 
0.024869 -0.283217 1.046931 
0.026744 -0.284341 1.051083 
0.028636 -0.285488 1.055323 
0.030544 -0.286647 1.059608 
0.032451 -0.287674 1.063405 
0.034346 -0.288489 1.066418 
0.036224 -0.289089 1.068636 
0.038086 -0.289511 1.070197 
0.039948 -0.289898 1.071625 
0.041802 -0.290192 1.072714 
0.043655 -0.290452 1.073676 
0.045477 -0.290500 1.073853 
0.047285 -0.290453 1.073677 
0.049067 -0.290256 1.072949 
0.050844 -0.290048 1.072180 
0.052621 -0.289850 1.071448 
-0.038154 -0.276419 1.028244 
-0.036344 -0.275872 1.026209 
-0.034549 -0.275396 1.024440 
-0.032768 -0.274981 1.022894 
-0.030993 -0.274579 1.021401 
-0.029232 -0.274260 1.020213 
-0.027492 -0.274106 1.019641 
-0.025755 -0.273957 1.019086 
-0.024018 -0.273796 1.018488 
-0.022282 -0.273626 1.017854 
-0.020548 -0.273456 1.017223 
-0.018810 -0.273182 1.016202 
-0.017080 -0.272988 1.015482 
-0.015355 -0.272843 1.014943 
-0.013636 -0.272771 1.014673 
-0.011915 -0.272662 1.014267 
-0.010200 -0.272644 1.014201 
-0.008490 -0.272788 1.014737 
-0.006778 -0.272909 1.015188 
-0.005062 -0.272959 1.015372 
-0.003347 -0.273088 1.015853 
-0.001631 -0.273204 1.016284 
0.000087 -0.273170 1.016158 
0.001806 -0.273283 1.016577 
0.003527 -0.273474 1.017288 
0.005250 -0.273653 1.017955 
0.006976 -0.273859 1.018719 
0.008705 -0.274044 1.019409 
0.010435 -0.274226 1.020086 
0.012167 -0.274392 1.020704 
0.013915 -0.274843 1.022382 
0.015689 -0.275649 1.025380 
0.017490 -0.276713 1.029338 
0.019313 -0.277900 1.033754 
0.021164 -0.279267 1.038837 
0.023026 -0.280562 1.043656 
0.024892 -0.281711 1.047929 
0.026776 -0.282897 1.052342 
0.028671 -0.284043 1.056603 
0.030573 -0.285126 1.060633 
0.032475 -0.286080 1.064182 
0.034362 -0.286815 1.066914 
0.036231 -0.287339 1.068864 
0.038089 -0.287720 1.070283 
0.039947 -0.288075 1.071601 
0.041807 -0.288408 1.072841 
0.043667 -0.288711 1.073967 
0.045491 -0.288765 1.074171 
0.047299 -0.288720 1.074001 
0.049076 -0.288491 1.073150 
0.050835 -0.288179 1.071990 
0.052582 -0.287821 1.070659 
-0.036322 -0.273967 1.025589 
-0.034536 -0.273552 1.024036 
-0.032764 -0.273215 1.022774 
-0.030996 -0.272875 1.021500 
-0.029235 -0.272559 1.020319 
-0.027495 -0.272406 1.019747 
-0.025757 -0.272257 1.019189 
-0.024017 -0.272068 1.018481 
-0.022282 -0.271896 1.017837 
-0.020548 -0.271730 1.017216 
-0.018810 -0.271458 1.016198 
-0.017080 -0.271267 1.015482 
-0.015355 -0.271123 1.014943 
-0.013635 -0.271048 1.014661 
-0.011915 -0.270936 1.014245 
-0.010201 -0.270942 1.014267 
-0.008491 -0.271088 1.014814 
-0.006778 -0.271215 1.015287 
-0.005063 -0.271269 1.015490 
-0.003348 -0.271398 1.015971 
-0.001631 -0.271486 1.016303 
0.000087 -0.271453 1.016181 
0.001806 -0.271569 1.016613 
0.003527 -0.271758 1.017319 
0.005250 -0.271935 1.017983 
0.006976 -0.272134 1.018729 
0.008705 -0.272345 1.019518 
0.010436 -0.272527 1.020201 
0.012169 -0.272722 1.020929 
0.013920 -0.273200 1.022720 
0.015693 -0.273973 1.025612 
0.017488 -0.274936 1.029215 
0.019310 -0.276103 1.033587 
0.021165 -0.277519 1.038887 
0.023032 -0.278862 1.043914 
0.024909 -0.280119 1.048619 
0.026804 -0.281405 1.053434 
0.028703 -0.282569 1.057791 
0.030597 -0.283550 1.061464 
0.032491 -0.284423 1.064731 
0.034371 -0.285082 1.067197 
0.036232 -0.285530 1.068876 
0.038080 -0.285837 1.070026 
0.039937 -0.286182 1.071314 
0.041801 -0.286544 1.072672 
0.043661 -0.286850 1.073819 
0.045490 -0.286940 1.074153 
0.047303 -0.286922 1.074088 
0.049074 -0.286657 1.073096 
0.050819 -0.286272 1.071653 
-0.036293 -0.272011 1.024770 
-0.034515 -0.271657 1.023436 
-0.032753 -0.271389 1.022428 
-0.030993 -0.271115 1.021394 
-0.029233 -0.270803 1.020220 
-0.027493 -0.270653 1.019653 
-0.025757 -0.270530 1.019189 
-0.024017 -0.270338 1.018469 
-0.022281 -0.270166 1.017821 
-0.020548 -0.270003 1.017204 
-0.018812 -0.269764 1.016303 
-0.017084 -0.269607 1.015713 
-0.015360 -0.269498 1.015302 
-0.013640 -0.269425 1.015029 
-0.011920 -0.269338 1.014701 
-0.010205 -0.269341 1.014712 
-0.008493 -0.269458 1.015154 
-0.006780 -0.269556 1.015520 
-0.005064 -0.269635 1.015818 
-0.003348 -0.269735 1.016197 
-0.001631 -0.269796 1.016428 
0.000087 -0.269766 1.016314 
0.001806 -0.269883 1.016754 
0.003527 -0.270044 1.017359 
0.005251 -0.270219 1.018019 
0.006977 -0.270413 1.018750 
0.008707 -0.270650 1.019641 
0.010437 -0.270832 1.020328 
0.012172 -0.271057 1.021178 
0.013923 -0.271534 1.022974 
0.015697 -0.272298 1.025853 
0.017491 -0.273245 1.029421 
0.019319 -0.274490 1.034110 
0.021181 -0.275967 1.039673 
0.023059 -0.277416 1.045134 
0.024948 -0.278781 1.050275 
0.026850 -0.280098 1.055236 
0.028745 -0.281189 1.059349 
0.030634 -0.282090 1.062742 
0.032518 -0.282855 1.065623 
0.034388 -0.283413 1.067726 
0.036237 -0.283757 1.069021 
0.038079 -0.284021 1.070016 
0.039931 -0.284322 1.071151 
0.041793 -0.284677 1.072488 
0.043648 -0.284949 1.073513 
0.045477 -0.285036 1.073841 
0.047283 -0.284980 1.073630 
0.049045 -0.284672 1.072468 
0.050781 -0.284239 1.070839 
0.052497 -0.283728 1.068914 
-0.034507 -0.269856 1.023187 
-0.032757 -0.269686 1.022542 
-0.031004 -0.269475 1.021740 
-0.029246 -0.269198 1.020692 
-0.027505 -0.269046 1.020114 
-0.025766 -0.268892 1.019532 
-0.024025 -0.268698 1.018796 
-0.022288 -0.268527 1.018147 
-0.020553 -0.268339 1.017435 
-0.018818 -0.268133 1.016652 
-0.017092 -0.268008 1.016178 
-0.015368 -0.267908 1.015800 
-0.013646 -0.267812 1.015437 
-0.011925 -0.267729 1.015120 
-0.010209 -0.267729 1.015120 
-0.008496 -0.267812 1.015437 
-0.006781 -0.267880 1.015694 
-0.005065 -0.267950 1.015959 
-0.003349 -0.268044 1.016314 
-0.001631 -0.268101 1.016533 
0.000087 -0.268101 1.016533 
0.001807 -0.268248 1.017090 
0.003529 -0.268410 1.017704 
0.005252 -0.268582 1.018355 
0.006979 -0.268772 1.019075 
0.008709 -0.269010 1.019980 
0.010440 -0.269169 1.020580 
0.012177 -0.269428 1.021563 
0.013928 -0.269899 1.023349 
0.015701 -0.270630 1.026120 
0.017500 -0.271627 1.029901 
0.019337 -0.272991 1.035073 
0.021209 -0.274574 1.041073 
0.023102 -0.276154 1.047067 
0.025000 -0.277579 1.052468 
0.026902 -0.278851 1.057293 
0.028790 -0.279832 1.061012 
0.030671 -0.280624 1.064013 
0.032542 -0.281253 1.066400 
0.034404 -0.281738 1.068238 
0.036245 -0.282012 1.069276 
0.038080 -0.282209 1.070024 
0.039921 -0.282439 1.070898 
0.041778 -0.282756 1.072099 
0.043622 -0.282959 1.072868 
0.045439 -0.282979 1.072943 
0.047237 -0.282886 1.072590 
0.048989 -0.282532 1.071249 
0.050714 -0.282054 1.069437 
0.052434 -0.281579 1.067633 
-0.034508 -0.268128 1.023210 
-0.032761 -0.267991 1.022687 
-0.031015 -0.267839 1.022109 
-0.029260 -0.267595 1.021177 
-0.027518 -0.267446 1.020609 
-0.025778 -0.267291 1.020018 
-0.024036 -0.267098 1.019278 
-0.022299 -0.266929 1.018635 
-0.020561 -0.266716 1.017821 
-0.018827 -0.266537 1.017138 
-0.017100 -0.266412 1.016661 
-0.015375 -0.266315 1.016292 
-0.013653 -0.266226 1.015952 
-0.011933 -0.266170 1.015740 
-0.010216 -0.266170 1.015740 
-0.008500 -0.266226 1.015952 
-0.006783 -0.266257 1.016072 
-0.005066 -0.266291 1.016201 
-0.003349 -0.266351 1.016428 
-0.001631 -0.266406 1.016639 
0.000087 -0.266408 1.016647 
0.001807 -0.266555 1.017207 
0.003529 -0.266715 1.017818 
0.005253 -0.266883 1.018461 
0.006980 -0.267074 1.019190 
0.008711 -0.267345 1.020222 
0.010443 -0.267507 1.020841 
0.012180 -0.267767 1.021832 
0.013930 -0.268203 1.023496 
0.015699 -0.268867 1.026029 
0.017512 -0.270074 1.030638 
0.019367 -0.271648 1.036644 
0.021257 -0.273415 1.043387 
0.023167 -0.275153 1.050020 
0.025079 -0.276667 1.055797 
0.026964 -0.277702 1.059746 
0.028839 -0.278507 1.062819 
0.030708 -0.279159 1.065305 
0.032566 -0.279648 1.067174 
0.034417 -0.280031 1.068634 
0.036254 -0.280265 1.069527 
0.038080 -0.280396 1.070027 
0.039908 -0.280531 1.070544 
0.041755 -0.280780 1.071492 
0.043586 -0.280907 1.071977 
0.045390 -0.280858 1.071789 
0.047181 -0.280730 1.071303 
0.048934 -0.280398 1.070033 
0.050667 -0.279981 1.068444 
0.052398 -0.279577 1.066903 
-0.051553 -0.285913 1.091082 
-0.053370 -0.285766 1.090519 
-0.053381 -0.283976 1.090744 
-0.051566 -0.284135 1.091354 
-0.049743 -0.284259 1.091832 
-0.034516 -0.266455 1.023446 
-0.032771 -0.266341 1.023008 
-0.031030 -0.266239 1.022615 
-0.029278 -0.266028 1.021805 
-0.027533 -0.265853 1.021134 
-0.025791 -0.265696 1.020531 
-0.024048 -0.265500 1.019781 
-0.022310 -0.265337 1.019155 
-0.020571 -0.265126 1.018344 
-0.018839 -0.264974 1.017759 
-0.017110 -0.264843 1.017256 
-0.015384 -0.264743 1.016871 
-0.013660 -0.264652 1.016522 
-0.011939 -0.264598 1.016314 
-0.010221 -0.264598 1.016314 
-0.008504 -0.264625 1.016416 
-0.006786 -0.264625 1.016419 
-0.005067 -0.264628 1.016428 
-0.003350 -0.264655 1.016533 
-0.001631 -0.264712 1.016753 
0.000088 -0.264745 1.016879 
0.001808 -0.264923 1.017561 
0.003531 -0.265110 1.018282 
0.005256 -0.265305 1.019028 
0.006984 -0.265495 1.019761 
0.008716 -0.265766 1.020801 
0.010449 -0.265931 1.021435 
0.012187 -0.266184 1.022405 
0.013935 -0.266556 1.023834 
0.015697 -0.267094 1.025900 
0.017528 -0.268571 1.031573 
0.019400 -0.270361 1.038450 
0.021305 -0.272272 1.045789 
0.023234 -0.274168 1.053074 
0.025166 -0.275825 1.059439 
0.027031 -0.276587 1.062362 
0.028889 -0.277186 1.064663 
0.030746 -0.277695 1.066618 
0.032590 -0.278046 1.067968 
0.034429 -0.278320 1.069021 
0.036258 -0.278486 1.069656 
0.038080 -0.278581 1.070024 
0.039903 -0.278682 1.070410 
0.041738 -0.278855 1.071076 
0.043558 -0.278911 1.071289 
0.045354 -0.278817 1.070929 
0.047137 -0.278658 1.070318 
0.048895 -0.278365 1.069192 
0.050641 -0.278025 1.067885 
0.052390 -0.277728 1.066747 
0.054550 -0.281375 1.073761 
0.054164 -0.277576 1.066162 
-0.053694 -0.283779 1.097131 
-0.051574 -0.282329 1.091527 
-0.049747 -0.282433 1.091929 
-0.047927 -0.284440 1.092526 
-0.047925 -0.282573 1.092469 
-0.046103 -0.282728 1.093067 
-0.034523 -0.264774 1.023654 
-0.032777 -0.264654 1.023193 
-0.031038 -0.264576 1.022889 
-0.029289 -0.264397 1.022198 
-0.027546 -0.264250 1.021629 
-0.025804 -0.264095 1.021029 
-0.024062 -0.263927 1.020381 
-0.022324 -0.263766 1.019757 
-0.020583 -0.263557 1.018950 
-0.018848 -0.263378 1.018258 
-0.017118 -0.263242 1.017734 
-0.015389 -0.263111 1.017224 
-0.013663 -0.262989 1.016753 
-0.011942 -0.262932 1.016533 
-0.010224 -0.262932 1.016533 
-0.008505 -0.262932 1.016533 
-0.006787 -0.262932 1.016533 
-0.005068 -0.262932 1.016533 
-0.003350 -0.262959 1.016639 
-0.001632 -0.263048 1.016984 
0.000088 -0.263116 1.017243 
0.001809 -0.263328 1.018067 
0.003533 -0.263543 1.018896 
0.005260 -0.263765 1.019755 
0.006989 -0.263984 1.020600 
0.008724 -0.264254 1.021645 
0.010457 -0.264417 1.022276 
0.012195 -0.264633 1.023112 
0.013940 -0.264910 1.024180 
0.015719 -0.265718 1.027305 
0.017574 -0.267516 1.034258 
0.019470 -0.269560 1.042159 
0.021398 -0.271668 1.050307 
0.023346 -0.273692 1.058133 
0.025260 -0.275062 1.063429 
0.027107 -0.275554 1.065332 
0.028950 -0.275955 1.066884 
0.030791 -0.276293 1.068188 
0.032622 -0.276503 1.069003 
0.034449 -0.276669 1.069645 
0.036266 -0.276735 1.069898 
0.038079 -0.276765 1.070015 
0.039898 -0.276830 1.070267 
0.041717 -0.276901 1.070538 
0.043523 -0.276876 1.070444 
0.045306 -0.276712 1.069809 
0.047083 -0.276527 1.069093 
0.048846 -0.276277 1.068126 
0.050609 -0.276043 1.067224 
0.052372 -0.275823 1.066373 
0.054158 -0.275741 1.066056 
0.055921 -0.277353 1.065306 
0.055925 -0.275564 1.065370 
0.057689 -0.277194 1.064696 
0.057696 -0.275420 1.064814 
0.059951 -0.279346 1.072959 
0.059465 -0.275280 1.064271 
-0.051594 -0.280586 1.091942 
-0.049762 -0.280666 1.092254 
-0.047932 -0.280766 1.092645 
-0.046093 -0.280812 1.092824 
-0.044227 -0.280697 1.092376 
-0.034652 -0.264021 1.027477 
-0.032787 -0.262995 1.023487 
-0.031049 -0.262931 1.023235 
-0.029302 -0.262782 1.022655 
-0.027561 -0.262664 1.022197 
-0.025818 -0.262511 1.021601 
-0.024076 -0.262345 1.020956 
-0.022336 -0.262184 1.020328 
-0.020595 -0.261978 1.019527 
-0.018859 -0.261800 1.018834 
-0.017126 -0.261642 1.018219 
-0.015395 -0.261478 1.017581 
-0.013667 -0.261324 1.016984 
-0.011943 -0.261236 1.016639 
-0.010224 -0.261209 1.016533 
-0.008505 -0.261209 1.016533 
-0.006787 -0.261209 1.016533 
-0.005069 -0.261236 1.016639 
-0.003351 -0.261294 1.016867 
-0.001633 -0.261444 1.017448 
0.000088 -0.261574 1.017955 
0.001810 -0.261848 1.019023 
0.003536 -0.262098 1.019994 
0.005266 -0.262350 1.020976 
0.006998 -0.262597 1.021935 
0.008735 -0.262867 1.022987 
0.010472 -0.263054 1.023713 
0.012211 -0.263239 1.024436 
0.013979 -0.263917 1.027073 
0.015784 -0.265065 1.031540 
0.017665 -0.267145 1.039637 
0.019582 -0.269338 1.048168 
0.021529 -0.271548 1.056770 
0.023457 -0.273191 1.063164 
0.025350 -0.274224 1.067183 
0.027177 -0.274456 1.068086 
0.029007 -0.274690 1.068997 
0.030833 -0.274861 1.069662 
0.032650 -0.274931 1.069936 
0.034466 -0.274990 1.070165 
0.036271 -0.274954 1.070024 
0.038066 -0.274859 1.069656 
0.039874 -0.274856 1.069644 
0.041678 -0.274824 1.069519 
0.043466 -0.274699 1.069032 
0.045235 -0.274468 1.068133 
0.047009 -0.274280 1.067401 
0.048776 -0.274072 1.066592 
0.050556 -0.273944 1.066093 
0.052335 -0.273825 1.065633 
0.054136 -0.273819 1.065609 
0.055916 -0.273715 1.065203 
0.057695 -0.273611 1.064797 
0.059470 -0.273499 1.064364 
-0.051613 -0.278840 1.092356 
-0.049776 -0.278894 1.092565 
-0.047935 -0.278931 1.092709 
-0.046083 -0.278901 1.092594 
-0.044213 -0.278756 1.092025 
-0.042345 -0.278611 1.091459 
-0.034780 -0.263252 1.031287 
-0.032800 -0.261362 1.023884 
-0.031063 -0.261311 1.023685 
-0.029318 -0.261191 1.023216 
-0.027580 -0.261105 1.022879 
-0.025836 -0.260957 1.022298 
-0.024093 -0.260797 1.021670 
-0.022351 -0.260632 1.021024 
-0.020611 -0.260452 1.020320 
-0.018871 -0.260250 1.019529 
-0.017138 -0.260096 1.018923 
-0.015405 -0.259932 1.018281 
-0.013676 -0.259775 1.017668 
-0.011950 -0.259657 1.017204 
-0.010229 -0.259628 1.017090 
-0.008510 -0.259628 1.017090 
-0.006790 -0.259628 1.017090 
-0.005072 -0.259684 1.017310 
-0.003353 -0.259775 1.017669 
-0.001634 -0.259986 1.018494 
0.000088 -0.260210 1.019371 
0.001814 -0.260573 1.020792 
0.003543 -0.260884 1.022013 
0.005278 -0.261196 1.023233 
0.007014 -0.261446 1.024212 
0.008755 -0.261718 1.025279 
0.010495 -0.261906 1.026016 
0.012237 -0.262065 1.026639 
0.014028 -0.263091 1.030659 
0.015861 -0.264605 1.036587 
0.017764 -0.266872 1.045471 
0.019700 -0.269174 1.054487 
0.021657 -0.271353 1.063025 
0.023561 -0.272595 1.067891 
0.025433 -0.273310 1.070689 
0.027250 -0.273377 1.070953 
0.029068 -0.273449 1.071235 
0.030880 -0.273457 1.071268 
0.032683 -0.273389 1.071001 
0.034483 -0.273309 1.070685 
0.036271 -0.273141 1.070029 
0.038057 -0.272978 1.069391 
0.039855 -0.272908 1.069116 
0.041642 -0.272778 1.068607 
0.043413 -0.272554 1.067729 
0.045173 -0.272283 1.066666 
0.046944 -0.272096 1.065935 
0.048715 -0.271923 1.065258 
0.050512 -0.271899 1.065162 
0.052303 -0.271852 1.064978 
0.054121 -0.271942 1.065330 
0.055914 -0.271900 1.065168 
0.057707 -0.271863 1.065023 
0.059489 -0.271779 1.064692 
-0.051634 -0.277100 1.092796 
-0.049783 -0.277083 1.092728 
-0.047931 -0.277053 1.092611 
-0.046068 -0.276959 1.092241 
-0.044195 -0.276795 1.091593 
-0.042327 -0.276648 1.091010 
-0.032818 -0.259773 1.024461 
-0.031084 -0.259757 1.024401 
-0.029346 -0.259699 1.024171 
-0.027612 -0.259674 1.024074 
-0.025869 -0.259557 1.023611 
-0.024124 -0.259399 1.022988 
-0.022380 -0.259233 1.022334 
-0.020637 -0.259051 1.021616 
-0.018893 -0.258821 1.020710 
-0.017156 -0.258641 1.020000 
-0.015420 -0.258452 1.019253 
-0.013687 -0.258263 1.018510 
-0.011958 -0.258116 1.017927 
-0.010235 -0.258059 1.017704 
-0.008515 -0.258059 1.017704 
-0.006794 -0.258059 1.017704 
-0.005076 -0.258145 1.018042 
-0.003356 -0.258296 1.018638 
-0.001636 -0.258573 1.019729 
0.000088 -0.258886 1.020963 
0.001817 -0.259369 1.022869 
0.003552 -0.259772 1.024457 
0.005291 -0.260145 1.025930 
0.007034 -0.260453 1.027142 
0.008782 -0.260780 1.028432 
0.010528 -0.260974 1.029201 
0.012276 -0.261137 1.029841 
0.014093 -0.262552 1.035424 
0.015956 -0.264430 1.042830 
0.017876 -0.266774 1.052073 
0.019821 -0.269028 1.060962 
0.021783 -0.271130 1.069252 
0.023659 -0.271913 1.072340 
0.025506 -0.272271 1.073749 
0.027324 -0.272298 1.073856 
0.029136 -0.272270 1.073745 
0.030937 -0.272142 1.073241 
0.032726 -0.271936 1.072430 
0.034508 -0.271688 1.071453 
0.036275 -0.271357 1.070145 
0.038047 -0.271093 1.069104 
0.039834 -0.270952 1.068550 
0.041610 -0.270758 1.067782 
0.043374 -0.270498 1.066758 
0.045126 -0.270195 1.065563 
0.046894 -0.270003 1.064807 
0.048664 -0.269834 1.064140 
0.050466 -0.269849 1.064200 
0.052269 -0.269870 1.064282 
0.054106 -0.270059 1.065027 
0.055906 -0.270056 1.065015 
0.057706 -0.270053 1.065003 
0.059499 -0.270022 1.064881 
-0.051648 -0.275321 1.093086 
-0.049790 -0.275268 1.092876 
-0.047920 -0.275137 1.092354 
-0.046042 -0.274954 1.091630 
-0.044163 -0.274741 1.090784 
-0.042285 -0.274523 1.089919 
-0.032921 -0.258842 1.027663 
-0.031111 -0.258247 1.025299 
-0.029382 -0.258284 1.025445 
-0.027656 -0.258346 1.025693 
-0.025913 -0.258261 1.025353 
-0.024167 -0.258130 1.024836 
-0.022418 -0.257938 1.024072 
-0.020670 -0.257725 1.023227 
-0.018921 -0.257465 1.022193 
-0.017179 -0.257253 1.021351 
-0.015439 -0.257032 1.020474 
-0.013703 -0.256844 1.019729 
-0.011973 -0.256697 1.019144 
-0.010247 -0.256639 1.018916 
-0.008525 -0.256639 1.018916 
-0.006802 -0.256639 1.018916 
-0.005082 -0.256754 1.019369 
-0.003362 -0.256963 1.020201 
-0.001639 -0.257276 1.021445 
0.000088 -0.257652 1.022937 
0.001821 -0.258227 1.025218 
0.003561 -0.258669 1.026974 
0.005305 -0.259078 1.028597 
0.007054 -0.259442 1.030044 
0.008808 -0.259827 1.031571 
0.010560 -0.260024 1.032353 
0.012316 -0.260246 1.033237 
0.014142 -0.261708 1.039039 
0.016034 -0.263933 1.047875 
0.017960 -0.266238 1.057025 
0.019912 -0.268450 1.065808 
0.021876 -0.270459 1.073784 
0.023748 -0.271105 1.076349 
0.025564 -0.271068 1.076201 
0.027383 -0.271062 1.076177 
0.029192 -0.270967 1.075799 
0.030981 -0.270709 1.074777 
0.032756 -0.270364 1.073406 
0.034521 -0.269975 1.071862 
0.036270 -0.269508 1.070009 
0.038024 -0.269119 1.068462 
0.039800 -0.268913 1.067644 
0.041569 -0.268684 1.066735 
0.043330 -0.268422 1.065695 
0.045076 -0.268090 1.064379 
0.046848 -0.267930 1.063744 
0.048622 -0.267797 1.063215 
0.050428 -0.267844 1.063401 
0.052231 -0.267870 1.063505 
0.054079 -0.268120 1.064498 
0.055880 -0.268126 1.064519 
0.057681 -0.268132 1.064544 
0.059488 -0.268164 1.064671 
0.061769 -0.272089 1.073032 
0.061317 -0.268292 1.065179 
-0.051646 -0.273462 1.093061 
-0.049775 -0.273333 1.092546 
-0.047887 -0.273099 1.091610 
-0.045997 -0.272833 1.090547 
-0.044108 -0.272553 1.089427 
-0.042216 -0.272232 1.088146 
-0.033120 -0.258655 1.033877 
-0.031229 -0.257477 1.029167 
-0.029452 -0.257153 1.027875 
-0.027722 -0.257221 1.028146 
-0.025978 -0.257166 1.027924 
-0.024228 -0.257039 1.027418 
-0.022474 -0.256847 1.026649 
-0.020719 -0.256604 1.025678 
-0.018963 -0.256308 1.024495 
-0.017213 -0.256031 1.023390 
-0.015466 -0.255754 1.022280 
-0.013725 -0.255508 1.021297 
-0.011990 -0.255332 1.020593 
-0.010261 -0.255247 1.020254 
-0.008536 -0.255247 1.020254 
-0.006812 -0.255276 1.020369 
-0.005090 -0.255419 1.020942 
-0.003367 -0.255659 1.021902 
-0.001642 -0.256001 1.023267 
0.000088 -0.256408 1.024896 
0.001825 -0.257042 1.027429 
0.003569 -0.257544 1.029437 
0.005319 -0.257991 1.031222 
0.007074 -0.258413 1.032910 
0.008834 -0.258828 1.034567 
0.010592 -0.259055 1.035475 
0.012355 -0.259313 1.036507 
0.014188 -0.260788 1.042403 
0.016062 -0.262615 1.049707 
0.017987 -0.264833 1.058573 
0.019934 -0.266942 1.066999 
0.021895 -0.268874 1.074725 
0.023767 -0.269494 1.077201 
0.025614 -0.269775 1.078327 
0.027431 -0.269714 1.078081 
0.029237 -0.269558 1.077458 
0.031017 -0.269203 1.076037 
0.032778 -0.268723 1.074121 
0.034522 -0.268169 1.071905 
0.036253 -0.267567 1.069498 
0.037991 -0.267077 1.067541 
0.039757 -0.266813 1.066485 
0.041524 -0.266586 1.065578 
0.043289 -0.266360 1.064675 
0.045044 -0.266094 1.063612 
0.046821 -0.265976 1.063140 
0.048600 -0.265874 1.062733 
0.050405 -0.265918 1.062908 
0.052211 -0.265968 1.063107 
0.054059 -0.266217 1.064102 
0.055873 -0.266287 1.064384 
0.057687 -0.266357 1.064662 
0.059514 -0.266477 1.065143 
0.061356 -0.266656 1.065859 
-0.051640 -0.271577 1.092932 
-0.049745 -0.271315 1.091880 
-0.047832 -0.270937 1.090358 
-0.045931 -0.270597 1.088989 
-0.044034 -0.270254 1.087608 
-0.042132 -0.269848 1.085973 
-0.039942 -0.269301 1.076431 
-0.039977 -0.267712 1.077378 
-0.033272 -0.258085 1.038636 
-0.031308 -0.256382 1.031783 
-0.029532 -0.256104 1.030663 
-0.027801 -0.256210 1.031090 
-0.026052 -0.256154 1.030865 
-0.024295 -0.255998 1.030239 
-0.022534 -0.255781 1.029364 
-0.020769 -0.255481 1.028156 
-0.019006 -0.255148 1.026817 
-0.017248 -0.254812 1.025464 
-0.015495 -0.254499 1.024206 
-0.013749 -0.254226 1.023107 
-0.012011 -0.254048 1.022388 
-0.010279 -0.253961 1.022038 
-0.008551 -0.253961 1.022038 
-0.006824 -0.253992 1.022166 
-0.005098 -0.254110 1.022640 
-0.003373 -0.254350 1.023603 
-0.001644 -0.254660 1.024853 
0.000088 -0.255062 1.026470 
0.001828 -0.255690 1.028999 
0.003575 -0.256249 1.031249 
0.005329 -0.256755 1.033283 
0.007089 -0.257237 1.035224 
0.008856 -0.257712 1.037136 
0.010620 -0.257968 1.038164 
0.012390 -0.258283 1.039434 
0.014203 -0.259298 1.043517 
0.016049 -0.260640 1.048918 
0.017937 -0.262312 1.055647 
0.021824 -0.266183 1.071224 
0.023730 -0.267255 1.075541 
0.025613 -0.267931 1.078262 
0.027465 -0.268215 1.079403 
0.029272 -0.268059 1.078776 
0.031047 -0.267640 1.077087 
0.032794 -0.267033 1.074646 
0.034521 -0.266344 1.071875 
0.036234 -0.265614 1.068935 
0.037962 -0.265061 1.066709 
0.039721 -0.264768 1.065533 
0.041488 -0.264547 1.064640 
0.043262 -0.264390 1.064010 
0.045033 -0.264225 1.063347 
0.046817 -0.264149 1.063042 
0.048602 -0.264083 1.062775 
0.050411 -0.264150 1.063045 
0.052222 -0.264222 1.063333 
0.054070 -0.264468 1.064325 
0.055891 -0.264571 1.064739 
0.057720 -0.264701 1.065262 
0.059556 -0.264856 1.065886 
0.061408 -0.265075 1.066765 
-0.049715 -0.269304 1.091229 
-0.047794 -0.268874 1.089488 
-0.045868 -0.268384 1.087504 
-0.043955 -0.267928 1.085656 
-0.042044 -0.267445 1.083696 
-0.039965 -0.265807 1.077059 
-0.031451 -0.255796 1.036494 
-0.029635 -0.255243 1.034253 
-0.027878 -0.255170 1.033957 
-0.026121 -0.255080 1.033594 
-0.024356 -0.254895 1.032846 
-0.022586 -0.254623 1.031742 
-0.020814 -0.254290 1.030391 
-0.019047 -0.253955 1.029035 
-0.017283 -0.253588 1.027547 
-0.015525 -0.253249 1.026175 
-0.013774 -0.252947 1.024951 
-0.012031 -0.252734 1.024088 
-0.010294 -0.252590 1.023503 
-0.008562 -0.252561 1.023387 
-0.006833 -0.252594 1.023522 
-0.005105 -0.252715 1.024012 
-0.003377 -0.252951 1.024967 
-0.001647 -0.253250 1.026179 
0.000088 -0.253615 1.027658 
0.001830 -0.254206 1.030054 
0.003579 -0.254762 1.032307 
0.005335 -0.255297 1.034472 
0.007099 -0.255815 1.036574 
0.008869 -0.256345 1.038720 
0.010637 -0.256635 1.039895 
0.012412 -0.256977 1.041283 
0.014208 -0.257627 1.043916 
0.016028 -0.258519 1.047528 
0.017883 -0.259742 1.052483 
0.021744 -0.263404 1.067322 
0.023677 -0.264837 1.073129 
0.025589 -0.265860 1.077275 
0.027468 -0.266422 1.079552 
0.029273 -0.266236 1.078800 
0.031044 -0.265783 1.076963 
0.032778 -0.265085 1.074136 
0.034496 -0.264335 1.071094 
0.036202 -0.263570 1.067996 
0.037927 -0.263014 1.065743 
0.039685 -0.262726 1.064576 
0.041461 -0.262572 1.063953 
0.043249 -0.262511 1.063704 
0.045032 -0.262420 1.063336 
0.046823 -0.262384 1.063189 
0.048615 -0.262353 1.063063 
0.050418 -0.262386 1.063198 
0.052224 -0.262426 1.063358 
0.054065 -0.262640 1.064227 
0.055881 -0.262718 1.064542 
0.057710 -0.262852 1.065087 
0.059560 -0.263069 1.065967 
0.061435 -0.263382 1.067234 
0.063708 -0.267158 1.075148 
0.063343 -0.263815 1.068987 
-0.047744 -0.266749 1.088354 
-0.045788 -0.266072 1.085589 
-0.043862 -0.265522 1.083345 
-0.041954 -0.265043 1.081391 
-0.039949 -0.263874 1.076621 
-0.037824 -0.263575 1.068015 
-0.037892 -0.262233 1.069927 
-0.033469 -0.257839 1.044772 
-0.031600 -0.255243 1.041408 
-0.029743 -0.254412 1.038018 
-0.027955 -0.254118 1.036817 
-0.026184 -0.253936 1.036073 
-0.024408 -0.253688 1.035062 
-0.022631 -0.253384 1.033822 
-0.020854 -0.253022 1.032345 
-0.019083 -0.252687 1.030979 
-0.017314 -0.252296 1.029385 
-0.015553 -0.251963 1.028026 
-0.013798 -0.251659 1.026783 
-0.012052 -0.251446 1.025915 
-0.010312 -0.251297 1.025307 
-0.008577 -0.251265 1.025179 
-0.006845 -0.251297 1.025306 
-0.005114 -0.251387 1.025677 
-0.003382 -0.251564 1.026398 
-0.001648 -0.251802 1.027366 
0.000088 -0.252103 1.028597 
0.001831 -0.252604 1.030642 
0.003581 -0.253127 1.032776 
0.005338 -0.253658 1.034940 
0.007102 -0.254180 1.037070 
0.008873 -0.254689 1.039147 
0.010644 -0.255030 1.040539 
0.012421 -0.255400 1.042047 
0.014200 -0.255709 1.043309 
0.015995 -0.256209 1.045350 
0.017821 -0.257053 1.048793 
0.023558 -0.261700 1.067755 
0.025495 -0.263062 1.073311 
0.027400 -0.263935 1.076873 
0.029227 -0.263988 1.077086 
0.031017 -0.263730 1.076035 
0.032749 -0.263031 1.073182 
0.034466 -0.262287 1.070147 
0.036170 -0.261532 1.067066 
0.037899 -0.261014 1.064955 
0.039661 -0.260758 1.063908 
0.041440 -0.260641 1.063430 
0.043234 -0.260614 1.063323 
0.045027 -0.260589 1.063220 
0.046824 -0.260587 1.063211 
0.048616 -0.260558 1.063092 
0.050414 -0.260560 1.063100 
0.052218 -0.260594 1.063242 
0.054048 -0.260752 1.063887 
0.055863 -0.260831 1.064205 
0.057705 -0.261021 1.064983 
0.059568 -0.261299 1.066117 
0.061475 -0.261742 1.067923 
0.063422 -0.262327 1.070313 
0.065719 -0.266118 1.078321 
0.065403 -0.263018 1.073132 
-0.041825 -0.262399 1.078060 
-0.039892 -0.261672 1.075075 
-0.037897 -0.260453 1.070068 
-0.035813 -0.258468 1.061911 
-0.031730 -0.254517 1.045676 
-0.029836 -0.253442 1.041261 
-0.028019 -0.252934 1.039174 
-0.026236 -0.252683 1.038142 
-0.024452 -0.252379 1.036892 
-0.022671 -0.252070 1.035623 
-0.020890 -0.251710 1.034145 
-0.019119 -0.251403 1.032885 
-0.017346 -0.251021 1.031314 
-0.015581 -0.250667 1.029861 
-0.013821 -0.250337 1.028504 
-0.012071 -0.250095 1.027510 
-0.010325 -0.249889 1.026663 
-0.008588 -0.249830 1.026419 
-0.006853 -0.249858 1.026535 
-0.005119 -0.249919 1.026789 
-0.003385 -0.250039 1.027281 
-0.001650 -0.250242 1.028113 
0.000089 -0.250481 1.029095 
0.001831 -0.250896 1.030802 
0.003581 -0.251406 1.032897 
0.005339 -0.251932 1.035058 
0.007102 -0.252421 1.037068 
0.008873 -0.252928 1.039151 
0.010645 -0.253293 1.040649 
0.012420 -0.253605 1.041932 
0.014198 -0.253910 1.043182 
0.015973 -0.254095 1.043943 
0.017772 -0.254582 1.045944 
0.019701 -0.258467 1.054561 
0.019624 -0.255667 1.050404 
0.025366 -0.259915 1.067855 
0.027287 -0.261024 1.072411 
0.029129 -0.261283 1.073476 
0.030943 -0.261279 1.073458 
0.032700 -0.260816 1.071558 
0.034427 -0.260182 1.068954 
0.036144 -0.259533 1.066286 
0.037886 -0.259116 1.064573 
0.039652 -0.258896 1.063671 
0.041431 -0.258781 1.063197 
0.043229 -0.258785 1.063211 
0.045032 -0.258815 1.063335 
0.046830 -0.258815 1.063335 
0.048622 -0.258785 1.063211 
0.050418 -0.258781 1.063198 
0.052222 -0.258810 1.063316 
0.054045 -0.258933 1.063821 
0.055866 -0.259036 1.064246 
0.057727 -0.259316 1.065395 
0.059613 -0.259685 1.066912 
0.061552 -0.260258 1.069265 
0.063520 -0.260919 1.071980 
0.065516 -0.261651 1.074986 
0.067785 -0.265242 1.082206 
0.067479 -0.262217 1.077312 
-0.041688 -0.259717 1.074527 
-0.039755 -0.258961 1.071397 
-0.037809 -0.258040 1.067586 
-0.035773 -0.256383 1.060733 
-0.033750 -0.256438 1.053570 
-0.033750 -0.254649 1.053558 
-0.031763 -0.253011 1.046781 
-0.029895 -0.252179 1.043339 
-0.028059 -0.251533 1.040664 
-0.026265 -0.251197 1.039274 
-0.024475 -0.250862 1.037888 
-0.022691 -0.250532 1.036524 
-0.020909 -0.250175 1.035047 
-0.019140 -0.249928 1.034024 
-0.017369 -0.249602 1.032677 
-0.015603 -0.249279 1.031341 
-0.013844 -0.249004 1.030202 
-0.012091 -0.248761 1.029196 
-0.010341 -0.248528 1.028235 
-0.008599 -0.248414 1.027761 
-0.006861 -0.248386 1.027644 
-0.005124 -0.248390 1.027664 
-0.003387 -0.248449 1.027907 
-0.001650 -0.248620 1.028614 
0.000089 -0.248801 1.029361 
0.001831 -0.249154 1.030824 
0.003580 -0.249601 1.032672 
0.005337 -0.250086 1.034679 
0.007098 -0.250515 1.036456 
0.008868 -0.251012 1.038509 
0.010639 -0.251373 1.040005 
0.012412 -0.251677 1.041261 
0.014189 -0.251980 1.042517 
0.015963 -0.252165 1.043282 
0.017739 -0.252343 1.044016 
0.019567 -0.253153 1.047368 
0.021498 -0.256846 1.055246 
0.021414 -0.254060 1.051120 
0.027151 -0.257916 1.067073 
0.029005 -0.258358 1.068904 
0.030836 -0.258566 1.069765 
0.032620 -0.258373 1.068965 
0.034381 -0.258024 1.067521 
0.036119 -0.257549 1.065557 
0.037878 -0.257258 1.064353 
0.039652 -0.257098 1.063691 
0.041432 -0.256982 1.063211 
0.043230 -0.256984 1.063220 
0.045032 -0.257012 1.063335 
0.046825 -0.256984 1.063220 
0.048610 -0.256924 1.062968 
0.050400 -0.256886 1.062812 
0.052201 -0.256905 1.062891 
0.054017 -0.256998 1.063278 
0.055856 -0.257189 1.064067 
0.057744 -0.257588 1.065718 
0.059655 -0.258061 1.067675 
0.061628 -0.258763 1.070579 
0.063622 -0.259518 1.073701 
0.065623 -0.260255 1.076750 
0.067582 -0.260789 1.078959 
0.069904 -0.264500 1.086692 
0.069589 -0.261474 1.081796 
-0.043395 -0.257247 1.071824 
-0.041544 -0.257003 1.070808 
-0.039635 -0.256369 1.068166 
-0.037702 -0.255502 1.064551 
-0.035724 -0.254233 1.059265 
-0.033752 -0.252879 1.053625 
-0.031808 -0.251587 1.048242 
-0.029934 -0.250735 1.044692 
-0.028088 -0.250026 1.041738 
-0.026283 -0.249608 1.039997 
-0.024492 -0.249276 1.038613 
-0.022707 -0.248954 1.037271 
-0.020926 -0.248631 1.035924 
-0.019158 -0.248413 1.035017 
-0.017390 -0.248148 1.033912 
-0.015622 -0.247832 1.032594 
-0.013863 -0.247587 1.031573 
-0.012107 -0.247340 1.030545 
-0.010353 -0.247079 1.029459 
-0.008607 -0.246907 1.028743 
-0.006866 -0.246847 1.028493 
-0.005127 -0.246819 1.028376 
-0.003389 -0.246822 1.028387 
-0.001651 -0.246961 1.028965 
0.000089 -0.247081 1.029468 
0.001831 -0.247373 1.030685 
0.003579 -0.247758 1.032287 
0.005333 -0.248180 1.034045 
0.007092 -0.248548 1.035577 
0.008858 -0.248980 1.037380 
0.010626 -0.249304 1.038730 
0.012394 -0.249553 1.039765 
0.014169 -0.249850 1.041004 
0.015944 -0.250089 1.041997 
0.017724 -0.250353 1.043100 
0.019532 -0.250929 1.045500 
0.021358 -0.251622 1.048386 
0.023303 -0.255281 1.056171 
0.023216 -0.252554 1.052270 
0.025217 -0.256597 1.061616 
0.025095 -0.253558 1.056452 
0.027001 -0.254695 1.061192 
0.028867 -0.255332 1.063844 
0.030719 -0.255777 1.065699 
0.032536 -0.255895 1.066191 
0.034331 -0.255841 1.065965 
0.036094 -0.255563 1.064809 
0.037870 -0.255399 1.064125 
0.039653 -0.255300 1.063712 
0.041437 -0.255210 1.063335 
0.043234 -0.255210 1.063335 
0.045027 -0.255182 1.063220 
0.046814 -0.255123 1.062972 
0.048593 -0.255029 1.062583 
0.050375 -0.254960 1.062293 
0.052181 -0.255009 1.062500 
0.054004 -0.255134 1.063018 
0.055857 -0.255390 1.064086 
0.057756 -0.255833 1.065933 
0.059704 -0.256459 1.068539 
0.061696 -0.257233 1.071764 
0.063709 -0.258049 1.075164 
0.065717 -0.258799 1.078290 
0.067690 -0.259374 1.080687 
0.069666 -0.259930 1.083003 
0.071567 -0.262023 1.084064 
0.071604 -0.260319 1.084623 
0.073570 -0.262630 1.086575 
0.073579 -0.260819 1.086707 
-0.043294 -0.254833 1.069319 
-0.041442 -0.254561 1.068176 
-0.039552 -0.254021 1.065912 
-0.037624 -0.253177 1.062370 
-0.035677 -0.252111 1.057896 
-0.033731 -0.250936 1.052966 
-0.031809 -0.249819 1.048278 
-0.029941 -0.249028 1.044958 
-0.028098 -0.248345 1.042092 
-0.026289 -0.247898 1.040218 
-0.024498 -0.247572 1.038849 
-0.022717 -0.247308 1.037742 
-0.020939 -0.247020 1.036532 
-0.019174 -0.246859 1.035857 
-0.017406 -0.246628 1.034888 
-0.015639 -0.246344 1.033697 
-0.013879 -0.246135 1.032821 
-0.012123 -0.245918 1.031908 
-0.010366 -0.245629 1.030698 
-0.008617 -0.245446 1.029930 
-0.006873 -0.245327 1.029428 
-0.005130 -0.245214 1.028956 
-0.003390 -0.245160 1.028728 
-0.001651 -0.245240 1.029065 
0.000089 -0.245277 1.029218 
0.001830 -0.245507 1.030185 
0.003576 -0.245827 1.031525 
0.005328 -0.246163 1.032937 
0.007083 -0.246493 1.034321 
0.008845 -0.246866 1.035885 
0.010609 -0.247158 1.037112 
0.012374 -0.247399 1.038123 
0.014148 -0.247722 1.039480 
0.015922 -0.247992 1.040612 
0.017704 -0.248313 1.041960 
0.019496 -0.248699 1.043580 
0.021304 -0.249212 1.045730 
0.023137 -0.249908 1.048651 
0.024985 -0.250670 1.051851 
0.026861 -0.251580 1.055666 
0.028736 -0.252378 1.059016 
0.030604 -0.253014 1.061686 
0.032451 -0.253424 1.063407 
0.034273 -0.253607 1.064174 
0.036064 -0.253545 1.063915 
0.037852 -0.253474 1.063617 
0.039639 -0.253408 1.063337 
0.041418 -0.253293 1.062857 
0.043215 -0.253292 1.062853 
0.045006 -0.253261 1.062721 
0.046786 -0.253170 1.062341 
0.048563 -0.253074 1.061937 
0.050344 -0.253002 1.061636 
0.052156 -0.253085 1.061984 
0.053980 -0.253219 1.062546 
0.055854 -0.253571 1.064023 
0.057767 -0.254076 1.066141 
0.059753 -0.254859 1.069425 
0.061763 -0.255693 1.072926 
0.063792 -0.256561 1.076568 
0.065801 -0.257299 1.079667 
0.067773 -0.257856 1.082001 
0.069717 -0.258281 1.083786 
0.071629 -0.258570 1.085000 
0.073583 -0.258992 1.086768 
0.075948 -0.262659 1.094370 
0.075484 -0.259210 1.087686 
-0.043218 -0.252581 1.067459 
-0.041353 -0.252213 1.065905 
-0.039472 -0.251708 1.063770 
-0.037541 -0.250822 1.060028 
-0.035618 -0.249898 1.056122 
-0.033689 -0.248842 1.051660 
-0.031792 -0.247907 1.047708 
-0.029929 -0.247149 1.044506 
-0.028091 -0.246522 1.041853 
-0.026282 -0.246076 1.039968 
-0.024497 -0.245806 1.038827 
-0.022720 -0.245577 1.037860 
-0.020946 -0.245348 1.036894 
-0.019185 -0.245245 1.036457 
-0.017422 -0.245097 1.035833 
-0.015655 -0.244850 1.034790 
-0.013896 -0.244675 1.034050 
-0.012137 -0.244463 1.033153 
-0.010377 -0.244145 1.031810 
-0.008624 -0.243909 1.030811 
-0.006877 -0.243754 1.030156 
-0.005132 -0.243586 1.029446 
-0.003391 -0.243501 1.029086 
-0.001651 -0.243523 1.029178 
0.000089 -0.243498 1.029074 
0.001830 -0.243665 1.029781 
0.003574 -0.243925 1.030880 
0.005323 -0.244199 1.032036 
0.007076 -0.244472 1.033190 
0.008834 -0.244809 1.034614 
0.010593 -0.245041 1.035596 
0.012355 -0.245252 1.036487 
0.014126 -0.245574 1.037846 
0.015899 -0.245871 1.039104 
0.017680 -0.246202 1.040504 
0.019472 -0.246618 1.042260 
0.021282 -0.247177 1.044620 
0.023094 -0.247671 1.046711 
0.024920 -0.248239 1.049110 
0.026772 -0.248969 1.052196 
0.028631 -0.249662 1.055125 
0.030482 -0.250217 1.057472 
0.032345 -0.250804 1.059951 
0.034187 -0.251171 1.061501 
0.035995 -0.251261 1.061884 
0.037794 -0.251286 1.061987 
0.039588 -0.251280 1.061962 
0.041369 -0.251196 1.061606 
0.043164 -0.251194 1.061598 
0.044953 -0.251160 1.061457 
0.046730 -0.251068 1.061065 
0.048510 -0.250996 1.060764 
0.050301 -0.250985 1.060717 
0.052119 -0.251105 1.061225 
0.053955 -0.251303 1.062059 
0.055855 -0.251771 1.064036 
0.057781 -0.252326 1.066385 
0.059801 -0.253249 1.070282 
0.061835 -0.254171 1.074179 
0.063886 -0.255109 1.078145 
0.065890 -0.255812 1.081118 
0.067861 -0.256357 1.083420 
0.069767 -0.256628 1.084563 
0.071653 -0.256819 1.085371 
0.073572 -0.257113 1.086612 
0.075912 -0.258827 1.093857 
-0.044954 -0.250388 1.065827 
-0.043115 -0.250172 1.064911 
-0.041259 -0.249836 1.063477 
-0.039387 -0.249365 1.061476 
-0.037466 -0.248522 1.057886 
-0.035562 -0.247718 1.054465 
-0.033652 -0.246787 1.050500 
-0.031768 -0.245949 1.046935 
-0.029911 -0.245234 1.043888 
-0.028084 -0.244691 1.041578 
-0.026275 -0.244248 1.039692 
-0.024494 -0.244012 1.038688 
-0.022720 -0.243817 1.037859 
-0.020951 -0.243649 1.037141 
-0.019192 -0.243581 1.036853 
-0.017433 -0.243488 1.036457 
-0.015668 -0.243301 1.035663 
-0.013909 -0.243155 1.035039 
-0.012150 -0.242976 1.034277 
-0.010388 -0.242659 1.032930 
-0.008633 -0.242394 1.031801 
-0.006883 -0.242211 1.031021 
-0.005136 -0.242016 1.030193 
-0.003393 -0.241875 1.029591 
-0.001652 -0.241837 1.029431 
0.000089 -0.241752 1.029069 
0.001829 -0.241858 1.029519 
0.003572 -0.242035 1.030270 
0.005319 -0.242248 1.031180 
0.007069 -0.242484 1.032185 
0.008824 -0.242762 1.033367 
0.010578 -0.242939 1.034119 
0.012337 -0.243144 1.034992 
0.014104 -0.243434 1.036227 
0.015873 -0.243707 1.037391 
0.017653 -0.244063 1.038903 
0.019441 -0.244470 1.040637 
0.021249 -0.245024 1.042995 
0.023057 -0.245508 1.045056 
0.024873 -0.245993 1.047119 
0.026706 -0.246572 1.049585 
0.028548 -0.247162 1.052097 
0.030378 -0.247580 1.053875 
0.032229 -0.248110 1.056131 
0.034076 -0.248556 1.058032 
0.035895 -0.248768 1.058933 
0.037702 -0.248882 1.059420 
0.039506 -0.248964 1.059767 
0.041293 -0.248938 1.059656 
0.043089 -0.248960 1.059751 
0.044879 -0.248956 1.059732 
0.046660 -0.248896 1.059478 
0.048444 -0.248862 1.059332 
0.050240 -0.248884 1.059428 
0.052056 -0.249006 1.059947 
0.053884 -0.249175 1.060664 
0.055774 -0.249606 1.062501 
0.057678 -0.250074 1.064493 
0.059736 -0.251160 1.069113 
0.061772 -0.252095 1.073095 
0.063872 -0.253227 1.077913 
0.065925 -0.254115 1.081694 
0.067949 -0.254850 1.084823 
0.069826 -0.255007 1.085492 
0.071698 -0.255139 1.086053 
0.073590 -0.255333 1.086879 
-0.043021 -0.247824 1.062583 
-0.041170 -0.247493 1.061163 
-0.039306 -0.247056 1.059289 
-0.037392 -0.246242 1.055800 
-0.035500 -0.245505 1.052638 
-0.033605 -0.244667 1.049045 
-0.031740 -0.243956 1.045995 
-0.029891 -0.243306 1.043212 
-0.028073 -0.242832 1.041179 
-0.026269 -0.242424 1.039430 
-0.024491 -0.242221 1.038557 
-0.022720 -0.242058 1.037858 
-0.020956 -0.241949 1.037390 
-0.019199 -0.241914 1.037240 
-0.017441 -0.241853 1.036978 
-0.015678 -0.241695 1.036305 
-0.013918 -0.241553 1.035692 
-0.012159 -0.241397 1.035026 
-0.010397 -0.241110 1.033794 
-0.008640 -0.240849 1.032676 
-0.006889 -0.240671 1.031910 
-0.005140 -0.240473 1.031062 
-0.003395 -0.240280 1.030234 
-0.001652 -0.240158 1.029712 
0.000089 -0.240039 1.029202 
0.001829 -0.240087 1.029406 
0.003571 -0.240206 1.029919 
0.005316 -0.240389 1.030703 
0.007064 -0.240566 1.031461 
0.008814 -0.240758 1.032284 
0.010565 -0.240870 1.032764 
0.012318 -0.241019 1.033403 
0.014079 -0.241252 1.034402 
0.015846 -0.241541 1.035641 
0.017622 -0.241889 1.037134 
0.019406 -0.242264 1.038743 
0.021207 -0.242782 1.040964 
0.023012 -0.243257 1.043000 
0.024825 -0.243742 1.045078 
0.026645 -0.244236 1.047196 
0.028476 -0.244757 1.049432 
0.030292 -0.245096 1.050884 
0.032120 -0.245489 1.052568 
0.033949 -0.245844 1.054092 
0.035766 -0.246090 1.055145 
0.037573 -0.246243 1.055804 
0.039377 -0.246360 1.056306 
0.041172 -0.246414 1.056535 
0.042968 -0.246469 1.056771 
0.044764 -0.246526 1.057015 
0.046557 -0.246558 1.057153 
0.048356 -0.246615 1.057399 
0.050161 -0.246700 1.057761 
0.051985 -0.246871 1.058496 
0.053815 -0.247060 1.059307 
0.055689 -0.247429 1.060888 
0.057578 -0.247840 1.062651 
0.059650 -0.248990 1.067579 
0.061702 -0.249989 1.071866 
0.063861 -0.251355 1.077723 
0.065946 -0.252363 1.082041 
0.068003 -0.253211 1.085678 
0.069860 -0.253289 1.086015 
0.071729 -0.253407 1.086521 
0.074150 -0.255418 1.095142 
-0.042918 -0.245437 1.060050 
-0.041083 -0.245176 1.058923 
-0.039222 -0.244739 1.057035 
-0.037317 -0.243965 1.053693 
-0.035438 -0.243292 1.050787 
-0.033555 -0.242524 1.047470 
-0.031701 -0.241886 1.044713 
-0.029863 -0.241309 1.042224 
-0.028057 -0.240926 1.040569 
-0.026260 -0.240579 1.039070 
-0.024485 -0.240407 1.038328 
-0.022720 -0.240298 1.037858 
-0.020961 -0.240246 1.037630 
-0.019206 -0.240241 1.037609 
-0.017450 -0.240213 1.037488 
-0.015689 -0.240105 1.037023 
-0.013928 -0.239964 1.036414 
-0.012168 -0.239810 1.035747 
-0.010406 -0.239553 1.034640 
-0.008648 -0.239323 1.033643 
-0.006896 -0.239148 1.032889 
-0.005145 -0.238954 1.032050 
-0.003398 -0.238758 1.031204 
-0.001654 -0.238608 1.030555 
0.000089 -0.238433 1.029801 
0.001829 -0.238424 1.029764 
0.003571 -0.238487 1.030035 
0.005315 -0.238615 1.030585 
0.007060 -0.238708 1.030989 
0.008808 -0.238838 1.031548 
0.010554 -0.238888 1.031768 
0.012304 -0.239001 1.032253 
0.014060 -0.239175 1.033006 
0.015821 -0.239408 1.034014 
0.017590 -0.239691 1.035235 
0.019366 -0.240005 1.036591 
0.021161 -0.240488 1.038679 
0.022962 -0.240965 1.040735 
0.024773 -0.241470 1.042919 
0.026581 -0.241881 1.044694 
0.028400 -0.242328 1.046622 
0.030195 -0.242534 1.047515 
0.032004 -0.242824 1.048767 
0.033814 -0.243091 1.049919 
0.035628 -0.243360 1.051080 
0.037430 -0.243521 1.051778 
0.039232 -0.243668 1.052411 
0.041021 -0.243727 1.052666 
0.042816 -0.243812 1.053034 
0.044618 -0.243932 1.053551 
0.046423 -0.244060 1.054102 
0.048235 -0.244209 1.054749 
0.050053 -0.244379 1.055482 
0.051873 -0.244550 1.056220 
0.053703 -0.244753 1.057098 
0.055560 -0.245061 1.058429 
0.057436 -0.245432 1.060029 
0.059488 -0.246507 1.064672 
0.061549 -0.247560 1.069221 
0.063778 -0.249204 1.076320 
0.068060 -0.251580 1.086582 
0.069911 -0.251630 1.086800 
0.071773 -0.251719 1.087184 
-0.044639 -0.243249 1.058350 
-0.042812 -0.243037 1.057427 
-0.040979 -0.242768 1.056257 
-0.039135 -0.242404 1.054675 
-0.037243 -0.241697 1.051598 
-0.035373 -0.241070 1.048869 
-0.033504 -0.240378 1.045861 
-0.031663 -0.239831 1.043481 
-0.029838 -0.239345 1.041362 
-0.028040 -0.239022 1.039961 
-0.026251 -0.238736 1.038717 
-0.024483 -0.238620 1.038209 
-0.022720 -0.238539 1.037858 
-0.020963 -0.238514 1.037748 
-0.019209 -0.238512 1.037740 
-0.017454 -0.238511 1.037736 
-0.015695 -0.238432 1.037390 
-0.013934 -0.238318 1.036894 
-0.012173 -0.238167 1.036239 
-0.010413 -0.237965 1.035361 
-0.008654 -0.237742 1.034388 
-0.006901 -0.237572 1.033651 
-0.005149 -0.237378 1.032804 
-0.003400 -0.237155 1.031837 
-0.001654 -0.236953 1.030959 
0.000089 -0.236750 1.030076 
0.001830 -0.236687 1.029801 
0.003571 -0.236719 1.029939 
0.005315 -0.236842 1.030473 
0.007058 -0.236881 1.030643 
0.008803 -0.236951 1.030949 
0.010546 -0.236963 1.031001 
0.012292 -0.237016 1.031230 
0.014040 -0.237087 1.031541 
0.015797 -0.237285 1.032403 
0.017559 -0.237508 1.033371 
0.019328 -0.237788 1.034590 
0.021115 -0.238211 1.036432 
0.022912 -0.238682 1.038478 
0.024719 -0.239180 1.040647 
0.026526 -0.239612 1.042528 
0.028331 -0.239972 1.044093 
0.030114 -0.240116 1.044721 
0.031906 -0.240308 1.045553 
0.033698 -0.240481 1.046306 
0.035493 -0.240662 1.047095 
0.037284 -0.240793 1.047665 
0.039078 -0.240938 1.048294 
0.040869 -0.241048 1.048775 
0.042663 -0.241164 1.049278 
0.044465 -0.241320 1.049955 
0.046281 -0.241531 1.050873 
0.048099 -0.241742 1.051793 
0.049925 -0.241971 1.052790 
0.051748 -0.242174 1.053675 
0.053586 -0.242432 1.054794 
0.055428 -0.242688 1.055911 
0.057286 -0.242999 1.057262 
-0.046365 -0.241128 1.056919 
-0.044556 -0.241008 1.056391 
-0.042716 -0.240702 1.055052 
-0.040882 -0.240403 1.053741 
-0.039036 -0.240011 1.052019 
-0.037163 -0.239399 1.049338 
-0.035306 -0.238841 1.046895 
-0.033456 -0.238269 1.044386 
-0.031630 -0.237809 1.042370 
-0.029817 -0.237408 1.040610 
-0.028026 -0.237141 1.039441 
-0.026244 -0.236917 1.038459 
-0.024480 -0.236832 1.038087 
-0.022720 -0.236780 1.037858 
-0.020965 -0.236780 1.037858 
-0.019211 -0.236780 1.037858 
-0.017456 -0.236780 1.037858 
-0.015698 -0.236728 1.037630 
-0.013938 -0.236618 1.037150 
-0.012177 -0.236474 1.036516 
-0.010417 -0.236299 1.035750 
-0.008658 -0.236079 1.034785 
-0.006903 -0.235885 1.033937 
-0.005151 -0.235691 1.033085 
-0.003400 -0.235442 1.031996 
-0.001654 -0.235213 1.030988 
0.000089 -0.235011 1.030104 
0.001830 -0.234945 1.029817 
0.003571 -0.234948 1.029828 
0.005314 -0.235041 1.030236 
0.007056 -0.235050 1.030277 
0.008798 -0.235067 1.030348 
0.010538 -0.235025 1.030167 
0.012281 -0.235047 1.030263 
0.014023 -0.235062 1.030330 
0.015776 -0.235230 1.031066 
0.017534 -0.235420 1.031899 
0.019298 -0.235665 1.032974 
0.021077 -0.236030 1.034572 
0.022870 -0.236490 1.036590 
0.024669 -0.236933 1.038530 
0.026467 -0.237308 1.040174 
0.028264 -0.237636 1.041612 
0.030043 -0.237776 1.042224 
0.031823 -0.237915 1.042835 
0.033605 -0.238053 1.043437 
0.035395 -0.238222 1.044180 
0.037174 -0.238314 1.044582 
0.038958 -0.238426 1.045073 
0.040744 -0.238534 1.045546 
0.042536 -0.238674 1.046161 
0.044338 -0.238853 1.046945 
0.046154 -0.239093 1.047999 
0.047979 -0.239356 1.049149 
0.049807 -0.239618 1.050299 
0.051633 -0.239853 1.051329 
0.053470 -0.240120 1.052500 
0.055291 -0.240302 1.053298 
0.057104 -0.240439 1.053896 
0.059007 -0.240935 1.056073 
-0.048160 -0.241170 1.057101 
-0.048128 -0.239217 1.056390 
-0.046316 -0.239082 1.055794 
-0.044493 -0.238880 1.054902 
-0.042640 -0.238489 1.053175 
-0.040801 -0.238146 1.051662 
-0.038951 -0.237708 1.049725 
-0.037095 -0.237187 1.047424 
-0.035255 -0.236720 1.045365 
-0.033420 -0.236241 1.043247 
-0.031602 -0.235840 1.041475 
-0.029801 -0.235520 1.040062 
-0.028015 -0.235288 1.039041 
-0.026238 -0.235099 1.038205 
-0.024477 -0.235045 1.037968 
-0.022720 -0.235020 1.037858 
-0.020965 -0.235020 1.037858 
-0.019211 -0.235020 1.037858 
-0.017456 -0.235020 1.037858 
-0.015700 -0.234996 1.037748 
-0.013939 -0.234891 1.037284 
-0.012178 -0.234749 1.036661 
-0.010419 -0.234602 1.036008 
-0.008660 -0.234379 1.035027 
-0.006904 -0.234160 1.034058 
-0.005151 -0.233963 1.033187 
-0.003401 -0.233710 1.032070 
-0.001654 -0.233457 1.030955 
0.000089 -0.233255 1.030063 
0.001830 -0.233191 1.029780 
0.003570 -0.233196 1.029803 
0.005313 -0.233285 1.030193 
0.007055 -0.233271 1.030133 
0.008796 -0.233262 1.030091 
0.010534 -0.233193 1.029789 
0.012273 -0.233163 1.029656 
0.014012 -0.233122 1.029475 
0.015763 -0.233285 1.030193 
0.017517 -0.233445 1.030900 
0.019275 -0.233640 1.031763 
0.021047 -0.233946 1.033114 
0.022835 -0.234366 1.034969 
0.024624 -0.234746 1.036646 
0.026418 -0.235116 1.038281 
0.028214 -0.235449 1.039752 
0.029993 -0.235617 1.040491 
0.031767 -0.235729 1.040988 
0.033538 -0.235813 1.041357 
0.035311 -0.235895 1.041722 
0.037081 -0.235951 1.041969 
0.038856 -0.236033 1.042327 
0.040636 -0.236139 1.042797 
0.042424 -0.236279 1.043415 
0.044226 -0.236479 1.044298 
0.046036 -0.236711 1.045323 
0.047856 -0.236970 1.046467 
0.049680 -0.237233 1.047627 
0.051513 -0.237518 1.048888 
0.053352 -0.237813 1.050192 
0.055173 -0.238008 1.051051 
0.056974 -0.238110 1.051502 
0.058768 -0.238178 1.051800 
-0.049966 -0.237675 1.057495 
-0.048120 -0.237388 1.056221 
-0.046288 -0.237149 1.055156 
-0.044444 -0.236827 1.053724 
-0.042576 -0.236348 1.051593 
-0.040725 -0.235923 1.049701 
-0.038879 -0.235489 1.047769 
-0.037035 -0.235031 1.045732 
-0.035207 -0.234632 1.043956 
-0.033383 -0.234214 1.042098 
-0.031576 -0.233876 1.040593 
-0.029783 -0.233615 1.039431 
-0.028002 -0.233418 1.038557 
-0.026232 -0.233286 1.037968 
-0.024474 -0.233261 1.037858 
-0.022720 -0.233261 1.037858 
-0.020965 -0.233261 1.037858 
-0.019211 -0.233261 1.037858 
-0.017456 -0.233261 1.037858 
-0.015702 -0.233261 1.037858 
-0.013941 -0.233158 1.037399 
-0.012180 -0.233018 1.036776 
-0.010420 -0.232868 1.036108 
-0.008661 -0.232645 1.035118 
-0.006903 -0.232400 1.034027 
-0.005151 -0.232200 1.033136 
-0.003401 -0.231949 1.032019 
-0.001654 -0.231695 1.030891 
0.000089 -0.231499 1.030019 
0.001829 -0.231439 1.029752 
0.003570 -0.231447 1.029785 
0.005313 -0.231514 1.030084 
