1625
-0.054753 -0.152605 0.982957 
-0.053092 -0.152609 0.982980 
-0.051352 -0.152375 0.981471 
-0.049599 -0.152089 0.979628 
-0.047723 -0.151390 0.975130 
-0.007709 -0.143045 0.921379 
-0.006151 -0.143046 0.921383 
-0.004595 -0.143076 0.921576 
-0.003038 -0.143121 0.921864 
-0.001480 -0.143167 0.922161 
0.000079 -0.143228 0.922554 
0.001639 -0.143262 0.922774 
0.003200 -0.143266 0.922801 
0.004760 -0.143279 0.922883 
0.006321 -0.143304 0.923043 
0.007880 -0.143279 0.922883 
0.009440 -0.143279 0.922883 
0.010998 -0.143245 0.922665 
0.012552 -0.143180 0.922247 
0.014104 -0.143102 0.921747 
0.015657 -0.143056 0.921445 
0.017211 -0.143027 0.921263 
0.018771 -0.143043 0.921367 
0.020331 -0.143060 0.921476 
0.021882 -0.143019 0.921209 
0.023445 -0.143054 0.921437 
0.025008 -0.143080 0.921604 
0.026572 -0.143116 0.921837 
0.028149 -0.143211 0.922444 
0.029737 -0.143346 0.923314 
0.031303 -0.143369 0.923464 
0.032877 -0.143427 0.923834 
0.034455 -0.143495 0.924274 
0.036023 -0.143516 0.924408 
0.037610 -0.143609 0.925010 
0.039204 -0.143719 0.925721 
0.040789 -0.143788 0.926164 
0.042381 -0.143880 0.926754 
0.043993 -0.144027 0.927701 
0.045592 -0.144125 0.928335 
0.047193 -0.144222 0.928957 
0.048794 -0.144310 0.929526 
0.050379 -0.144350 0.929782 
0.051961 -0.144378 0.929965 
0.053551 -0.144427 0.930281 
0.055156 -0.144510 0.930815 
0.056761 -0.144591 0.931333 
0.058389 -0.144725 0.932197 
0.060022 -0.144862 0.933078 
0.061649 -0.144978 0.933828 
0.063296 -0.145135 0.934839 
0.064952 -0.145304 0.935929 
0.066606 -0.145462 0.936942 
0.068245 -0.145579 0.937696 
0.069892 -0.145707 0.938521 
0.071510 -0.145771 0.938935 
0.073127 -0.145830 0.939313 
0.074730 -0.145860 0.939508 
0.076344 -0.145908 0.939817 
0.077967 -0.145974 0.940240 
0.079602 -0.146055 0.940766 
0.081228 -0.146121 0.941189 
0.082847 -0.146169 0.941498 
0.084464 -0.146213 0.941784 
0.086092 -0.146273 0.942172 
0.087732 -0.146353 0.942685 
0.089405 -0.146484 0.943525 
0.091055 -0.146571 0.944086 
0.092721 -0.146683 0.944808 
0.094367 -0.146758 0.945296 
0.096037 -0.146867 0.945996 
0.097702 -0.146967 0.946641 
0.099413 -0.147130 0.947691 
0.101095 -0.147247 0.948441 
0.102775 -0.147357 0.949150 
0.104445 -0.147449 0.949746 
0.106120 -0.147545 0.950364 
0.107790 -0.147632 0.950925 
0.109483 -0.147747 0.951663 
0.111187 -0.147874 0.952483 
0.112883 -0.147986 0.953205 
0.114620 -0.148149 0.954253 
0.116424 -0.148392 0.955820 
0.118217 -0.148615 0.957256 
0.120000 -0.148819 0.958571 
0.121804 -0.149043 0.960012 
0.123560 -0.149204 0.961048 
0.125286 -0.149325 0.961824 
0.127079 -0.149522 0.963093 
0.128946 -0.149799 0.964880 
0.130828 -0.150087 0.966736 
0.132764 -0.150428 0.968932 
0.134691 -0.150751 0.971015 
0.136607 -0.151055 0.972970 
0.138470 -0.151293 0.974506 
0.141550 -0.152840 0.984470 
-0.207686 -0.142968 0.931048 
-0.204049 -0.141538 0.921733 
-0.203037 -0.141919 0.924215 
-0.202126 -0.142378 0.927206 
-0.201301 -0.142906 0.930640 
-0.200387 -0.143377 0.933711 
-0.199212 -0.143668 0.935603 
-0.197926 -0.145471 0.937005 
-0.197904 -0.143867 0.936903 
-0.090283 -0.152007 0.989910 
-0.087886 -0.150765 0.981820 
-0.086224 -0.150762 0.981803 
-0.084556 -0.150747 0.981704 
-0.082916 -0.150782 0.981932 
-0.081302 -0.150867 0.982487 
-0.079696 -0.150973 0.983175 
-0.078081 -0.151062 0.983758 
-0.076469 -0.151163 0.984416 
-0.074837 -0.151229 0.984846 
-0.073212 -0.151311 0.985378 
-0.071587 -0.151398 0.985942 
-0.069932 -0.151423 0.986105 
-0.068264 -0.151422 0.986099 
-0.066564 -0.151347 0.985610 
-0.064844 -0.151221 0.984791 
-0.063127 -0.151096 0.983981 
-0.061308 -0.150714 0.981489 
-0.059483 -0.150295 0.978760 
-0.057686 -0.149926 0.976360 
-0.055901 -0.149566 0.974015 
-0.054243 -0.149533 0.973798 
-0.052604 -0.149554 0.973937 
-0.050867 -0.149290 0.972220 
-0.049106 -0.148932 0.969883 
-0.033022 -0.144757 0.932405 
-0.034383 -0.142288 0.926616 
-0.032736 -0.141937 0.924335 
-0.031431 -0.144691 0.931982 
-0.031170 -0.141923 0.924242 
-0.029840 -0.144618 0.931510 
-0.029602 -0.141897 0.924075 
-0.028329 -0.144945 0.933612 
-0.028099 -0.142196 0.926017 
-0.015678 -0.144717 0.932149 
-0.017091 -0.141783 0.923330 
-0.015513 -0.141631 0.922339 
-0.014057 -0.144254 0.929163 
-0.013942 -0.141514 0.921576 
-0.012449 -0.143826 0.926406 
-0.012379 -0.141455 0.921191 
-0.010853 -0.143423 0.923814 
-0.010819 -0.141411 0.920907 
-0.009267 -0.143060 0.921476 
-0.009259 -0.141367 0.920621 
-0.007701 -0.141336 0.920422 
-0.006144 -0.141320 0.920312 
-0.004589 -0.141334 0.920407 
-0.003033 -0.141366 0.920614 
-0.001478 -0.141426 0.921006 
0.000079 -0.141485 0.921391 
0.001637 -0.141529 0.921675 
0.003196 -0.141529 0.921678 
0.004754 -0.141527 0.921665 
0.006312 -0.141540 0.921747 
0.007869 -0.141514 0.921581 
0.009426 -0.141501 0.921493 
0.010981 -0.141456 0.921202 
0.012534 -0.141406 0.920878 
0.014084 -0.141343 0.920467 
0.015637 -0.141313 0.920267 
0.017191 -0.141300 0.920186 
0.018751 -0.141330 0.920381 
0.020309 -0.141349 0.920505 
0.021861 -0.141324 0.920338 
0.023421 -0.141348 0.920498 
0.024980 -0.141360 0.920572 
0.026539 -0.141378 0.920695 
0.028111 -0.141453 0.921178 
0.029692 -0.141569 0.921934 
0.031258 -0.141603 0.922158 
0.032831 -0.141661 0.922537 
0.034407 -0.141730 0.922987 
0.035972 -0.141749 0.923105 
0.037554 -0.141828 0.923621 
0.039141 -0.141922 0.924232 
0.040723 -0.141988 0.924667 
0.042317 -0.142092 0.925343 
0.043927 -0.142239 0.926302 
0.045529 -0.142352 0.927035 
0.047138 -0.142481 0.927872 
0.048748 -0.142600 0.928651 
0.050338 -0.142658 0.929027 
0.051929 -0.142715 0.929397 
0.053529 -0.142791 0.929893 
0.055133 -0.142873 0.930430 
0.056738 -0.142954 0.930953 
0.058360 -0.143072 0.931721 
0.059984 -0.143190 0.932494 
0.061603 -0.143288 0.933131 
0.063243 -0.143429 0.934048 
0.064897 -0.143596 0.935137 
0.066557 -0.143767 0.936252 
0.068209 -0.143912 0.937196 
0.069863 -0.144056 0.938133 
0.071495 -0.144150 0.938741 
0.073113 -0.144210 0.939132 
0.074715 -0.144237 0.939313 
0.076318 -0.144267 0.939508 
0.077932 -0.144315 0.939817 
0.079557 -0.144380 0.940240 
0.081192 -0.144460 0.940766 
0.082820 -0.144525 0.941189 
0.084438 -0.144573 0.941498 
0.086065 -0.144632 0.941882 
0.087712 -0.144722 0.942469 
0.089374 -0.144834 0.943196 
0.091015 -0.144907 0.943675 
0.092679 -0.145015 0.944377 
0.094324 -0.145090 0.944863 
0.095982 -0.145181 0.945456 
0.097647 -0.145280 0.946104 
0.099357 -0.145442 0.947160 
0.101050 -0.145574 0.948018 
0.102742 -0.145702 0.948848 
0.104413 -0.145794 0.949449 
0.106086 -0.145888 0.950063 
0.107764 -0.145985 0.950693 
0.109446 -0.146085 0.951344 
0.111138 -0.146196 0.952066 
0.112844 -0.146320 0.952879 
0.114591 -0.146494 0.954009 
0.116398 -0.146739 0.955603 
0.118205 -0.146977 0.957153 
0.120000 -0.147194 0.958571 
0.121791 -0.147400 0.959910 
0.123545 -0.147558 0.960935 
0.125257 -0.147660 0.961603 
0.127036 -0.147838 0.962764 
0.128915 -0.148128 0.964652 
0.130827 -0.148447 0.966728 
0.132796 -0.148822 0.969170 
0.134755 -0.149177 0.971479 
0.136715 -0.149524 0.973740 
0.138607 -0.149790 0.975471 
-0.207260 -0.141100 0.929139 
-0.203677 -0.139720 0.920052 
-0.202747 -0.140152 0.922897 
-0.201948 -0.140682 0.926388 
-0.201201 -0.141257 0.930174 
-0.200353 -0.141770 0.933553 
-0.199233 -0.142097 0.935703 
-0.197900 -0.142276 0.936880 
-0.091205 -0.149100 0.981820 
-0.089526 -0.149068 0.981608 
-0.087846 -0.149034 0.981382 
-0.086167 -0.148999 0.981152 
-0.084490 -0.148966 0.980937 
-0.082840 -0.148981 0.981036 
-0.081208 -0.149030 0.981360 
-0.079586 -0.149098 0.981807 
-0.077969 -0.149182 0.982357 
-0.076359 -0.149281 0.983009 
-0.074732 -0.149349 0.983459 
-0.073111 -0.149435 0.984025 
-0.071496 -0.149537 0.984693 
-0.069844 -0.149563 0.984868 
-0.068046 -0.149271 0.982943 
-0.066218 -0.148897 0.980483 
-0.064373 -0.148465 0.977636 
-0.062536 -0.148029 0.974768 
-0.037934 -0.143874 0.936948 
-0.039219 -0.141208 0.929852 
-0.037566 -0.140903 0.927840 
-0.036139 -0.143038 0.931502 
-0.035896 -0.140509 0.925248 
-0.034248 -0.140165 0.922982 
-0.032687 -0.140161 0.922954 
-0.031124 -0.140147 0.922864 
-0.029558 -0.140120 0.922685 
-0.027992 -0.140092 0.922500 
-0.026585 -0.142472 0.927819 
-0.026421 -0.140030 0.922094 
-0.025069 -0.142773 0.929777 
-0.024854 -0.139983 0.921782 
-0.023508 -0.142838 0.930202 
-0.023300 -0.140008 0.921948 
-0.021938 -0.142853 0.930297 
-0.021747 -0.140044 0.922186 
-0.020317 -0.142515 0.928094 
-0.020191 -0.140068 0.922342 
-0.018701 -0.142156 0.925760 
-0.018632 -0.140067 0.922339 
-0.017069 -0.140041 0.922168 
-0.015499 -0.139936 0.921476 
-0.013931 -0.139836 0.920812 
-0.012369 -0.139776 0.920419 
-0.010809 -0.139728 0.920106 
-0.009249 -0.139656 0.919632 
-0.007692 -0.139610 0.919329 
-0.006136 -0.139580 0.919127 
-0.004582 -0.139578 0.919118 
-0.003029 -0.139597 0.919238 
-0.001476 -0.139670 0.919725 
0.000079 -0.139719 0.920042 
0.001635 -0.139761 0.920324 
0.003191 -0.139759 0.920306 
0.004747 -0.139754 0.920275 
0.006302 -0.139753 0.920267 
0.007857 -0.139729 0.920109 
0.009411 -0.139718 0.920036 
0.010964 -0.139686 0.919825 
0.012516 -0.139652 0.919605 
0.014066 -0.139607 0.919307 
0.015619 -0.139592 0.919209 
0.017173 -0.139593 0.919219 
0.018731 -0.139623 0.919415 
0.020288 -0.139640 0.919524 
0.021842 -0.139641 0.919534 
0.023404 -0.139682 0.919800 
0.024961 -0.139697 0.919900 
0.026520 -0.139715 0.920016 
0.028089 -0.139783 0.920469 
0.029663 -0.139870 0.921036 
0.031229 -0.139906 0.921279 
0.032800 -0.139966 0.921672 
0.034375 -0.140035 0.922127 
0.035938 -0.140051 0.922234 
0.037513 -0.140111 0.922629 
0.039090 -0.140173 0.923033 
0.040665 -0.140221 0.923349 
0.042251 -0.140306 0.923910 
0.043850 -0.140425 0.924691 
0.045455 -0.140553 0.925537 
0.047073 -0.140712 0.926581 
0.048692 -0.140864 0.927583 
0.050292 -0.140954 0.928180 
0.051897 -0.141053 0.928827 
0.053501 -0.141141 0.929412 
0.055104 -0.141221 0.929937 
0.056708 -0.141302 0.930471 
0.058329 -0.141418 0.931234 
0.059948 -0.141522 0.931921 
0.061564 -0.141616 0.932537 
0.063202 -0.141756 0.933456 
0.064850 -0.141908 0.934459 
0.066509 -0.142077 0.935573 
0.068166 -0.142233 0.936602 
0.069819 -0.142376 0.937543 
0.071458 -0.142485 0.938257 
0.073090 -0.142573 0.938838 
0.074693 -0.142603 0.939035 
0.076295 -0.142631 0.939223 
0.077907 -0.142675 0.939508 
0.079521 -0.142722 0.939817 
0.081154 -0.142800 0.940330 
0.082791 -0.142881 0.940864 
0.084420 -0.142945 0.941289 
0.086047 -0.143006 0.941686 
0.087694 -0.143094 0.942270 
0.089336 -0.143174 0.942794 
0.090965 -0.143229 0.943160 
0.092609 -0.143306 0.943666 
0.094252 -0.143379 0.944144 
0.095908 -0.143468 0.944734 
0.097582 -0.143581 0.945479 
0.099292 -0.143743 0.946542 
0.100995 -0.143890 0.947508 
0.102697 -0.144030 0.948431 
0.104368 -0.144122 0.949042 
0.106041 -0.144216 0.949655 
0.107728 -0.144325 0.950375 
0.109409 -0.144424 0.951025 
0.111091 -0.144519 0.951656 
0.112807 -0.144658 0.952565 
0.114565 -0.144844 0.953792 
0.116373 -0.145088 0.955399 
0.118192 -0.145339 0.957053 
0.120000 -0.145570 0.958571 
0.121777 -0.145757 0.959805 
0.123530 -0.145911 0.960816 
0.125227 -0.145995 0.961373 
0.126994 -0.146158 0.962447 
0.128887 -0.146461 0.964442 
0.130829 -0.146810 0.966741 
0.132817 -0.147202 0.969322 
0.134809 -0.147589 0.971866 
0.136798 -0.147963 0.974335 
0.138706 -0.148242 0.976169 
-0.210500 -0.140640 0.936566 
-0.206713 -0.139157 0.926690 
-0.203295 -0.137901 0.918327 
-0.202410 -0.138357 0.921362 
-0.201720 -0.138955 0.925341 
-0.201034 -0.139565 0.929403 
-0.200276 -0.140134 0.933194 
-0.199255 -0.140526 0.935808 
-0.197938 -0.140715 0.937061 
-0.196525 -0.142427 0.937876 
-0.196563 -0.140865 0.938059 
-0.107004 -0.150309 0.989781 
-0.107639 -0.147211 0.980321 
-0.105969 -0.147193 0.980203 
-0.104389 -0.148965 0.980930 
-0.104255 -0.147114 0.979674 
-0.102712 -0.148937 0.980746 
-0.102596 -0.147109 0.979644 
-0.101053 -0.148936 0.980740 
-0.100961 -0.147139 0.979846 
-0.099403 -0.148949 0.980822 
-0.099323 -0.147167 0.980029 
-0.097782 -0.149005 0.981191 
-0.097704 -0.147224 0.980410 
-0.096184 -0.149099 0.981810 
-0.096119 -0.147336 0.981152 
-0.094524 -0.149099 0.981813 
-0.094473 -0.147355 0.981283 
-0.092865 -0.149100 0.981820 
-0.092826 -0.147373 0.981404 
-0.091166 -0.147373 0.981401 
-0.089486 -0.147338 0.981167 
-0.087796 -0.147286 0.980821 
-0.086116 -0.147247 0.980564 
-0.084438 -0.147213 0.980335 
-0.082780 -0.147211 0.980324 
-0.081132 -0.147227 0.980431 
-0.079492 -0.147260 0.980649 
-0.077861 -0.147311 0.980985 
-0.076246 -0.147395 0.981546 
-0.074622 -0.147466 0.982017 
-0.073012 -0.147566 0.982686 
-0.071414 -0.147697 0.983560 
-0.069640 -0.147462 0.981991 
-0.067698 -0.146850 0.977919 
-0.065732 -0.146155 0.973291 
-0.063750 -0.145387 0.968176 
-0.040509 -0.138668 0.923434 
-0.038858 -0.138345 0.921283 
-0.037308 -0.138374 0.921472 
-0.035744 -0.138349 0.921309 
-0.034186 -0.138349 0.921306 
-0.032628 -0.138346 0.921285 
-0.031064 -0.138318 0.921099 
-0.029498 -0.138278 0.920838 
-0.027933 -0.138235 0.920551 
-0.026365 -0.138174 0.920144 
-0.024801 -0.138124 0.919809 
-0.023247 -0.138134 0.919874 
-0.021697 -0.138168 0.920100 
-0.020148 -0.138207 0.920359 
-0.018596 -0.138238 0.920567 
-0.017041 -0.138247 0.920627 
-0.015478 -0.138187 0.920232 
-0.013915 -0.138114 0.919740 
-0.012354 -0.138053 0.919339 
-0.010795 -0.137992 0.918932 
-0.009236 -0.137906 0.918355 
-0.007680 -0.137845 0.917951 
-0.006126 -0.137798 0.917641 
-0.004575 -0.137809 0.917713 
-0.003025 -0.137841 0.917923 
-0.001474 -0.137944 0.918609 
0.000079 -0.138007 0.919031 
0.001633 -0.138052 0.919331 
0.003187 -0.138050 0.919315 
0.004741 -0.138030 0.919186 
0.006293 -0.138001 0.918990 
0.007845 -0.137963 0.918735 
0.009397 -0.137950 0.918648 
0.010947 -0.137907 0.918365 
0.012496 -0.137876 0.918156 
0.014046 -0.137845 0.917952 
0.015598 -0.137847 0.917965 
0.017152 -0.137863 0.918073 
0.018709 -0.137906 0.918355 
0.020268 -0.137946 0.918624 
0.021825 -0.137975 0.918816 
0.023388 -0.138031 0.919189 
0.024948 -0.138062 0.919398 
0.026508 -0.138092 0.919595 
0.028074 -0.138149 0.919973 
0.029642 -0.138208 0.920366 
0.031209 -0.138258 0.920701 
0.032777 -0.138306 0.921024 
0.034348 -0.138362 0.921397 
0.035913 -0.138389 0.921575 
0.037485 -0.138444 0.921941 
0.039053 -0.138475 0.922149 
0.040624 -0.138518 0.922432 
0.042205 -0.138587 0.922893 
0.043792 -0.138674 0.923473 
0.045390 -0.138785 0.924209 
0.047005 -0.138940 0.925240 
0.048618 -0.139082 0.926188 
0.050228 -0.139203 0.926994 
0.051838 -0.139318 0.927760 
0.053450 -0.139433 0.928528 
0.055057 -0.139527 0.929151 
0.056671 -0.139634 0.929862 
0.058286 -0.139736 0.930543 
0.059908 -0.139851 0.931310 
0.061524 -0.139944 0.931930 
0.063155 -0.140069 0.932762 
0.064796 -0.140206 0.933675 
0.066451 -0.140369 0.934762 
0.068100 -0.140510 0.935697 
0.069751 -0.140649 0.936623 
0.071397 -0.140773 0.937452 
0.073036 -0.140877 0.938145 
0.074646 -0.140924 0.938454 
0.076256 -0.140967 0.938741 
0.077867 -0.141010 0.939026 
0.079479 -0.141054 0.939321 
0.081111 -0.141130 0.939824 
0.082754 -0.141222 0.940438 
0.084392 -0.141303 0.940977 
0.086021 -0.141366 0.941397 
0.087667 -0.141454 0.941983 
0.089298 -0.141516 0.942395 
0.090915 -0.141552 0.942639 
0.092539 -0.141598 0.942947 
0.094170 -0.141654 0.943320 
0.095816 -0.141731 0.943826 
0.097498 -0.141856 0.944664 
0.099207 -0.142017 0.945732 
0.100918 -0.142175 0.946784 
0.102629 -0.142328 0.947802 
0.104311 -0.142436 0.948523 
0.105983 -0.142528 0.949138 
0.107670 -0.142637 0.949865 
0.109360 -0.142748 0.950601 
0.111043 -0.142846 0.951251 
0.112760 -0.142983 0.952169 
0.114518 -0.143169 0.953403 
0.116324 -0.143409 0.955001 
0.118132 -0.143643 0.956560 
0.119950 -0.143885 0.958171 
0.121727 -0.144070 0.959404 
0.123478 -0.144221 0.960413 
0.125186 -0.144318 0.961059 
0.126965 -0.144494 0.962229 
0.128873 -0.144810 0.964334 
0.130858 -0.145203 0.966951 
0.132890 -0.145639 0.969851 
0.134914 -0.146055 0.972623 
0.136935 -0.146458 0.975306 
0.138847 -0.146736 0.977161 
-0.204201 -0.135914 0.915428 
-0.202923 -0.136095 0.916646 
-0.202020 -0.136532 0.919586 
-0.201390 -0.137161 0.923827 
-0.200779 -0.137814 0.928225 
-0.200097 -0.138428 0.932357 
-0.199181 -0.138888 0.935458 
-0.197941 -0.139129 0.937078 
-0.196586 -0.139291 0.938170 
-0.109068 -0.145245 0.978272 
-0.107470 -0.145321 0.978786 
-0.105837 -0.145350 0.978984 
-0.104162 -0.145322 0.978795 
-0.102528 -0.145352 0.978996 
-0.100915 -0.145413 0.979402 
-0.099275 -0.145436 0.979559 
-0.097665 -0.145504 0.980015 
-0.096082 -0.145615 0.980768 
-0.094449 -0.145654 0.981029 
-0.092813 -0.145689 0.981264 
-0.091153 -0.145688 0.981258 
-0.089463 -0.145637 0.980911 
-0.087762 -0.145567 0.980439 
-0.086074 -0.145514 0.980086 
-0.084380 -0.145451 0.979664 
-0.082706 -0.145420 0.979452 
-0.081042 -0.145404 0.979344 
-0.079386 -0.145404 0.979345 
-0.077748 -0.145438 0.979571 
-0.075998 -0.145258 0.978359 
-0.074238 -0.145049 0.976955 
-0.072490 -0.144857 0.975661 
-0.070758 -0.144689 0.974529 
-0.044000 -0.139840 0.931235 
-0.045415 -0.137776 0.927966 
-0.043617 -0.137056 0.923119 
-0.042202 -0.139100 0.926311 
-0.041939 -0.136675 0.920551 
-0.040354 -0.136577 0.919890 
-0.038791 -0.136549 0.919701 
-0.037243 -0.136574 0.919872 
-0.035682 -0.136550 0.919710 
-0.034127 -0.136550 0.919710 
-0.032568 -0.136535 0.919606 
-0.031007 -0.136505 0.919407 
-0.029441 -0.136451 0.919043 
-0.027876 -0.136393 0.918654 
-0.026308 -0.136320 0.918158 
-0.024747 -0.136269 0.917817 
-0.023197 -0.136278 0.917880 
-0.021652 -0.136325 0.918192 
-0.020110 -0.136391 0.918637 
-0.018565 -0.136451 0.919044 
-0.017013 -0.136465 0.919137 
-0.015454 -0.136421 0.918841 
-0.013894 -0.136350 0.918364 
-0.012335 -0.136278 0.917876 
-0.010777 -0.136204 0.917381 
-0.009222 -0.136143 0.916968 
-0.007669 -0.136083 0.916567 
-0.006117 -0.136025 0.916171 
-0.004568 -0.136036 0.916249 
-0.003020 -0.136078 0.916530 
-0.001472 -0.136182 0.917233 
0.000079 -0.136263 0.917774 
0.001631 -0.136337 0.918276 
0.003184 -0.136348 0.918352 
0.004735 -0.136315 0.918130 
0.006286 -0.136270 0.917826 
0.007833 -0.136203 0.917371 
0.009382 -0.136173 0.917172 
0.010929 -0.136130 0.916880 
0.012478 -0.136112 0.916763 
0.014026 -0.136100 0.916677 
0.015579 -0.136128 0.916871 
0.017133 -0.136159 0.917075 
0.018689 -0.136202 0.917363 
0.020246 -0.136243 0.917644 
0.021804 -0.136286 0.917935 
0.023366 -0.136344 0.918325 
0.024927 -0.136392 0.918644 
0.026489 -0.136436 0.918941 
0.028057 -0.136505 0.919407 
0.029623 -0.136563 0.919799 
0.031193 -0.136626 0.920221 
0.032760 -0.136673 0.920537 
0.034326 -0.136715 0.920820 
0.035887 -0.136728 0.920907 
0.037451 -0.136755 0.921088 
0.039009 -0.136758 0.921111 
0.040571 -0.136774 0.921217 
0.042148 -0.136840 0.921664 
0.043729 -0.136909 0.922131 
0.045322 -0.137013 0.922827 
0.046933 -0.137161 0.923825 
0.048543 -0.137298 0.924751 
0.050150 -0.137418 0.925556 
0.051764 -0.137548 0.926432 
0.053381 -0.137680 0.927319 
0.054998 -0.137802 0.928145 
0.056621 -0.137936 0.929042 
0.058235 -0.138038 0.929730 
0.059862 -0.138165 0.930585 
0.061482 -0.138271 0.931302 
0.063106 -0.138380 0.932036 
0.064739 -0.138502 0.932858 
0.066392 -0.138660 0.933920 
0.068030 -0.138781 0.934737 
0.069679 -0.138919 0.935666 
0.071331 -0.139056 0.936591 
0.072978 -0.139176 0.937398 
0.074596 -0.139240 0.937827 
0.076221 -0.139312 0.938313 
0.077833 -0.139357 0.938618 
0.079445 -0.139402 0.938921 
0.081076 -0.139477 0.939421 
0.082725 -0.139580 0.940119 
0.084364 -0.139661 0.940665 
0.086002 -0.139739 0.941192 
0.087648 -0.139827 0.941785 
0.089278 -0.139886 0.942179 
0.090882 -0.139903 0.942297 
0.092494 -0.139933 0.942493 
0.094116 -0.139975 0.942777 
0.095751 -0.140035 0.943186 
0.097432 -0.140160 0.944026 
0.099130 -0.140303 0.944991 
0.100840 -0.140460 0.946047 
0.102550 -0.140612 0.947068 
0.104250 -0.140747 0.947975 
0.105925 -0.140842 0.948616 
0.107622 -0.140964 0.949443 
0.109323 -0.141088 0.950275 
0.111017 -0.141199 0.951025 
0.112723 -0.141323 0.951859 
0.114481 -0.141506 0.953091 
0.116284 -0.141741 0.954671 
0.118077 -0.141956 0.956118 
0.119895 -0.142195 0.957729 
0.121673 -0.142380 0.958978 
0.123437 -0.142545 0.960091 
0.125158 -0.142657 0.960841 
0.126950 -0.142846 0.962113 
0.128872 -0.143174 0.964325 
0.130898 -0.143608 0.967250 
0.132962 -0.144073 0.970381 
0.135019 -0.144518 0.973380 
0.137071 -0.144949 0.976279 
0.139000 -0.145240 0.978241 
-0.211864 -0.135866 0.915103 
-0.213490 -0.134365 0.915443 
-0.211758 -0.134248 0.914647 
-0.210311 -0.135862 0.915076 
-0.210180 -0.134227 0.914505 
-0.208774 -0.135869 0.915122 
-0.208596 -0.134203 0.914341 
-0.207151 -0.135819 0.914785 
-0.206952 -0.134139 0.913907 
-0.205629 -0.135835 0.914894 
-0.205414 -0.134144 0.913938 
-0.203988 -0.134222 0.914470 
-0.202671 -0.134374 0.915506 
-0.201697 -0.134757 0.918119 
-0.201100 -0.135400 0.922498 
-0.200528 -0.136070 0.927064 
-0.199904 -0.136715 0.931458 
-0.199100 -0.137247 0.935077 
-0.197965 -0.137557 0.937191 
-0.196614 -0.137720 0.938301 
-0.195219 -0.139447 0.939221 
-0.195243 -0.137872 0.939340 
-0.138648 -0.143340 0.965444 
-0.141136 -0.142568 0.971336 
-0.138363 -0.141412 0.963457 
-0.137183 -0.143515 0.966620 
-0.136902 -0.141586 0.964642 
-0.135739 -0.143716 0.967976 
-0.135448 -0.141771 0.965904 
-0.134262 -0.143887 0.969127 
-0.133987 -0.141953 0.967140 
-0.110691 -0.145205 0.978003 
-0.113212 -0.146326 0.985555 
-0.112100 -0.143234 0.975871 
-0.110530 -0.143338 0.976581 
-0.108923 -0.143396 0.976975 
-0.107352 -0.143504 0.977709 
-0.105744 -0.143564 0.978122 
-0.104085 -0.143556 0.978068 
-0.102464 -0.143603 0.978384 
-0.100863 -0.143678 0.978897 
-0.099221 -0.143697 0.979026 
-0.097620 -0.143776 0.979566 
-0.096047 -0.143901 0.980415 
-0.094425 -0.143955 0.980786 
-0.092801 -0.144008 0.981143 
-0.091150 -0.144020 0.981225 
-0.089451 -0.143954 0.980779 
-0.087560 -0.143573 0.978179 
-0.085674 -0.143185 0.975537 
-0.083793 -0.142789 0.972842 
-0.081945 -0.142436 0.970434 
-0.047148 -0.138260 0.931226 
-0.048324 -0.135563 0.923605 
-0.046725 -0.135454 0.922867 
-0.045129 -0.135347 0.922135 
-0.043450 -0.134974 0.919594 
-0.041873 -0.134900 0.919088 
-0.040297 -0.134828 0.918598 
-0.038736 -0.134798 0.918393 
-0.037180 -0.134786 0.918314 
-0.035625 -0.134775 0.918239 
-0.034069 -0.134761 0.918144 
-0.032509 -0.134730 0.917931 
-0.030947 -0.134686 0.917634 
-0.029384 -0.134630 0.917250 
-0.027818 -0.134559 0.916768 
-0.026254 -0.134485 0.916261 
-0.024694 -0.134425 0.915857 
-0.023148 -0.134437 0.915932 
-0.021607 -0.134483 0.916252 
-0.020069 -0.134561 0.916782 
-0.018530 -0.134634 0.917281 
-0.016981 -0.134649 0.917377 
-0.015426 -0.134617 0.917164 
-0.013870 -0.134560 0.916773 
-0.012315 -0.134502 0.916381 
-0.010761 -0.134446 0.915999 
-0.009209 -0.134401 0.915689 
-0.007659 -0.134356 0.915385 
-0.006109 -0.134300 0.915001 
-0.004562 -0.134298 0.914986 
-0.003015 -0.134315 0.915104 
-0.001470 -0.134429 0.915882 
0.000079 -0.134510 0.916436 
0.001629 -0.134600 0.917045 
0.003180 -0.134626 0.917226 
0.004731 -0.134618 0.917170 
0.006278 -0.134547 0.916684 
0.007822 -0.134462 0.916108 
0.009368 -0.134416 0.915793 
0.010911 -0.134358 0.915394 
0.012456 -0.134329 0.915200 
0.014005 -0.134343 0.915292 
0.015557 -0.134386 0.915587 
0.017111 -0.134432 0.915904 
0.018667 -0.134489 0.916292 
0.020227 -0.134558 0.916763 
0.021786 -0.134617 0.917159 
0.023347 -0.134677 0.917573 
0.024909 -0.134736 0.917976 
0.026475 -0.134806 0.918450 
0.028042 -0.134876 0.918925 
0.029608 -0.134934 0.919321 
0.031179 -0.135005 0.919809 
0.032744 -0.135049 0.920105 
0.034307 -0.135078 0.920300 
0.035866 -0.135090 0.920381 
0.037426 -0.135104 0.920478 
0.038983 -0.135108 0.920505 
0.040544 -0.135124 0.920614 
0.042117 -0.135177 0.920978 
0.043688 -0.135220 0.921269 
0.045274 -0.135305 0.921847 
0.046872 -0.135419 0.922627 
0.048468 -0.135521 0.923320 
0.050072 -0.135637 0.924111 
0.051688 -0.135778 0.925075 
0.053310 -0.135927 0.926090 
0.054937 -0.136078 0.927117 
0.056571 -0.136241 0.928223 
0.058190 -0.136357 0.929018 
0.059816 -0.136484 0.929881 
0.061441 -0.136600 0.930674 
0.063058 -0.136695 0.931318 
0.064681 -0.136799 0.932027 
0.066319 -0.136927 0.932899 
0.067953 -0.137043 0.933688 
0.069601 -0.137179 0.934615 
0.071252 -0.137316 0.935552 
0.072906 -0.137452 0.936476 
0.074537 -0.137541 0.937082 
0.076170 -0.137628 0.937675 
0.077789 -0.137689 0.938090 
0.079411 -0.137752 0.938518 
0.081042 -0.137826 0.939026 
0.082691 -0.137929 0.939724 
0.084335 -0.138019 0.940341 
0.085974 -0.138099 0.940887 
0.087621 -0.138188 0.941488 
0.089250 -0.138245 0.941882 
0.090852 -0.138260 0.941983 
0.092453 -0.138273 0.942074 
0.094064 -0.138301 0.942260 
0.095688 -0.138345 0.942564 
0.097356 -0.138452 0.943288 
0.099041 -0.138578 0.944150 
0.100750 -0.138733 0.945204 
0.102459 -0.138884 0.946234 
0.104181 -0.139047 0.947345 
0.105866 -0.139157 0.948092 
0.107575 -0.139294 0.949026 
0.109286 -0.139430 0.949954 
0.110990 -0.139553 0.950793 
0.112686 -0.139664 0.951547 
0.114442 -0.139843 0.952768 
0.116241 -0.140070 0.954317 
0.118019 -0.140265 0.955645 
0.119836 -0.140502 0.957256 
0.121627 -0.140702 0.958622 
0.123396 -0.140871 0.959770 
0.125130 -0.140997 0.960629 
0.126934 -0.141197 0.961993 
0.128858 -0.141525 0.964225 
0.130901 -0.141972 0.967271 
0.132982 -0.142450 0.970528 
0.135057 -0.142909 0.973656 
0.137126 -0.143352 0.976671 
0.139070 -0.143653 0.978727 
-0.213447 -0.132786 0.915259 
-0.211705 -0.132664 0.914417 
-0.210114 -0.132636 0.914221 
-0.208475 -0.132576 0.913809 
-0.206813 -0.132501 0.913295 
-0.205254 -0.132491 0.913224 
-0.203827 -0.132567 0.913750 
-0.202470 -0.132690 0.914596 
-0.201407 -0.133009 0.916797 
-0.200775 -0.133621 0.921010 
-0.200210 -0.134286 0.925594 
-0.199620 -0.134944 0.930134 
-0.198894 -0.135521 0.934112 
-0.197889 -0.135916 0.936829 
-0.196579 -0.136105 0.938135 
-0.195225 -0.136267 0.939253 
-0.193991 -0.138111 0.940969 
-0.193990 -0.136516 0.940966 
-0.174092 -0.141328 0.962882 
-0.174149 -0.138447 0.954275 
-0.172404 -0.138341 0.953549 
-0.170739 -0.139914 0.953253 
-0.170696 -0.138263 0.953012 
-0.169064 -0.139861 0.952892 
-0.169043 -0.138230 0.952778 
-0.167450 -0.139859 0.952878 
-0.167450 -0.138243 0.952874 
-0.165882 -0.139895 0.953120 
-0.165867 -0.138267 0.953036 
-0.164384 -0.139991 0.953778 
-0.164364 -0.138358 0.953665 
-0.162863 -0.140070 0.954317 
-0.162842 -0.138435 0.954192 
-0.161335 -0.140145 0.954823 
-0.161313 -0.138507 0.954691 
-0.159806 -0.140219 0.955327 
-0.159768 -0.138567 0.955105 
-0.158311 -0.140325 0.956052 
-0.158255 -0.138656 0.955718 
-0.156789 -0.140410 0.956631 
-0.156683 -0.138695 0.955984 
-0.139564 -0.139352 0.960518 
-0.138088 -0.139502 0.961547 
-0.136629 -0.139672 0.962721 
-0.135176 -0.139852 0.963960 
-0.133688 -0.140000 0.964983 
-0.132538 -0.142153 0.968502 
-0.132257 -0.140212 0.966445 
-0.131001 -0.142262 0.969246 
-0.130737 -0.140335 0.967294 
-0.122457 -0.143773 0.979545 
-0.122854 -0.140671 0.969608 
-0.121265 -0.140729 0.970005 
-0.119824 -0.142610 0.971617 
-0.119642 -0.140748 0.970140 
-0.118273 -0.142721 0.972373 
-0.118079 -0.140840 0.970774 
-0.116747 -0.142864 0.973351 
-0.116540 -0.140964 0.971625 
-0.115193 -0.142978 0.974126 
-0.114980 -0.141066 0.972330 
-0.113625 -0.143078 0.974806 
-0.113429 -0.141181 0.973120 
-0.111929 -0.141364 0.974385 
-0.110372 -0.141480 0.975185 
-0.108768 -0.141538 0.975585 
-0.107222 -0.141675 0.976524 
-0.105639 -0.141766 0.977155 
-0.104005 -0.141790 0.977323 
-0.102399 -0.141855 0.977766 
-0.100820 -0.141958 0.978479 
-0.099179 -0.141977 0.978608 
-0.097588 -0.142070 0.979249 
-0.096017 -0.142195 0.980108 
-0.094408 -0.142266 0.980601 
-0.092793 -0.142333 0.981060 
-0.091153 -0.142361 0.981258 
-0.089454 -0.142297 0.980813 
-0.087366 -0.141601 0.976014 
-0.085270 -0.140864 0.970938 
-0.083176 -0.140102 0.965685 
-0.081135 -0.139400 0.960848 
-0.080134 -0.142134 0.968375 
-0.058289 -0.136965 0.933162 
-0.059455 -0.134453 0.926749 
-0.057708 -0.134033 0.923854 
-0.056533 -0.136533 0.930216 
-0.056089 -0.133898 0.922919 
-0.054796 -0.136127 0.927446 
-0.054478 -0.133772 0.922052 
-0.053076 -0.135737 0.924791 
-0.052876 -0.133662 0.921298 
-0.051486 -0.135667 0.924315 
-0.051286 -0.133577 0.920712 
-0.049909 -0.135628 0.924051 
-0.049695 -0.133487 0.920090 
-0.048104 -0.133387 0.919402 
-0.046516 -0.133291 0.918737 
-0.044940 -0.133222 0.918261 
-0.043364 -0.133152 0.917778 
-0.041794 -0.133093 0.917372 
-0.040230 -0.133049 0.917069 
-0.038675 -0.133033 0.916963 
-0.037122 -0.133021 0.916880 
-0.035565 -0.132996 0.916707 
-0.034008 -0.132967 0.916507 
-0.032448 -0.132923 0.916199 
-0.030885 -0.132865 0.915804 
-0.029322 -0.132795 0.915318 
-0.027760 -0.132725 0.914834 
-0.026201 -0.132665 0.914424 
-0.024647 -0.132621 0.914121 
-0.023106 -0.132647 0.914298 
-0.021568 -0.132695 0.914630 
-0.020034 -0.132771 0.915151 
-0.018495 -0.132829 0.915554 
-0.016948 -0.132840 0.915632 
-0.015397 -0.132809 0.915416 
-0.013844 -0.132762 0.915095 
-0.012294 -0.132721 0.914811 
-0.010744 -0.132681 0.914535 
-0.009196 -0.132654 0.914348 
-0.007648 -0.132626 0.914153 
-0.006101 -0.132585 0.913871 
-0.004556 -0.132582 0.913851 
-0.003011 -0.132595 0.913941 
-0.001467 -0.132693 0.914614 
0.000079 -0.132759 0.915074 
0.001627 -0.132835 0.915593 
0.003175 -0.132862 0.915785 
0.004723 -0.132857 0.915746 
0.006268 -0.132786 0.915258 
0.007810 -0.132700 0.914667 
0.009353 -0.132652 0.914336 
0.010895 -0.132606 0.914017 
0.012438 -0.132580 0.913837 
0.013984 -0.132595 0.913941 
0.015534 -0.132638 0.914240 
0.017086 -0.132683 0.914551 
0.018638 -0.132729 0.914864 
0.020198 -0.132813 0.915442 
0.021757 -0.132884 0.915933 
0.023318 -0.132957 0.916433 
0.024883 -0.133040 0.917008 
0.026452 -0.133135 0.917666 
0.028021 -0.133220 0.918247 
0.029589 -0.133292 0.918743 
0.031162 -0.133374 0.919313 
0.032726 -0.133416 0.919603 
0.034288 -0.133442 0.919782 
0.035846 -0.133455 0.919870 
0.037405 -0.133469 0.919963 
0.038961 -0.133471 0.919979 
0.040521 -0.133486 0.920083 
0.042089 -0.133527 0.920366 
0.043655 -0.133558 0.920578 
0.045236 -0.133630 0.921073 
0.046823 -0.133715 0.921662 
0.048407 -0.133786 0.922152 
0.050002 -0.133883 0.922819 
0.051615 -0.134021 0.923770 
0.053235 -0.134169 0.924791 
0.054867 -0.134335 0.925936 
0.056506 -0.134511 0.927149 
0.058135 -0.134655 0.928140 
0.059761 -0.134782 0.929018 
0.061389 -0.134910 0.929897 
0.063011 -0.135015 0.930623 
0.064633 -0.135117 0.931326 
0.066262 -0.135230 0.932101 
0.067894 -0.135342 0.932874 
0.069533 -0.135463 0.933707 
0.071176 -0.135585 0.934553 
0.072828 -0.135720 0.935480 
0.074465 -0.135821 0.936175 
0.076104 -0.135921 0.936864 
0.077738 -0.136009 0.937471 
0.079377 -0.136101 0.938110 
0.081016 -0.136191 0.938724 
0.082664 -0.136292 0.939421 
0.084307 -0.136380 0.940028 
0.085937 -0.136445 0.940477 
0.087575 -0.136520 0.940994 
0.089204 -0.136578 0.941397 
0.090814 -0.136607 0.941595 
0.092416 -0.136621 0.941693 
0.094026 -0.136648 0.941875 
0.095638 -0.136676 0.942071 
0.097302 -0.136776 0.942761 
0.098973 -0.136884 0.943502 
0.100681 -0.137037 0.944555 
0.102390 -0.137188 0.945597 
0.104134 -0.137379 0.946916 
0.105831 -0.137504 0.947776 
0.107541 -0.137641 0.948724 
0.109262 -0.137789 0.949745 
0.110976 -0.137925 0.950677 
0.112662 -0.138020 0.951337 
0.114404 -0.138183 0.952456 
0.116201 -0.138405 0.953987 
0.117964 -0.138581 0.955203 
0.119769 -0.138801 0.956720 
0.121572 -0.139015 0.958190 
0.123342 -0.139183 0.959354 
0.125090 -0.139324 0.960320 
0.126908 -0.139538 0.961796 
0.128845 -0.139875 0.964121 
0.130902 -0.140334 0.967283 
0.133014 -0.140838 0.970758 
0.135104 -0.141308 0.973995 
0.137203 -0.141776 0.977220 
0.139163 -0.142089 0.979383 
-0.213442 -0.131231 0.915234 
-0.211711 -0.131117 0.914441 
-0.210098 -0.131076 0.914152 
-0.208416 -0.130990 0.913552 
-0.206771 -0.130926 0.913108 
-0.205189 -0.130902 0.912937 
-0.203742 -0.130963 0.913367 
-0.202383 -0.131083 0.914203 
-0.201217 -0.131331 0.915933 
-0.200492 -0.131873 0.919710 
-0.199917 -0.132523 0.924242 
-0.199349 -0.133187 0.928875 
-0.198660 -0.133780 0.933013 
-0.197764 -0.134243 0.936239 
-0.196533 -0.134484 0.937918 
-0.195180 -0.134644 0.939036 
-0.193922 -0.134873 0.940635 
-0.192780 -0.136786 0.942827 
-0.192712 -0.135140 0.942495 
-0.177584 -0.139882 0.964167 
-0.177584 -0.136990 0.955397 
-0.175804 -0.136862 0.954505 
-0.174032 -0.136737 0.953633 
-0.172269 -0.136618 0.952801 
-0.170565 -0.136543 0.952281 
-0.168935 -0.136527 0.952166 
-0.167362 -0.136556 0.952373 
-0.165793 -0.136591 0.952613 
-0.164275 -0.136667 0.953146 
-0.162750 -0.136740 0.953652 
-0.161193 -0.136787 0.953980 
-0.159634 -0.136833 0.954300 
-0.158089 -0.136892 0.954715 
-0.156480 -0.136896 0.954744 
-0.155136 -0.138757 0.956412 
-0.154883 -0.136911 0.954849 
-0.153601 -0.138830 0.956920 
-0.153330 -0.136966 0.955229 
-0.152035 -0.138877 0.957244 
-0.151737 -0.136986 0.955370 
-0.141124 -0.139289 0.960078 
-0.142333 -0.137262 0.957296 
-0.140764 -0.137311 0.957635 
-0.139223 -0.137387 0.958169 
-0.137723 -0.137507 0.959005 
-0.136267 -0.137674 0.960165 
-0.134812 -0.137846 0.961369 
-0.133338 -0.138002 0.962455 
-0.131934 -0.138236 0.964086 
-0.130463 -0.138405 0.965263 
-0.129180 -0.140420 0.967876 
-0.128952 -0.138534 0.966169 
-0.127629 -0.140514 0.968526 
-0.127446 -0.138673 0.967135 
-0.126074 -0.140606 0.969158 
-0.125931 -0.138805 0.968055 
-0.124453 -0.140626 0.969294 
-0.124312 -0.138825 0.968193 
-0.122716 -0.138871 0.968517 
-0.121119 -0.138917 0.968838 
-0.119485 -0.138921 0.968868 
-0.117911 -0.138997 0.969394 
-0.116238 -0.138956 0.969112 
-0.114542 -0.138886 0.968619 
-0.112863 -0.138835 0.968265 
-0.111243 -0.138856 0.968412 
-0.109556 -0.138793 0.967974 
-0.107952 -0.138835 0.968267 
-0.106407 -0.138954 0.969099 
-0.104788 -0.138981 0.969282 
-0.103129 -0.138953 0.969087 
-0.101691 -0.139228 0.971005 
-0.100281 -0.139550 0.973252 
-0.098814 -0.139802 0.975011 
-0.097431 -0.140184 0.977673 
-0.095837 -0.140270 0.978270 
-0.094237 -0.140349 0.978825 
-0.092640 -0.140437 0.979440 
-0.090839 -0.140212 0.977871 
-0.088967 -0.139869 0.975477 
-0.086850 -0.139119 0.970249 
-0.084527 -0.138005 0.962474 
-0.065214 -0.136671 0.942034 
-0.066276 -0.134001 0.934551 
-0.064548 -0.133695 0.932420 
-0.063304 -0.135989 0.937333 
-0.062810 -0.133352 0.930024 
-0.061371 -0.135223 0.932052 
-0.061047 -0.132937 0.927133 
-0.059285 -0.132501 0.924094 
-0.057659 -0.132356 0.923078 
-0.056037 -0.132210 0.922059 
-0.054421 -0.132071 0.921093 
-0.052805 -0.131923 0.920057 
-0.051209 -0.131821 0.919345 
-0.049616 -0.131715 0.918612 
-0.048022 -0.131604 0.917832 
-0.046441 -0.131522 0.917262 
-0.044876 -0.131480 0.916968 
-0.043304 -0.131412 0.916494 
-0.041737 -0.131356 0.916102 
-0.040174 -0.131312 0.915797 
-0.038619 -0.131286 0.915617 
-0.037064 -0.131262 0.915449 
-0.035509 -0.131236 0.915267 
-0.033950 -0.131192 0.914958 
-0.032389 -0.131133 0.914549 
-0.030827 -0.131063 0.914062 
-0.029264 -0.130983 0.913503 
-0.027705 -0.130914 0.913024 
-0.026152 -0.130868 0.912705 
-0.024603 -0.130839 0.912499 
-0.023068 -0.130878 0.912774 
-0.021534 -0.130938 0.913188 
-0.020002 -0.131012 0.913705 
-0.018465 -0.131068 0.914093 
-0.016921 -0.131077 0.914162 
-0.015372 -0.131046 0.913945 
-0.013824 -0.131014 0.913723 
-0.012276 -0.130988 0.913541 
-0.010730 -0.130963 0.913364 
-0.009186 -0.130965 0.913375 
-0.007641 -0.130951 0.913283 
-0.006096 -0.130924 0.913091 
-0.004552 -0.130921 0.913074 
-0.003009 -0.130919 0.913059 
-0.001466 -0.130985 0.913520 
0.000079 -0.131032 0.913846 
0.001624 -0.131094 0.914274 
0.003171 -0.131121 0.914466 
0.004717 -0.131130 0.914532 
0.006260 -0.131075 0.914146 
0.007802 -0.131006 0.913666 
0.009343 -0.130959 0.913340 
0.010883 -0.130916 0.913039 
0.012424 -0.130890 0.912857 
0.013969 -0.130905 0.912962 
0.015518 -0.130947 0.913254 
0.017067 -0.130992 0.913563 
0.018618 -0.131035 0.913866 
0.020177 -0.131128 0.914514 
0.021735 -0.131199 0.915011 
0.023295 -0.131273 0.915524 
0.024861 -0.131368 0.916190 
0.026431 -0.131476 0.916943 
0.028000 -0.131562 0.917543 
0.029571 -0.131651 0.918160 
0.031146 -0.131747 0.918831 
0.032710 -0.131790 0.919130 
0.034270 -0.131816 0.919312 
0.035828 -0.131828 0.919396 
0.037385 -0.131840 0.919483 
0.038940 -0.131842 0.919492 
0.040499 -0.131855 0.919586 
0.042066 -0.131895 0.919862 
0.043631 -0.131925 0.920075 
0.045203 -0.131972 0.920401 
0.046784 -0.132042 0.920892 
0.048361 -0.132100 0.921291 
0.049950 -0.132181 0.921859 
0.051556 -0.132305 0.922722 
0.053179 -0.132461 0.923813 
0.054808 -0.132624 0.924947 
0.056451 -0.132811 0.926253 
0.058080 -0.132956 0.927264 
0.059711 -0.133095 0.928235 
0.061338 -0.133223 0.929124 
0.062958 -0.133326 0.929842 
0.064580 -0.133429 0.930559 
0.066207 -0.133539 0.931330 
0.067832 -0.133638 0.932019 
0.069475 -0.133767 0.932918 
0.071116 -0.133888 0.933761 
0.072759 -0.134006 0.934590 
0.074394 -0.134105 0.935278 
0.076030 -0.134203 0.935962 
0.077664 -0.134292 0.936579 
0.079317 -0.134410 0.937406 
0.080966 -0.134516 0.938145 
0.082621 -0.134630 0.938937 
0.084271 -0.134729 0.939627 
0.085897 -0.134789 0.940045 
0.087527 -0.134851 0.940477 
0.089155 -0.134909 0.940887 
0.090767 -0.134940 0.941101 
0.092368 -0.134956 0.941209 
0.093978 -0.134983 0.941397 
0.095589 -0.135010 0.941586 
0.097241 -0.135094 0.942173 
0.098910 -0.135197 0.942893 
0.100615 -0.135347 0.943939 
0.102334 -0.135510 0.945078 
0.104090 -0.135716 0.946516 
0.105809 -0.135869 0.947579 
0.107520 -0.136007 0.948540 
0.109240 -0.136152 0.949553 
0.110953 -0.136284 0.950474 
0.112638 -0.136379 0.951134 
0.114370 -0.136527 0.952171 
0.116166 -0.136746 0.953699 
0.117927 -0.136919 0.954904 
0.119718 -0.137121 0.956312 
0.121520 -0.137331 0.957778 
0.123289 -0.137498 0.958942 
0.125049 -0.137651 0.960006 
0.126879 -0.137876 0.961574 
0.128843 -0.138239 0.964107 
0.130916 -0.138708 0.967381 
0.133054 -0.139234 0.971048 
0.135173 -0.139728 0.974496 
0.137303 -0.140220 0.977926 
0.139268 -0.140536 0.980127 
-0.213454 -0.129687 0.915286 
-0.211707 -0.129565 0.914427 
-0.210094 -0.129524 0.914133 
-0.208392 -0.129426 0.913445 
-0.206723 -0.129348 0.912896 
-0.205096 -0.129296 0.912524 
-0.203629 -0.129343 0.912861 
-0.202231 -0.129437 0.913520 
-0.201011 -0.129645 0.914993 
-0.200200 -0.130124 0.918370 
-0.199593 -0.130744 0.922742 
-0.199019 -0.131394 0.927335 
-0.198361 -0.132000 0.931607 
-0.197535 -0.132502 0.935153 
-0.196366 -0.132781 0.937121 
-0.195051 -0.132964 0.938417 
-0.193754 -0.133163 0.939819 
-0.192504 -0.133398 0.941475 
-0.191564 -0.135454 0.944689 
-0.191315 -0.133679 0.943463 
-0.183069 -0.138698 0.967309 
-0.182852 -0.135684 0.957610 
-0.181212 -0.135668 0.957499 
-0.179458 -0.137188 0.956777 
-0.179409 -0.135529 0.956519 
-0.177498 -0.135305 0.954935 
-0.175685 -0.135152 0.953857 
-0.173894 -0.135013 0.952878 
-0.172114 -0.134881 0.951946 
-0.170414 -0.134809 0.951437 
-0.168804 -0.134808 0.951430 
-0.167250 -0.134852 0.951740 
-0.165683 -0.134886 0.951977 
-0.164162 -0.134959 0.952493 
-0.162639 -0.135031 0.953004 
-0.161085 -0.135079 0.953338 
-0.159511 -0.135111 0.953567 
-0.157949 -0.135154 0.953871 
-0.156304 -0.135126 0.953672 
-0.154671 -0.135108 0.953544 
-0.153069 -0.135116 0.953603 
-0.151430 -0.135093 0.953437 
-0.150191 -0.137049 0.955808 
-0.149841 -0.135113 0.953578 
-0.148658 -0.137125 0.956342 
-0.148263 -0.135144 0.953800 
-0.147090 -0.137171 0.956661 
-0.146666 -0.135159 0.953904 
-0.145505 -0.137201 0.956871 
-0.145084 -0.135187 0.954103 
-0.143932 -0.137244 0.957166 
-0.143533 -0.135245 0.954513 
-0.141972 -0.135295 0.954867 
-0.140409 -0.135345 0.955219 
-0.138869 -0.135418 0.955733 
-0.137344 -0.135507 0.956362 
-0.135889 -0.135669 0.957503 
-0.134438 -0.135838 0.958698 
-0.132996 -0.136021 0.959990 
-0.131599 -0.136255 0.961639 
-0.130158 -0.136449 0.963009 
-0.128654 -0.136580 0.963935 
-0.127155 -0.136720 0.964924 
-0.125549 -0.136748 0.965120 
-0.123846 -0.136669 0.964566 
-0.122152 -0.136599 0.964067 
-0.120462 -0.136531 0.963585 
-0.118733 -0.136415 0.962771 
-0.117155 -0.136473 0.963182 
-0.115471 -0.136407 0.962713 
-0.113757 -0.136303 0.961981 
-0.112047 -0.136203 0.961270 
-0.110411 -0.136189 0.961175 
-0.108693 -0.136072 0.960351 
-0.107077 -0.136081 0.960412 
-0.105518 -0.136166 0.961009 
-0.103868 -0.136132 0.960772 
-0.102179 -0.136046 0.960163 
-0.067260 -0.131254 0.926346 
-0.065591 -0.131050 0.924904 
-0.064034 -0.131062 0.924991 
-0.062455 -0.131030 0.924765 
-0.060846 -0.130933 0.924078 
-0.059227 -0.130807 0.923188 
-0.057603 -0.130663 0.922177 
-0.055983 -0.130521 0.921173 
-0.054363 -0.130370 0.920106 
-0.052742 -0.130208 0.918959 
-0.051137 -0.130078 0.918047 
-0.049541 -0.129963 0.917236 
-0.047945 -0.129841 0.916371 
-0.046367 -0.129760 0.915803 
-0.044805 -0.129718 0.915502 
-0.043235 -0.129651 0.915031 
-0.041674 -0.129608 0.914728 
-0.040115 -0.129567 0.914437 
-0.038557 -0.129528 0.914162 
-0.037001 -0.129490 0.913893 
-0.035448 -0.129462 0.913697 
-0.033889 -0.129406 0.913305 
-0.032331 -0.129348 0.912893 
-0.030774 -0.129291 0.912494 
-0.029219 -0.129237 0.912110 
-0.027665 -0.129183 0.911730 
-0.026118 -0.129154 0.911524 
-0.024574 -0.129138 0.911408 
-0.023043 -0.129190 0.911779 
-0.021511 -0.129249 0.912192 
-0.019980 -0.129321 0.912705 
-0.018445 -0.129374 0.913078 
-0.016903 -0.129385 0.913157 
-0.015355 -0.129356 0.912953 
-0.013808 -0.129317 0.912672 
-0.012263 -0.129302 0.912571 
-0.010720 -0.129291 0.912494 
-0.009177 -0.129293 0.912502 
-0.007635 -0.129293 0.912502 
-0.006092 -0.129291 0.912494 
-0.004549 -0.129277 0.912394 
-0.003006 -0.129251 0.912209 
-0.001464 -0.129299 0.912548 
0.000079 -0.129315 0.912661 
0.001622 -0.129357 0.912960 
0.003166 -0.129374 0.913074 
0.004710 -0.129385 0.913155 
0.006252 -0.129345 0.912869 
0.007792 -0.129304 0.912586 
0.009333 -0.129277 0.912389 
0.010874 -0.129262 0.912290 
0.012417 -0.129262 0.912286 
0.013960 -0.129276 0.912384 
0.015506 -0.129302 0.912572 
0.017052 -0.129330 0.912765 
0.018599 -0.129357 0.912960 
0.020155 -0.129436 0.913512 
0.021711 -0.129506 0.914008 
0.023269 -0.129579 0.914526 
0.024834 -0.129675 0.915204 
0.026406 -0.129795 0.916051 
0.027976 -0.129896 0.916762 
0.029549 -0.129998 0.917481 
0.031127 -0.130110 0.918268 
0.032696 -0.130178 0.918752 
0.034260 -0.130218 0.919036 
0.035817 -0.130232 0.919129 
0.037375 -0.130244 0.919216 
0.038929 -0.130244 0.919216 
0.040483 -0.130244 0.919216 
0.042045 -0.130269 0.919396 
0.043608 -0.130297 0.919593 
0.045182 -0.130352 0.919982 
0.046762 -0.130422 0.920475 
0.048345 -0.130494 0.920979 
0.049929 -0.130563 0.921472 
0.051529 -0.130672 0.922235 
0.053139 -0.130797 0.923122 
0.054760 -0.130942 0.924144 
0.056396 -0.131113 0.925348 
0.058029 -0.131268 0.926441 
0.059664 -0.131419 0.927511 
0.061298 -0.131561 0.928508 
0.062923 -0.131676 0.929326 
0.064544 -0.131779 0.930053 
0.066172 -0.131889 0.930825 
0.067796 -0.131987 0.931517 
0.069430 -0.132101 0.932321 
0.071063 -0.132205 0.933060 
0.072695 -0.132306 0.933770 
0.074321 -0.132391 0.934368 
0.075948 -0.132473 0.934947 
0.077588 -0.132574 0.935662 
0.079248 -0.132706 0.936591 
0.080913 -0.132839 0.937534 
0.082578 -0.132967 0.938438 
0.084234 -0.133079 0.939224 
0.085859 -0.133136 0.939627 
0.087485 -0.133193 0.940028 
0.089104 -0.133237 0.940341 
0.090715 -0.133269 0.940567 
0.092317 -0.133285 0.940681 
0.093936 -0.133326 0.940970 
0.095547 -0.133355 0.941175 
0.097190 -0.133427 0.941680 
0.098848 -0.133515 0.942305 
0.100550 -0.133660 0.943329 
0.102269 -0.133823 0.944475 
0.104026 -0.134029 0.945933 
0.105756 -0.134196 0.947109 
0.107487 -0.134358 0.948251 
0.109206 -0.134501 0.949259 
0.110917 -0.134630 0.950173 
0.112625 -0.134751 0.951026 
0.114370 -0.134913 0.952171 
0.116168 -0.135132 0.953717 
0.117941 -0.135316 0.955015 
0.119717 -0.135499 0.956308 
0.121505 -0.135691 0.957660 
0.123271 -0.135853 0.958801 
0.125032 -0.136005 0.959876 
0.126863 -0.136229 0.961455 
0.128854 -0.136617 0.964192 
0.130929 -0.137082 0.967478 
0.133069 -0.137604 0.971159 
0.135203 -0.138107 0.974712 
0.137350 -0.138611 0.978266 
0.139320 -0.138926 0.980491 
-0.213461 -0.128140 0.915317 
-0.211702 -0.128012 0.914404 
-0.210066 -0.127957 0.914011 
-0.208364 -0.127861 0.913324 
-0.206652 -0.127757 0.912580 
-0.205003 -0.127691 0.912109 
-0.203534 -0.127737 0.912439 
-0.202139 -0.127830 0.913103 
-0.200920 -0.128037 0.914580 
-0.200047 -0.128469 0.917668 
-0.199373 -0.129037 0.921725 
-0.198752 -0.129649 0.926094 
-0.198076 -0.130233 0.930268 
-0.197258 -0.130733 0.933842 
-0.196137 -0.131039 0.936028 
-0.194880 -0.131258 0.937593 
-0.193565 -0.131441 0.938901 
-0.192290 -0.131655 0.940428 
-0.191078 -0.131916 0.942293 
-0.190160 -0.133989 0.945649 
-0.189923 -0.132221 0.944471 
-0.189033 -0.134325 0.948016 
-0.188804 -0.132556 0.946865 
-0.187919 -0.134675 0.950487 
-0.187737 -0.132935 0.949568 
-0.186788 -0.135018 0.952913 
-0.186650 -0.133304 0.952208 
-0.185641 -0.135357 0.955301 
-0.185556 -0.133677 0.954866 
-0.184335 -0.135584 0.956904 
-0.184276 -0.133919 0.956598 
-0.182801 -0.134023 0.957342 
-0.181184 -0.134024 0.957352 
-0.179395 -0.133897 0.956442 
-0.177470 -0.133665 0.954782 
-0.175601 -0.133471 0.953400 
-0.173792 -0.133320 0.952318 
-0.171994 -0.133174 0.951278 
-0.170278 -0.133090 0.950677 
-0.168653 -0.133076 0.950578 
-0.167100 -0.133119 0.950884 
-0.165519 -0.133140 0.951036 
-0.163984 -0.133200 0.951461 
-0.162462 -0.133271 0.951969 
-0.160891 -0.133303 0.952195 
-0.159302 -0.133320 0.952317 
-0.157708 -0.133333 0.952416 
-0.156031 -0.133276 0.952006 
-0.154366 -0.133228 0.951661 
-0.152747 -0.133219 0.951598 
-0.151078 -0.133166 0.951217 
-0.149458 -0.133155 0.951141 
-0.147847 -0.133153 0.951127 
-0.146223 -0.133138 0.951021 
-0.144628 -0.133150 0.951106 
-0.143070 -0.133196 0.951437 
-0.141515 -0.133247 0.951796 
-0.139956 -0.133294 0.952132 
-0.138443 -0.133388 0.952803 
-0.136905 -0.133458 0.953306 
-0.135457 -0.133620 0.954462 
-0.134001 -0.133777 0.955586 
-0.132566 -0.133960 0.956889 
-0.131137 -0.134152 0.958265 
-0.129642 -0.134281 0.959186 
-0.128068 -0.134332 0.959547 
-0.126509 -0.134399 0.960024 
-0.124827 -0.134335 0.959572 
-0.123062 -0.134180 0.958460 
-0.121339 -0.134066 0.957652 
-0.119635 -0.133971 0.956967 
-0.117919 -0.133860 0.956176 
-0.116340 -0.133902 0.956479 
-0.114638 -0.133803 0.955771 
-0.112912 -0.133672 0.954836 
-0.111169 -0.133518 0.953731 
-0.109491 -0.133438 0.953163 
-0.107748 -0.133275 0.952001 
-0.106120 -0.133251 0.951830 
-0.104547 -0.133298 0.952166 
-0.102876 -0.133219 0.951596 
-0.101164 -0.133082 0.950621 
-0.072281 -0.131843 0.930503 
-0.073143 -0.129012 0.921550 
-0.071576 -0.128996 0.921435 
-0.070588 -0.131621 0.928932 
-0.070035 -0.129026 0.921646 
-0.068920 -0.131434 0.927617 
-0.068515 -0.129098 0.922163 
-0.067001 -0.129185 0.922783 
-0.065470 -0.129242 0.923191 
-0.063923 -0.129269 0.923384 
-0.062348 -0.129242 0.923187 
-0.060750 -0.129161 0.922610 
-0.059139 -0.129049 0.921809 
-0.057523 -0.128922 0.920901 
-0.055911 -0.128794 0.919989 
-0.054293 -0.128645 0.918927 
-0.052678 -0.128496 0.917862 
-0.051071 -0.128356 0.916860 
-0.049472 -0.128229 0.915955 
-0.047874 -0.128096 0.915004 
-0.046298 -0.128016 0.914434 
-0.044734 -0.127963 0.914053 
-0.043166 -0.127898 0.913587 
-0.041608 -0.127855 0.913286 
-0.040051 -0.127812 0.912978 
-0.038495 -0.127772 0.912687 
-0.036941 -0.127732 0.912406 
-0.035390 -0.127704 0.912206 
-0.033834 -0.127651 0.911822 
-0.032282 -0.127608 0.911516 
-0.030730 -0.127564 0.911207 
-0.029181 -0.127525 0.910922 
-0.027632 -0.127486 0.910644 
-0.026090 -0.127471 0.910540 
-0.024548 -0.127457 0.910442 
-0.023018 -0.127509 0.910811 
-0.021488 -0.127567 0.911222 
-0.019959 -0.127639 0.911737 
-0.018425 -0.127693 0.912123 
-0.016888 -0.127729 0.912384 
-0.015344 -0.127715 0.912286 
-0.013798 -0.127678 0.912021 
-0.012256 -0.127676 0.912001 
-0.010714 -0.127675 0.911996 
-0.009171 -0.127652 0.911830 
-0.007628 -0.127640 0.911745 
-0.006087 -0.127650 0.911820 
-0.004545 -0.127626 0.911644 
-0.003003 -0.127577 0.911295 
-0.001463 -0.127609 0.911529 
0.000078 -0.127609 0.911522 
0.001620 -0.127637 0.911725 
0.003161 -0.127653 0.911836 
