1644
0.071250 -0.109320 0.842066 
0.072787 -0.109492 0.843384 
0.074306 -0.109629 0.844442 
0.075827 -0.109764 0.845485 
0.077341 -0.109884 0.846410 
0.078880 -0.110035 0.847567 
0.080462 -0.110239 0.849143 
0.082075 -0.110478 0.850982 
0.083693 -0.110715 0.852808 
0.085315 -0.110950 0.854615 
0.086939 -0.111179 0.856384 
0.088584 -0.111428 0.858297 
0.090304 -0.111760 0.860860 
0.092088 -0.112160 0.863938 
0.093907 -0.112590 0.867251 
0.095738 -0.113021 0.870572 
0.097546 -0.113412 0.873583 
0.099379 -0.113820 0.876722 
0.101236 -0.114242 0.879977 
0.103094 -0.114654 0.883150 
0.104984 -0.115090 0.886508 
0.106877 -0.115516 0.889787 
0.108617 -0.117279 0.891727 
0.108633 -0.115785 0.891857 
0.110296 -0.117462 0.893116 
0.110297 -0.115949 0.893123 
0.111929 -0.116075 0.894094 
-0.020194 -0.118198 0.922493 
-0.018549 -0.117654 0.918249 
-0.016907 -0.117034 0.913411 
-0.015268 -0.116314 0.907788 
-0.013650 -0.115603 0.902241 
-0.012088 -0.115258 0.899546 
-0.010531 -0.114857 0.896420 
-0.008988 -0.114510 0.893708 
-0.007453 -0.114143 0.890841 
-0.005928 -0.113768 0.887918 
-0.004411 -0.113375 0.884849 
-0.002905 -0.112977 0.881744 
-0.001410 -0.112561 0.878500 
0.000075 -0.112127 0.875109 
0.001549 -0.111718 0.871917 
0.003013 -0.111363 0.869148 
0.004471 -0.111060 0.866779 
0.005921 -0.110786 0.864646 
0.007368 -0.110566 0.862926 
0.008810 -0.110345 0.861202 
0.010244 -0.110112 0.859383 
0.011665 -0.109818 0.857089 
0.013079 -0.109520 0.854766 
0.014479 -0.109181 0.852122 
0.015873 -0.108865 0.849653 
0.017260 -0.108553 0.847219 
0.018648 -0.108297 0.845220 
0.020032 -0.108054 0.843325 
0.021422 -0.107873 0.841908 
0.022810 -0.107705 0.840598 
0.024198 -0.107560 0.839463 
0.025592 -0.107455 0.838647 
0.026984 -0.107351 0.837834 
0.028373 -0.107249 0.837038 
0.029759 -0.107144 0.836221 
0.031148 -0.107057 0.835545 
0.032531 -0.106963 0.834808 
0.033914 -0.106871 0.834093 
0.035296 -0.106789 0.833446 
0.036687 -0.106735 0.833025 
0.038077 -0.106684 0.832632 
0.039471 -0.106647 0.832338 
0.040889 -0.106675 0.832563 
0.042305 -0.106697 0.832730 
0.043722 -0.106720 0.832910 
0.045150 -0.106768 0.833284 
0.046585 -0.106826 0.833741 
0.048005 -0.106852 0.833937 
0.049444 -0.106914 0.834428 
0.050884 -0.106976 0.834912 
0.052313 -0.107012 0.835187 
0.053746 -0.107053 0.835509 
0.055189 -0.107112 0.835973 
0.056630 -0.107164 0.836379 
0.058073 -0.107219 0.836806 
0.059523 -0.107283 0.837301 
0.060968 -0.107334 0.837704 
0.062408 -0.107375 0.838020 
0.063854 -0.107425 0.838411 
0.065291 -0.107457 0.838664 
0.066753 -0.107528 0.839213 
0.068242 -0.107639 0.840085 
0.069759 -0.107788 0.841249 
0.071283 -0.107943 0.842454 
0.072823 -0.108114 0.843792 
0.074356 -0.108270 0.845006 
0.075886 -0.108415 0.846138 
0.077409 -0.108545 0.847152 
0.078952 -0.108697 0.848341 
0.080543 -0.108910 0.850001 
0.082144 -0.109127 0.851698 
0.083754 -0.109349 0.853432 
0.085358 -0.109557 0.855051 
0.086973 -0.109770 0.856718 
0.088585 -0.109974 0.858304 
0.090293 -0.110287 0.860749 
0.092073 -0.110678 0.863800 
0.093900 -0.111112 0.867190 
0.095739 -0.111547 0.870580 
0.097580 -0.111970 0.873887 
0.099443 -0.112406 0.877291 
0.101292 -0.112814 0.880469 
0.103160 -0.113230 0.883716 
0.105042 -0.113650 0.886996 
0.106907 -0.114040 0.890041 
0.108633 -0.114273 0.891859 
0.110286 -0.114423 0.893031 
0.111979 -0.114611 0.894494 
-0.021891 -0.117371 0.928320 
-0.020190 -0.116610 0.922298 
-0.018527 -0.115960 0.917157 
-0.016882 -0.115314 0.912050 
-0.015240 -0.114557 0.906067 
-0.013617 -0.113796 0.900044 
-0.012065 -0.113511 0.897789 
-0.010514 -0.113160 0.895016 
-0.008975 -0.112828 0.892391 
-0.007442 -0.112467 0.889535 
-0.005920 -0.112117 0.886763 
-0.004406 -0.111737 0.883762 
-0.002902 -0.111370 0.880858 
-0.001408 -0.110976 0.877740 
0.000075 -0.110564 0.874479 
0.001548 -0.110181 0.871456 
0.003012 -0.109844 0.868789 
0.004469 -0.109547 0.866435 
0.005920 -0.109297 0.864463 
0.007368 -0.109091 0.862834 
0.008809 -0.108873 0.861109 
0.010243 -0.108644 0.859293 
0.011666 -0.108375 0.857164 
0.013082 -0.108094 0.854946 
0.014485 -0.107784 0.852491 
0.015880 -0.107473 0.850036 
0.017269 -0.107174 0.847669 
0.018658 -0.106920 0.845658 
0.020044 -0.106689 0.843836 
0.021437 -0.106522 0.842510 
0.022830 -0.106375 0.841350 
0.024222 -0.106241 0.840291 
0.025619 -0.106146 0.839535 
0.027013 -0.106044 0.838731 
0.028406 -0.105953 0.838008 
0.029797 -0.105860 0.837278 
0.031188 -0.105777 0.836618 
0.032571 -0.105675 0.835816 
0.033956 -0.105591 0.835146 
0.035340 -0.105507 0.834484 
0.036735 -0.105461 0.834116 
0.038127 -0.105410 0.833718 
0.039521 -0.105371 0.833409 
0.040941 -0.105399 0.833627 
0.042359 -0.105420 0.833795 
0.043767 -0.105417 0.833776 
0.045198 -0.105466 0.834160 
0.046634 -0.105525 0.834624 
0.048052 -0.105539 0.834740 
0.049492 -0.105602 0.835232 
0.050938 -0.105672 0.835788 
0.052372 -0.105715 0.836132 
0.053812 -0.105766 0.836536 
0.055262 -0.105835 0.837082 
0.056705 -0.105888 0.837498 
0.058151 -0.105943 0.837931 
0.059597 -0.105995 0.838340 
0.061037 -0.106034 0.838650 
0.062477 -0.106072 0.838957 
0.063915 -0.106104 0.839209 
0.065348 -0.106127 0.839391 
0.066804 -0.106187 0.839863 
0.068287 -0.106286 0.840642 
0.069798 -0.106422 0.841722 
0.071323 -0.106575 0.842929 
0.072864 -0.106745 0.844276 
0.074406 -0.106909 0.845576 
0.075946 -0.107065 0.846805 
0.077478 -0.107204 0.847906 
0.079038 -0.107376 0.849268 
0.080640 -0.107598 0.851020 
0.082235 -0.107802 0.852639 
0.083835 -0.108007 0.854260 
0.085423 -0.108189 0.855699 
0.087014 -0.108369 0.857119 
0.088586 -0.108519 0.858310 
0.090265 -0.108794 0.860483 
0.092033 -0.109166 0.863426 
0.093852 -0.109586 0.866746 
0.095695 -0.110020 0.870175 
0.097565 -0.110471 0.873750 
0.099456 -0.110933 0.877400 
0.101305 -0.111335 0.880580 
0.103169 -0.111742 0.883795 
0.105048 -0.112153 0.887049 
0.106911 -0.112535 0.890071 
0.108645 -0.112773 0.891956 
0.110309 -0.112933 0.893221 
0.112054 -0.113171 0.895097 
-0.023482 -0.117479 0.929172 
-0.025076 -0.117587 0.930030 
-0.025060 -0.115938 0.929445 
-0.023470 -0.115841 0.928670 
-0.021869 -0.115680 0.927377 
-0.020176 -0.114965 0.921646 
-0.018508 -0.114285 0.916194 
-0.016855 -0.113587 0.910599 
-0.015214 -0.112833 0.904557 
-0.013597 -0.112112 0.898774 
-0.012046 -0.111818 0.896416 
-0.010500 -0.111489 0.893784 
-0.008962 -0.111154 0.891098 
-0.007432 -0.110800 0.888260 
-0.005912 -0.110458 0.885517 
-0.004400 -0.110085 0.882522 
-0.002899 -0.109734 0.879713 
-0.001407 -0.109367 0.876766 
0.000075 -0.108984 0.873696 
0.001547 -0.108638 0.870925 
0.003011 -0.108335 0.868498 
0.004467 -0.108043 0.866156 
0.005919 -0.107807 0.864264 
0.007366 -0.107612 0.862702 
0.008807 -0.107398 0.860987 
0.010241 -0.107174 0.859189 
0.011668 -0.106939 0.857305 
0.013084 -0.106666 0.855116 
0.014491 -0.106382 0.852838 
0.015889 -0.106086 0.850469 
0.017280 -0.105802 0.848187 
0.018669 -0.105549 0.846163 
0.020062 -0.105351 0.844577 
0.021456 -0.105187 0.843262 
0.022853 -0.105055 0.842198 
0.024248 -0.104931 0.841205 
0.025647 -0.104836 0.840442 
0.027041 -0.104734 0.839627 
0.028437 -0.104644 0.838909 
0.029832 -0.104564 0.838264 
0.031227 -0.104491 0.837680 
0.032615 -0.104400 0.836950 
0.034003 -0.104319 0.836299 
0.035392 -0.104246 0.835711 
0.036789 -0.104200 0.835347 
0.038183 -0.104150 0.834947 
0.039580 -0.104111 0.834633 
0.041000 -0.104136 0.834832 
0.042420 -0.104157 0.835003 
0.043827 -0.104145 0.834908 
0.045260 -0.104194 0.835299 
0.046693 -0.104241 0.835679 
0.048108 -0.104246 0.835718 
0.049545 -0.104297 0.836125 
0.050992 -0.104366 0.836675 
0.052427 -0.104407 0.837008 
0.053873 -0.104468 0.837493 
0.055326 -0.104538 0.838056 
0.056772 -0.104592 0.838486 
0.058219 -0.104644 0.838904 
0.059660 -0.104684 0.839228 
0.061090 -0.104704 0.839384 
0.062532 -0.104742 0.839688 
0.063965 -0.104764 0.839871 
0.065394 -0.104779 0.839990 
0.066845 -0.104828 0.840380 
0.068329 -0.104925 0.841156 
0.069834 -0.105049 0.842149 
0.071359 -0.105199 0.843358 
0.072908 -0.105377 0.844780 
0.074458 -0.105550 0.846171 
0.076013 -0.105723 0.847555 
0.077556 -0.105873 0.848756 
0.079132 -0.106062 0.850277 
0.080735 -0.106281 0.852026 
0.082324 -0.106472 0.853561 
0.083902 -0.106644 0.854935 
0.085480 -0.106810 0.856272 
0.087055 -0.106967 0.857526 
0.088612 -0.107096 0.858559 
0.090265 -0.107336 0.860489 
0.092021 -0.107689 0.863315 
0.093830 -0.108091 0.866537 
0.095663 -0.108509 0.869887 
0.097534 -0.108956 0.873472 
0.099433 -0.109421 0.877198 
0.101289 -0.109826 0.880446 
0.103145 -0.110217 0.883586 
0.105024 -0.110624 0.886845 
0.106889 -0.111003 0.889885 
0.108642 -0.111258 0.891929 
0.110319 -0.111429 0.893298 
0.112124 -0.111723 0.895653 
0.113775 -0.111857 0.896731 
-0.026645 -0.114419 0.929908 
-0.025054 -0.114331 0.929190 
-0.023455 -0.114196 0.928098 
-0.021850 -0.114008 0.926569 
-0.020168 -0.113356 0.921271 
-0.018504 -0.112708 0.915997 
-0.016840 -0.111939 0.909755 
-0.015202 -0.111209 0.903820 
-0.013586 -0.110494 0.898010 
-0.012031 -0.110157 0.895267 
-0.010482 -0.109783 0.892233 
-0.008948 -0.109466 0.889655 
-0.007419 -0.109111 0.886770 
-0.005903 -0.108796 0.884204 
-0.004393 -0.108431 0.881237 
-0.002895 -0.108107 0.878609 
-0.001405 -0.107765 0.875831 
0.000075 -0.107427 0.873079 
0.001546 -0.107105 0.870468 
0.003010 -0.106830 0.868231 
0.004466 -0.106543 0.865899 
0.005917 -0.106319 0.864080 
0.007365 -0.106127 0.862515 
0.008805 -0.105916 0.860801 
0.010240 -0.105705 0.859089 
0.011670 -0.105504 0.857453 
0.013089 -0.105255 0.855426 
0.014501 -0.105005 0.853394 
0.015902 -0.104733 0.851188 
0.017298 -0.104472 0.849062 
0.018688 -0.104222 0.847037 
0.020083 -0.104029 0.845465 
0.021479 -0.103869 0.844162 
0.022880 -0.103748 0.843182 
0.024279 -0.103637 0.842277 
0.025677 -0.103534 0.841439 
0.027073 -0.103432 0.840617 
0.028470 -0.103342 0.839884 
0.029866 -0.103262 0.839228 
0.031261 -0.103182 0.838585 
0.032656 -0.103112 0.838009 
0.034052 -0.103050 0.837509 
0.035445 -0.102982 0.836953 
0.036849 -0.102952 0.836713 
0.038252 -0.102922 0.836468 
0.039655 -0.102893 0.836233 
0.041075 -0.102907 0.836348 
0.042493 -0.102918 0.836438 
0.043897 -0.102895 0.836249 
0.045323 -0.102923 0.836475 
0.046749 -0.102948 0.836676 
0.048160 -0.102942 0.836631 
0.049594 -0.102981 0.836951 
0.051038 -0.103040 0.837426 
0.052475 -0.103082 0.837765 
0.053923 -0.103142 0.838258 
0.055377 -0.103212 0.838828 
0.056825 -0.103265 0.839259 
0.058272 -0.103316 0.839667 
0.059714 -0.103354 0.839981 
0.061145 -0.103373 0.840134 
0.062594 -0.103421 0.840523 
0.064034 -0.103453 0.840780 
0.065471 -0.103476 0.840969 
0.066928 -0.103532 0.841423 
0.068414 -0.103628 0.842202 
0.069915 -0.103742 0.843132 
0.071437 -0.103882 0.844269 
0.072979 -0.104046 0.845606 
0.074524 -0.104208 0.846917 
0.076081 -0.104379 0.848310 
0.077633 -0.104538 0.849599 
0.079219 -0.104735 0.851207 
0.080817 -0.104943 0.852891 
0.082399 -0.105121 0.854339 
0.083968 -0.105277 0.855607 
0.085532 -0.105423 0.856793 
0.087100 -0.105567 0.857963 
0.088649 -0.105685 0.858923 
0.090293 -0.105910 0.860756 
0.092031 -0.106236 0.863403 
0.093810 -0.106600 0.866356 
0.095621 -0.106987 0.869506 
0.097479 -0.107415 0.872983 
0.099368 -0.107863 0.876624 
0.101225 -0.108265 0.879888 
0.103093 -0.108665 0.883142 
0.104984 -0.109079 0.886505 
0.106850 -0.109455 0.889562 
0.108613 -0.109717 0.891690 
0.110319 -0.109914 0.893296 
0.112181 -0.110260 0.896106 
0.113911 -0.110469 0.897808 
0.115443 -0.112005 0.897918 
0.115632 -0.110663 0.899382 
-0.026624 -0.112754 0.929177 
-0.025031 -0.112654 0.928355 
-0.023432 -0.112513 0.927189 
-0.021818 -0.112272 0.925201 
-0.020146 -0.111675 0.920284 
-0.018479 -0.111007 0.914776 
-0.016815 -0.110239 0.908452 
-0.015179 -0.109509 0.902438 
-0.013566 -0.108814 0.896707 
-0.012009 -0.108439 0.893615 
-0.010465 -0.108102 0.890839 
-0.008935 -0.107802 0.888369 
-0.007409 -0.107464 0.885579 
-0.005896 -0.107173 0.883184 
-0.004388 -0.106814 0.880228 
-0.002892 -0.106506 0.877690 
-0.001404 -0.106202 0.875179 
0.000075 -0.105891 0.872618 
0.001546 -0.105599 0.870217 
0.003010 -0.105349 0.868152 
0.004466 -0.105067 0.865828 
0.005916 -0.104836 0.863930 
0.007363 -0.104636 0.862280 
0.008803 -0.104429 0.860570 
0.010238 -0.104222 0.858864 
0.011669 -0.104042 0.857386 
0.013090 -0.103817 0.855525 
0.014506 -0.103600 0.853740 
0.015910 -0.103343 0.851619 
0.017311 -0.103114 0.849732 
0.018705 -0.102879 0.847798 
0.020104 -0.102706 0.846370 
0.021502 -0.102549 0.845076 
0.022909 -0.102448 0.844248 
0.024308 -0.102330 0.843276 
0.025708 -0.102229 0.842441 
0.027103 -0.102118 0.841532 
0.028500 -0.102027 0.840780 
0.029895 -0.101939 0.840053 
0.031294 -0.101869 0.839473 
0.032694 -0.101809 0.838978 
0.034099 -0.101769 0.838651 
0.035501 -0.101723 0.838268 
0.036914 -0.101713 0.838190 
0.038321 -0.101687 0.837977 
0.039727 -0.101660 0.837751 
0.041146 -0.101666 0.837803 
0.042566 -0.101675 0.837875 
0.043968 -0.101640 0.837586 
0.045390 -0.101655 0.837712 
0.046813 -0.101668 0.837821 
0.048221 -0.101651 0.837681 
0.049647 -0.101672 0.837849 
0.051088 -0.101720 0.838248 
0.052531 -0.101770 0.838659 
0.053985 -0.101840 0.839234 
0.055443 -0.101911 0.839819 
0.056891 -0.101962 0.840238 
0.058339 -0.102010 0.840634 
0.059782 -0.102047 0.840945 
0.061211 -0.102059 0.841042 
0.062668 -0.102116 0.841515 
0.064110 -0.102148 0.841776 
0.065559 -0.102188 0.842106 
0.067020 -0.102245 0.842573 
0.068514 -0.102350 0.843437 
0.070012 -0.102455 0.844305 
0.071541 -0.102600 0.845498 
0.073072 -0.102743 0.846678 
0.074617 -0.102900 0.847975 
0.076177 -0.103071 0.849380 
0.077731 -0.103229 0.850680 
0.079313 -0.103416 0.852223 
0.080905 -0.103610 0.853819 
0.082472 -0.103765 0.855104 
0.084027 -0.103901 0.856218 
0.085584 -0.104033 0.857310 
0.087145 -0.104166 0.858407 
0.088687 -0.104274 0.859294 
0.090324 -0.104487 0.861050 
0.092035 -0.104777 0.863442 
0.093783 -0.105101 0.866109 
0.095563 -0.105449 0.868980 
0.097399 -0.105848 0.872267 
0.099268 -0.106270 0.875747 
0.101134 -0.106677 0.879095 
0.103020 -0.107092 0.882517 
0.104923 -0.107514 0.885992 
0.106799 -0.107895 0.889135 
0.108581 -0.108174 0.891432 
0.110336 -0.108417 0.893438 
0.112252 -0.108810 0.896673 
0.114057 -0.109087 0.898956 
0.115868 -0.109362 0.901222 
-0.028205 -0.111218 0.929499 
-0.026609 -0.111117 0.928659 
-0.025012 -0.110996 0.927645 
-0.023409 -0.110829 0.926254 
-0.021785 -0.110538 0.923817 
-0.020123 -0.109989 0.919228 
-0.018457 -0.109326 0.913687 
-0.016792 -0.108550 0.907206 
-0.015156 -0.107822 0.901121 
-0.013548 -0.107151 0.895510 
-0.011987 -0.106732 0.892013 
-0.010447 -0.106404 0.889268 
-0.008920 -0.106122 0.886912 
-0.007398 -0.105797 0.884199 
-0.005888 -0.105519 0.881876 
-0.004383 -0.105185 0.879081 
-0.002889 -0.104904 0.876731 
-0.001403 -0.104629 0.874439 
0.000075 -0.104368 0.872250 
0.001546 -0.104105 0.870058 
0.003010 -0.103871 0.868102 
0.004466 -0.103602 0.865853 
0.005916 -0.103373 0.863939 
0.007361 -0.103156 0.862122 
0.008801 -0.102950 0.860404 
0.010236 -0.102746 0.858698 
0.011668 -0.102580 0.857309 
0.013092 -0.102378 0.855624 
0.014512 -0.102195 0.854089 
0.015922 -0.101973 0.852237 
0.017327 -0.101768 0.850522 
0.018726 -0.101555 0.848744 
0.020129 -0.101393 0.847390 
0.021530 -0.101245 0.846151 
0.022936 -0.101137 0.845250 
0.024339 -0.101029 0.844349 
0.025738 -0.100921 0.843444 
0.027132 -0.100801 0.842447 
0.028525 -0.100691 0.841527 
0.029921 -0.100602 0.840779 
0.031319 -0.100525 0.840138 
0.032720 -0.100468 0.839659 
0.034135 -0.100455 0.839550 
0.035548 -0.100437 0.839398 
0.036968 -0.100438 0.839412 
0.038384 -0.100430 0.839344 
0.039796 -0.100413 0.839197 
0.041210 -0.100402 0.839107 
0.042624 -0.100391 0.839018 
0.044027 -0.100355 0.838718 
0.045439 -0.100342 0.838608 
0.046859 -0.100347 0.838652 
0.048268 -0.100329 0.838496 
0.049699 -0.100357 0.838729 
0.051141 -0.100405 0.839130 
0.052600 -0.100482 0.839775 
0.054059 -0.100553 0.840372 
0.055517 -0.100622 0.840950 
0.056966 -0.100671 0.841355 
0.058411 -0.100709 0.841670 
0.059851 -0.100738 0.841915 
0.061283 -0.100752 0.842031 
0.062747 -0.100818 0.842582 
0.064192 -0.100850 0.842853 
0.065650 -0.100900 0.843273 
0.067114 -0.100959 0.843760 
0.068619 -0.101074 0.844721 
0.070113 -0.101169 0.845514 
0.071635 -0.101300 0.846613 
0.073160 -0.101430 0.847697 
0.074706 -0.101583 0.848980 
0.076261 -0.101743 0.850318 
0.077818 -0.101899 0.851623 
0.079400 -0.102083 0.853160 
0.080986 -0.102264 0.854674 
0.082545 -0.102406 0.855858 
0.084093 -0.102529 0.856888 
0.085650 -0.102659 0.857971 
0.087205 -0.102783 0.859004 
0.088756 -0.102897 0.859958 
0.090378 -0.103089 0.861566 
0.092071 -0.103354 0.863782 
0.093791 -0.103642 0.866185 
0.095541 -0.103952 0.868779 
0.097339 -0.104305 0.871726 
0.099188 -0.104701 0.875037 
0.101051 -0.105100 0.878375 
0.102945 -0.105519 0.881876 
0.104866 -0.105954 0.885513 
0.106772 -0.106362 0.888917 
0.108578 -0.106659 0.891400 
0.110377 -0.106943 0.893772 
0.112332 -0.107367 0.897316 
0.114221 -0.107718 0.900249 
0.116104 -0.108054 0.903059 
0.117971 -0.108366 0.905670 
-0.029781 -0.109659 0.929645 
-0.028187 -0.109572 0.928905 
-0.026588 -0.109456 0.927924 
-0.024980 -0.109285 0.926471 
-0.023362 -0.109044 0.924434 
-0.021729 -0.108693 0.921452 
-0.020079 -0.108193 0.917214 
-0.018415 -0.107530 0.911594 
-0.016757 -0.106785 0.905276 
-0.015129 -0.106103 0.899498 
-0.013530 -0.105495 0.894341 
-0.011967 -0.105043 0.890508 
-0.010431 -0.104732 0.887871 
-0.008907 -0.104465 0.885608 
-0.007387 -0.104147 0.882914 
-0.005879 -0.103873 0.880594 
-0.004377 -0.103564 0.877975 
-0.002886 -0.103309 0.875815 
-0.001402 -0.103081 0.873882 
0.000075 -0.102877 0.872148 
0.001546 -0.102661 0.870315 
0.003011 -0.102442 0.868458 
0.004468 -0.102184 0.866270 
0.005918 -0.101936 0.864175 
0.007362 -0.101701 0.862178 
0.008801 -0.101487 0.860367 
0.010236 -0.101295 0.858736 
0.011670 -0.101142 0.857443 
0.013097 -0.100965 0.855941 
0.014521 -0.100806 0.854592 
0.015936 -0.100617 0.852991 
0.017345 -0.100427 0.851380 
0.018747 -0.100228 0.849693 
0.020153 -0.100077 0.848413 
0.021556 -0.099931 0.847171 
0.022963 -0.099823 0.846260 
0.024370 -0.099724 0.845422 
0.025771 -0.099617 0.844510 
0.027164 -0.099489 0.843431 
0.028558 -0.099380 0.842499 
0.029953 -0.099280 0.841658 
0.031349 -0.099195 0.840938 
0.032752 -0.099139 0.840463 
0.034166 -0.099120 0.840296 
0.035580 -0.099101 0.840140 
0.036997 -0.099093 0.840071 
0.038417 -0.099093 0.840073 
0.039833 -0.099083 0.839986 
0.041248 -0.099071 0.839885 
0.042660 -0.099051 0.839717 
0.044071 -0.099033 0.839564 
0.045482 -0.099014 0.839404 
0.046904 -0.099022 0.839464 
0.048323 -0.099020 0.839454 
0.049765 -0.099066 0.839842 
0.051210 -0.099115 0.840255 
0.052677 -0.099203 0.841001 
0.054133 -0.099265 0.841527 
0.055589 -0.099325 0.842035 
0.057034 -0.099363 0.842357 
0.058474 -0.099390 0.842588 
0.059916 -0.099419 0.842835 
0.061355 -0.099441 0.843020 
0.062822 -0.099508 0.843588 
0.064274 -0.099549 0.843931 
0.065747 -0.099617 0.844516 
0.067215 -0.099678 0.845027 
0.068717 -0.099785 0.845932 
0.070205 -0.099866 0.846626 
0.071721 -0.099985 0.847631 
0.073233 -0.100093 0.848545 
0.074782 -0.100247 0.849851 
0.076346 -0.100414 0.851268 
0.077912 -0.100578 0.852655 
0.079489 -0.100749 0.854107 
0.081066 -0.100915 0.855515 
0.082610 -0.101035 0.856532 
0.084150 -0.101146 0.857470 
0.085701 -0.101265 0.858485 
0.087265 -0.101396 0.859593 
0.088825 -0.101518 0.860630 
0.090440 -0.101698 0.862157 
0.092116 -0.101940 0.864206 
0.093818 -0.102202 0.866427 
0.095538 -0.102477 0.868754 
0.097317 -0.102804 0.871530 
0.099136 -0.103163 0.874575 
0.100977 -0.103535 0.877731 
0.102857 -0.103936 0.881123 
0.104777 -0.104364 0.884758 
0.106676 -0.104760 0.888112 
0.108511 -0.105084 0.890857 
0.110369 -0.105419 0.893701 
0.112372 -0.105884 0.897638 
0.114330 -0.106293 0.901111 
0.116272 -0.106677 0.904366 
0.118147 -0.106990 0.907019 
0.120022 -0.107296 0.909611 
-0.029763 -0.108018 0.929080 
-0.028164 -0.107912 0.928176 
-0.026567 -0.107796 0.927174 
-0.024946 -0.107565 0.925188 
-0.023318 -0.107271 0.922661 
-0.021686 -0.106918 0.919619 
-0.020041 -0.106435 0.915472 
-0.018379 -0.105781 0.909843 
-0.016730 -0.105085 0.903860 
-0.015110 -0.104447 0.898371 
-0.013513 -0.103849 0.893223 
-0.011951 -0.103393 0.889302 
-0.010418 -0.103098 0.886769 
-0.008896 -0.102835 0.884500 
-0.007377 -0.102514 0.881741 
-0.005871 -0.102247 0.879446 
-0.004372 -0.101963 0.877003 
-0.002883 -0.101735 0.875040 
-0.001401 -0.101551 0.873462 
0.000075 -0.101400 0.872160 
0.001547 -0.101218 0.870594 
0.003013 -0.101021 0.868903 
0.004470 -0.100766 0.866710 
0.005920 -0.100510 0.864507 
0.007363 -0.100248 0.862253 
0.008801 -0.100026 0.860342 
0.010236 -0.099836 0.858713 
0.011670 -0.099688 0.857437 
0.013100 -0.099542 0.856184 
0.014529 -0.099415 0.855089 
0.015948 -0.099249 0.853662 
0.017362 -0.099081 0.852219 
0.018769 -0.098904 0.850693 
0.020175 -0.098747 0.849340 
0.021581 -0.098612 0.848177 
0.022990 -0.098505 0.847257 
0.024399 -0.098408 0.846427 
0.025802 -0.098301 0.845509 
0.027194 -0.098167 0.844356 
0.028586 -0.098048 0.843331 
0.029982 -0.097948 0.842473 
0.031376 -0.097855 0.841670 
0.032780 -0.097800 0.841194 
0.034198 -0.097788 0.841094 
0.035610 -0.097761 0.840862 
0.037028 -0.097752 0.840780 
0.038449 -0.097751 0.840776 
0.039867 -0.097741 0.840686 
0.041283 -0.097730 0.840593 
0.042699 -0.097718 0.840490 
0.044116 -0.097708 0.840409 
0.045529 -0.097692 0.840265 
0.046958 -0.097710 0.840425 
0.048384 -0.097720 0.840512 
0.049834 -0.097777 0.841000 
0.051282 -0.097828 0.841437 
0.052757 -0.097924 0.842267 
0.054214 -0.097985 0.842790 
0.055672 -0.098044 0.843291 
0.057118 -0.098079 0.843599 
0.058560 -0.098105 0.843824 
0.060004 -0.098134 0.844072 
0.061444 -0.098155 0.844248 
0.062914 -0.098221 0.844814 
0.064368 -0.098261 0.845160 
0.065849 -0.098339 0.845831 
0.067320 -0.098399 0.846346 
0.068823 -0.098503 0.847240 
0.070306 -0.098573 0.847844 
0.071816 -0.098679 0.848758 
0.073317 -0.098767 0.849514 
0.074862 -0.098911 0.850757 
0.076422 -0.099069 0.852115 
0.077991 -0.099233 0.853520 
0.079561 -0.099391 0.854885 
0.081124 -0.099536 0.856126 
0.082660 -0.099642 0.857043 
0.084199 -0.099750 0.857969 
0.085753 -0.099871 0.859008 
0.087319 -0.100001 0.860128 
0.088898 -0.100141 0.861333 
0.090504 -0.100308 0.862768 
0.092164 -0.100527 0.864655 
0.093847 -0.100765 0.866696 
0.095549 -0.101015 0.868849 
0.097308 -0.101318 0.871452 
0.099105 -0.101649 0.874304 
0.100914 -0.101984 0.877182 
0.102779 -0.102365 0.880458 
0.104697 -0.102786 0.884083 
0.106598 -0.103179 0.887467 
0.108447 -0.103513 0.890331 
0.110359 -0.103895 0.893620 
0.112387 -0.104375 0.897752 
0.114397 -0.104827 0.901634 
0.116356 -0.105220 0.905018 
0.118233 -0.105529 0.907679 
0.120049 -0.105778 0.909814 
-0.029742 -0.106369 0.928438 
-0.028136 -0.106232 0.927244 
-0.026537 -0.106105 0.926132 
-0.024898 -0.105794 0.923415 
-0.023267 -0.105477 0.920655 
-0.021632 -0.105095 0.917318 
-0.019990 -0.104619 0.913165 
-0.018329 -0.103953 0.907353 
-0.016695 -0.103334 0.901946 
-0.015082 -0.102736 0.896730 
-0.013495 -0.102193 0.891991 
-0.011936 -0.101757 0.888185 
-0.010408 -0.101501 0.885948 
-0.008886 -0.101222 0.883515 
-0.007370 -0.100916 0.880845 
-0.005866 -0.100665 0.878651 
-0.004370 -0.100416 0.876474 
-0.002882 -0.100212 0.874695 
-0.001401 -0.100061 0.873380 
0.000075 -0.099934 0.872266 
0.001547 -0.099785 0.870965 
0.003014 -0.099602 0.869375 
0.004473 -0.099360 0.867258 
0.005923 -0.099096 0.864959 
0.007366 -0.098826 0.862602 
0.008803 -0.098588 0.860519 
0.010238 -0.098400 0.858882 
0.011671 -0.098246 0.857537 
0.013103 -0.098113 0.856375 
0.014534 -0.097997 0.855359 
0.015956 -0.097852 0.854096 
0.017372 -0.097695 0.852730 
0.018784 -0.097539 0.851363 
0.020193 -0.097393 0.850087 
0.021602 -0.097269 0.849006 
0.023011 -0.097156 0.848023 
0.024421 -0.097061 0.847191 
0.025827 -0.096965 0.846353 
0.027221 -0.096834 0.845208 
0.028615 -0.096716 0.844183 
0.030014 -0.096626 0.843392 
0.031410 -0.096532 0.842575 
0.032812 -0.096468 0.842019 
0.034228 -0.096447 0.841834 
0.035641 -0.096419 0.841585 
0.037057 -0.096400 0.841423 
0.038479 -0.096400 0.841419 
0.039894 -0.096383 0.841273 
0.041316 -0.096382 0.841263 
0.042742 -0.096389 0.841327 
0.044164 -0.096389 0.841328 
0.045579 -0.096373 0.841191 
0.047018 -0.096408 0.841493 
0.048451 -0.096429 0.841673 
0.049904 -0.096488 0.842188 
0.051356 -0.096540 0.842644 
0.052836 -0.096642 0.843538 
0.054295 -0.096701 0.844047 
0.055754 -0.096756 0.844533 
0.057198 -0.096784 0.844779 
0.058642 -0.096810 0.845004 
0.060082 -0.096829 0.845164 
0.061518 -0.096840 0.845266 
0.062983 -0.096896 0.845754 
0.064440 -0.096936 0.846103 
0.065921 -0.097011 0.846758 
0.067387 -0.097061 0.847195 
0.068892 -0.097163 0.848079 
0.070368 -0.097222 0.848596 
0.071879 -0.097325 0.849493 
0.073380 -0.097412 0.850252 
0.074934 -0.097563 0.851571 
0.076489 -0.097711 0.852864 
0.078059 -0.097871 0.854266 
0.079617 -0.098011 0.855487 
0.081173 -0.098143 0.856640 
0.082708 -0.098247 0.857544 
0.084249 -0.098354 0.858475 
0.085813 -0.098483 0.859604 
0.087383 -0.098614 0.860751 
0.088971 -0.098762 0.862039 
0.090563 -0.098909 0.863326 
0.092213 -0.099114 0.865114 
0.093886 -0.099337 0.867054 
0.095578 -0.099572 0.869114 
0.097319 -0.099851 0.871548 
0.099106 -0.100169 0.874317 
0.100903 -0.100486 0.877088 
0.102746 -0.100839 0.880168 
0.104641 -0.101234 0.883613 
0.106540 -0.101620 0.886983 
0.108400 -0.101959 0.889945 
0.110322 -0.102346 0.893326 
0.112341 -0.102812 0.897388 
0.114331 -0.103239 0.901119 
0.116302 -0.103637 0.904595 
0.118183 -0.103947 0.907294 
0.120007 -0.104199 0.909497 
-0.029709 -0.104679 0.927408 
-0.028097 -0.104513 0.925939 
-0.026495 -0.104371 0.924678 
-0.024850 -0.104027 0.921630 
-0.023213 -0.103675 0.918516 
-0.021580 -0.103293 0.915132 
-0.019937 -0.102796 0.910721 
-0.018285 -0.102169 0.905172 
-0.016664 -0.101615 0.900263 
-0.015065 -0.101097 0.895669 
-0.013483 -0.100590 0.891184 
-0.011930 -0.100201 0.887736 
-0.010401 -0.099930 0.885332 
-0.008878 -0.099642 0.882785 
-0.007364 -0.099342 0.880127 
-0.005862 -0.099104 0.878019 
-0.004368 -0.098880 0.876028 
-0.002881 -0.098698 0.874423 
-0.001401 -0.098571 0.873291 
0.000075 -0.098465 0.872358 
0.001548 -0.098340 0.871245 
0.003016 -0.098171 0.869752 
0.004475 -0.097942 0.867722 
0.005927 -0.097683 0.865429 
0.007369 -0.097416 0.863061 
0.008806 -0.097171 0.860894 
0.010242 -0.096984 0.859236 
0.011676 -0.096831 0.857877 
0.013109 -0.096699 0.856713 
0.014541 -0.096593 0.855771 
0.015967 -0.096469 0.854668 
0.017386 -0.096324 0.853387 
0.018800 -0.096179 0.852102 
0.020211 -0.096036 0.850834 
0.021621 -0.095913 0.849742 
0.023031 -0.095801 0.848758 
0.024442 -0.095709 0.847934 
0.025850 -0.095615 0.847104 
0.027250 -0.095503 0.846111 
0.028646 -0.095388 0.845098 
0.030047 -0.095300 0.844317 
0.031444 -0.095208 0.843498 
0.032848 -0.095144 0.842932 
0.034263 -0.095115 0.842675 
0.035676 -0.095086 0.842420 
0.037093 -0.095067 0.842252 
0.038520 -0.095075 0.842319 
0.039942 -0.095069 0.842267 
0.041366 -0.095071 0.842283 
0.042794 -0.095080 0.842366 
0.044222 -0.095088 0.842439 
0.045643 -0.095081 0.842372 
0.047088 -0.095124 0.842754 
0.048532 -0.095162 0.843088 
0.049992 -0.095228 0.843676 
0.051446 -0.095278 0.844123 
0.052918 -0.095360 0.844845 
0.054369 -0.095399 0.845192 
0.055820 -0.095438 0.845535 
0.057261 -0.095457 0.845707 
0.058702 -0.095475 0.845868 
0.060138 -0.095485 0.845949 
0.061580 -0.095503 0.846114 
0.063046 -0.095557 0.846591 
0.064504 -0.095597 0.846943 
0.065987 -0.095671 0.847600 
0.067459 -0.095727 0.848096 
0.068958 -0.095818 0.848903 
0.070437 -0.095877 0.849424 
0.071943 -0.095971 0.850258 
0.073446 -0.096056 0.851015 
0.074993 -0.096195 0.852245 
0.076542 -0.096332 0.853456 
0.078105 -0.096480 0.854767 
0.079655 -0.096608 0.855899 
0.081204 -0.096729 0.856973 
0.082748 -0.096840 0.857958 
0.084299 -0.096956 0.858982 
0.085873 -0.097094 0.860208 
0.087461 -0.097242 0.861523 
0.089059 -0.097398 0.862899 
0.090644 -0.097533 0.864100 
0.092287 -0.097726 0.865804 
0.093949 -0.097933 0.867642 
0.095633 -0.098156 0.869618 
0.097359 -0.098415 0.871908 
0.099129 -0.098709 0.874518 
0.100897 -0.098993 0.877035 
0.102707 -0.099310 0.879840 
0.104578 -0.099676 0.883081 
0.106474 -0.100055 0.886437 
0.108334 -0.100389 0.889403 
0.110244 -0.100760 0.892692 
0.112245 -0.101204 0.896620 
0.114188 -0.101584 0.899988 
0.116131 -0.101954 0.903268 
0.118024 -0.102271 0.906076 
0.119914 -0.102578 0.908792 
-0.029671 -0.102975 0.926218 
-0.028047 -0.102763 0.924311 
-0.026439 -0.102588 0.922738 
-0.024793 -0.102229 0.919511 
-0.023157 -0.101873 0.916307 
-0.021523 -0.101470 0.912681 
-0.019879 -0.100959 0.908089 
-0.018237 -0.100369 0.902783 
-0.016628 -0.099874 0.898331 
-0.015042 -0.099431 0.894341 
-0.013469 -0.098980 0.890289 
-0.011924 -0.098647 0.887291 
-0.010396 -0.098386 0.884945 
-0.008874 -0.098093 0.882313 
-0.007360 -0.097798 0.879654 
-0.005859 -0.097575 0.877647 
-0.004366 -0.097363 0.875746 
-0.002881 -0.097194 0.874226 
-0.001401 -0.097088 0.873271 
0.000075 -0.096995 0.872432 
0.001548 -0.096891 0.871495 
0.003017 -0.096735 0.870093 
0.004478 -0.096528 0.868236 
0.005931 -0.096283 0.866028 
0.007375 -0.096031 0.863760 
0.008813 -0.095781 0.861513 
0.010249 -0.095595 0.859839 
0.011682 -0.095424 0.858300 
0.013114 -0.095284 0.857040 
0.014545 -0.095171 0.856025 
0.015973 -0.095058 0.855008 
0.017395 -0.094926 0.853822 
0.018812 -0.094793 0.852631 
0.020225 -0.094660 0.851432 
0.021636 -0.094538 0.850335 
0.023049 -0.094436 0.849412 
0.024461 -0.094343 0.848581 
0.025872 -0.094259 0.847829 
0.027277 -0.094159 0.846926 
0.028680 -0.094065 0.846082 
0.030085 -0.093988 0.845390 
0.031487 -0.093907 0.844658 
0.032896 -0.093852 0.844166 
0.034309 -0.093815 0.843829 
0.035722 -0.093778 0.843500 
0.037137 -0.093751 0.843256 
0.038563 -0.093751 0.843254 
0.039986 -0.093744 0.843195 
0.041420 -0.093764 0.843371 
0.042857 -0.093790 0.843608 
0.044293 -0.093810 0.843782 
0.045724 -0.093819 0.843867 
0.047171 -0.093861 0.844243 
0.048613 -0.093889 0.844497 
0.050071 -0.093945 0.845001 
0.051521 -0.093984 0.845354 
0.052985 -0.094047 0.845917 
0.054436 -0.094083 0.846241 
0.055889 -0.094120 0.846577 
0.057327 -0.094132 0.846682 
0.058770 -0.094150 0.846843 
0.060206 -0.094157 0.846910 
0.061649 -0.094175 0.847067 
0.063106 -0.094212 0.847401 
0.064566 -0.094251 0.847754 
0.066050 -0.094324 0.848413 
0.067525 -0.094381 0.848920 
0.069020 -0.094463 0.849659 
0.070512 -0.094538 0.850336 
0.072022 -0.094632 0.851183 
0.073527 -0.094718 0.851953 
0.075069 -0.094846 0.853107 
0.076610 -0.094969 0.854208 
0.078164 -0.095103 0.855414 
0.079707 -0.095218 0.856451 
0.081257 -0.095338 0.857534 
0.082804 -0.095450 0.858539 
0.084365 -0.095575 0.859661 
0.085943 -0.095713 0.860902 
0.087539 -0.095868 0.862293 
0.089139 -0.096021 0.863672 
0.090725 -0.096154 0.864872 
0.092360 -0.096334 0.866490 
0.094006 -0.096520 0.868164 
0.095681 -0.096730 0.870053 
0.097399 -0.096976 0.872264 
0.099162 -0.097259 0.874804 
0.100919 -0.097528 0.877228 
0.102709 -0.097820 0.879854 
0.104556 -0.098158 0.882893 
0.106429 -0.098510 0.886061 
0.108276 -0.098829 0.888927 
0.110155 -0.099167 0.891968 
0.112139 -0.099590 0.895773 
0.114006 -0.099899 0.898555 
0.115888 -0.100213 0.901380 
-0.026370 -0.100759 0.920325 
-0.024728 -0.100409 0.917128 
-0.023101 -0.100076 0.914083 
-0.021473 -0.099692 0.910575 
-0.019833 -0.099189 0.905985 
-0.018203 -0.098656 0.901115 
-0.016604 -0.098211 0.897046 
-0.015028 -0.097821 0.893484 
-0.013463 -0.097429 0.889909 
-0.011923 -0.097140 0.887267 
-0.010395 -0.096873 0.884825 
-0.008872 -0.096576 0.882112 
-0.007358 -0.096284 0.879448 
-0.005858 -0.096057 0.877378 
-0.004365 -0.095859 0.875566 
-0.002880 -0.095702 0.874136 
-0.001401 -0.095607 0.873262 
0.000075 -0.095515 0.872426 
0.001548 -0.095413 0.871493 
0.003017 -0.095268 0.870165 
0.004479 -0.095082 0.868471 
0.005934 -0.094861 0.866450 
0.007381 -0.094633 0.864370 
0.008820 -0.094397 0.862210 
0.010257 -0.094212 0.860525 
0.011690 -0.094032 0.858883 
0.013120 -0.093876 0.857455 
0.014551 -0.093756 0.856362 
0.015981 -0.093653 0.855419 
0.017405 -0.093534 0.854333 
0.018825 -0.093414 0.853233 
0.020241 -0.093293 0.852128 
0.021654 -0.093171 0.851015 
0.023065 -0.093060 0.849998 
0.024475 -0.092959 0.849081 
0.025885 -0.092870 0.848261 
0.027293 -0.092779 0.847434 
0.028700 -0.092697 0.846683 
0.030110 -0.092632 0.846088 
0.031519 -0.092568 0.845510 
0.032935 -0.092532 0.845178 
0.034354 -0.092504 0.844925 
0.035772 -0.092477 0.844677 
0.037189 -0.092450 0.844427 
0.038616 -0.092448 0.844410 
0.040040 -0.092440 0.844339 
0.041476 -0.092459 0.844510 
0.042916 -0.092486 0.844759 
0.044357 -0.092514 0.845011 
0.045791 -0.092525 0.845113 
0.047238 -0.092560 0.845435 
0.048677 -0.092579 0.845607 
0.050127 -0.092616 0.845942 
0.051568 -0.092636 0.846125 
0.053027 -0.092687 0.846593 
0.054480 -0.092723 0.846918 
0.055933 -0.092759 0.847250 
0.057378 -0.092778 0.847426 
0.058826 -0.092803 0.847653 
0.060258 -0.092802 0.847644 
0.061702 -0.092819 0.847796 
0.063160 -0.092855 0.848127 
0.064622 -0.092895 0.848497 
0.066103 -0.092960 0.849089 
0.067585 -0.093024 0.849672 
0.069088 -0.093114 0.850496 
0.070590 -0.093199 0.851270 
0.072109 -0.093302 0.852211 
0.073629 -0.093404 0.853140 
0.075166 -0.093521 0.854211 
0.076694 -0.093623 0.855146 
0.078233 -0.093735 0.856169 
0.079769 -0.093839 0.857118 
0.081321 -0.093959 0.858209 
0.082878 -0.094079 0.859309 
0.084450 -0.094212 0.860525 
0.086036 -0.094356 0.861842 
0.087635 -0.094509 0.863237 
0.089236 -0.094659 0.864609 
0.090825 -0.094793 0.865825 
0.092453 -0.094961 0.867362 
0.094091 -0.095135 0.868952 
0.095757 -0.095330 0.870737 
0.097448 -0.095545 0.872701 
0.099191 -0.095804 0.875068 
0.100930 -0.096051 0.877318 
0.102697 -0.096317 0.879754 
0.104513 -0.096621 0.882528 
0.106374 -0.096957 0.885597 
0.108210 -0.097262 0.888385 
0.110066 -0.097576 0.891247 
0.112013 -0.097962 0.894771 
0.113814 -0.098210 0.897038 
0.115603 -0.098442 0.899163 
-0.026284 -0.098874 0.917305 
-0.024659 -0.098579 0.914572 
-0.023046 -0.098293 0.911915 
-0.021427 -0.097938 0.908627 
-0.019795 -0.097466 0.904242 
-0.018179 -0.097000 0.899925 
-0.016587 -0.096588 0.896102 
-0.015018 -0.096240 0.892868 
-0.013460 -0.095895 0.889671 
-0.011924 -0.095638 0.887283 
-0.010395 -0.095374 0.884837 
-0.008873 -0.095090 0.882201 
-0.007359 -0.094812 0.879619 
-0.005859 -0.094589 0.877556 
-0.004366 -0.094394 0.875748 
-0.002881 -0.094248 0.874390 
-0.001401 -0.094145 0.873434 
0.000075 -0.094046 0.872519 
0.001549 -0.093953 0.871649 
0.003018 -0.093817 0.870395 
0.004481 -0.093644 0.868790 
0.005937 -0.093446 0.866951 
0.007387 -0.093250 0.865134 
0.008829 -0.093029 0.863078 
0.010268 -0.092848 0.861397 
0.011700 -0.092660 0.859653 
0.013130 -0.092494 0.858120 
0.014559 -0.092358 0.856854 
0.015990 -0.092257 0.855915 
0.017417 -0.092149 0.854913 
0.018840 -0.092040 0.853905 
0.020259 -0.091931 0.852890 
0.021673 -0.091811 0.851776 
0.023085 -0.091700 0.850753 
0.024494 -0.091592 0.849748 
0.025905 -0.091502 0.848913 
0.027316 -0.091422 0.848167 
0.028730 -0.091357 0.847568 
0.030142 -0.091295 0.846990 
0.031556 -0.091242 0.846504 
0.032975 -0.091208 0.846182 
0.034392 -0.091173 0.845860 
0.035812 -0.091146 0.845615 
0.037230 -0.091119 0.845358 
0.038658 -0.091116 0.845330 
0.040083 -0.091107 0.845249 
0.041520 -0.091124 0.845411 
0.042958 -0.091144 0.845588 
0.044401 -0.091172 0.845854 
0.045841 -0.091192 0.846035 
0.047289 -0.091226 0.846354 
0.048730 -0.091244 0.846524 
0.050180 -0.091279 0.846846 
0.051622 -0.091297 0.847015 
0.053074 -0.091332 0.847339 
0.054523 -0.091359 0.847584 
0.055973 -0.091387 0.847847 
0.057413 -0.091398 0.847952 
0.058857 -0.091415 0.848105 
0.060296 -0.091422 0.848169 
0.061746 -0.091446 0.848396 
0.063206 -0.091483 0.848741 
0.064680 -0.091539 0.849255 
0.066168 -0.091611 0.849924 
0.067658 -0.091683 0.850596 
0.069163 -0.091773 0.851425 
0.070680 -0.091873 0.852358 
0.072202 -0.091977 0.853316 
0.073727 -0.092079 0.854265 
0.075252 -0.092178 0.855184 
0.076772 -0.092268 0.856021 
0.078305 -0.092369 0.856954 
0.079835 -0.092462 0.857825 
0.081397 -0.092590 0.859012 
0.082964 -0.092719 0.860204 
0.084538 -0.092850 0.861422 
0.086116 -0.092982 0.862643 
0.087715 -0.093131 0.864022 
0.089310 -0.093271 0.865330 
0.090902 -0.093404 0.866560 
0.092532 -0.093571 0.868110 
0.094170 -0.093740 0.869678 
0.095826 -0.093922 0.871365 
0.097496 -0.094113 0.873137 
0.099220 -0.094348 0.875320 
0.100947 -0.094580 0.877468 
0.102694 -0.094824 0.879729 
0.104490 -0.095105 0.882337 
0.106348 -0.095433 0.885382 
0.108184 -0.095733 0.888168 
0.110019 -0.096024 0.890871 
0.111944 -0.096385 0.894217 
0.113690 -0.096584 0.896064 
0.115362 -0.096716 0.897288 
-0.024583 -0.096727 0.911727 
-0.022992 -0.096520 0.909779 
-0.021388 -0.096221 0.906957 
-0.019766 -0.095791 0.902907 
-0.018164 -0.095395 0.899170 
-0.016579 -0.095022 0.895654 
-0.015015 -0.094710 0.892719 
-0.013462 -0.094400 0.889789 
-0.011926 -0.094155 0.887489 
-0.010398 -0.093898 0.885062 
-0.008875 -0.093626 0.882497 
-0.007363 -0.093361 0.879996 
-0.005861 -0.093142 0.877932 
-0.004368 -0.092950 0.876126 
-0.002882 -0.092806 0.874765 
-0.001402 -0.092694 0.873711 
0.000075 -0.092595 0.872783 
0.001549 -0.092494 0.871832 
0.003019 -0.092370 0.870658 
0.004482 -0.092200 0.869061 
0.005940 -0.092023 0.867392 
0.007392 -0.091841 0.865676 
0.008837 -0.091650 0.863870 
0.010279 -0.091489 0.862359 
0.011715 -0.091314 0.860701 
0.013145 -0.091141 0.859079 
0.014575 -0.091003 0.857776 
0.016006 -0.090893 0.856734 
0.017432 -0.090778 0.855654 
0.018858 -0.090681 0.854740 
0.020281 -0.090582 0.853808 
0.021695 -0.090458 0.852634 
0.023108 -0.090347 0.851593 
0.024516 -0.090231 0.850499 
0.025923 -0.090126 0.849506 
0.027335 -0.090046 0.848749 
0.028752 -0.089990 0.848230 
0.030164 -0.089922 0.847587 
0.031581 -0.089879 0.847176 
0.033003 -0.089852 0.846922 
0.034422 -0.089818 0.846602 
0.035843 -0.089792 0.846360 
0.037266 -0.089774 0.846186 
0.038692 -0.089763 0.846088 
0.040118 -0.089753 0.845996 
0.041557 -0.089771 0.846162 
0.042996 -0.089790 0.846340 
0.044444 -0.089825 0.846669 
0.045893 -0.089859 0.846996 
0.047343 -0.089894 0.847319 
0.048786 -0.089912 0.847491 
0.050233 -0.089938 0.847732 
0.051676 -0.089955 0.847895 
0.053124 -0.089981 0.848141 
0.054575 -0.090008 0.848400 
0.056027 -0.090037 0.848669 
0.057474 -0.090056 0.848845 
0.058914 -0.090064 0.848927 
0.060355 -0.090072 0.848998 
0.061813 -0.090105 0.849313 
0.063275 -0.090143 0.849665 
0.064757 -0.090207 0.850268 
0.066252 -0.090286 0.851013 
0.067750 -0.090365 0.851758 
0.069258 -0.090454 0.852596 
0.070785 -0.090562 0.853618 
0.072309 -0.090664 0.854582 
0.073836 -0.090765 0.855530 
0.075357 -0.090855 0.856376 
0.076879 -0.090943 0.857205 
0.078405 -0.091032 0.858052 
0.079930 -0.091117 0.858853 
0.081488 -0.091236 0.859971 
0.083058 -0.091364 0.861173 
0.084625 -0.091484 0.862310 
0.086204 -0.091613 0.863520 
0.087811 -0.091766 0.864966 
0.089408 -0.091905 0.866276 
0.091012 -0.092046 0.867603 
0.092637 -0.092203 0.869089 
0.094266 -0.092360 0.870568 
0.095903 -0.092520 0.872070 
0.097554 -0.092688 0.873654 
0.099250 -0.092893 0.875585 
0.100957 -0.093102 0.877555 
0.102683 -0.093322 0.879637 
0.104477 -0.093597 0.882227 
0.106336 -0.093921 0.885282 
0.108162 -0.094208 0.887988 
0.109997 -0.094495 0.890688 
0.111919 -0.094848 0.894018 
0.113671 -0.095049 0.895911 
0.115330 -0.095168 0.897036 
-0.024527 -0.094967 0.909673 
-0.022948 -0.094794 0.908015 
-0.021357 -0.094546 0.905643 
-0.019747 -0.094173 0.902069 
-0.018156 -0.093832 0.898797 
-0.016574 -0.093479 0.895419 
-0.015014 -0.093191 0.892660 
-0.013465 -0.092919 0.890051 
-0.011929 -0.092671 0.887681 
-0.010400 -0.092420 0.885271 
-0.008879 -0.092169 0.882876 
-0.007367 -0.091918 0.880469 
-0.005864 -0.091695 0.878328 
-0.004370 -0.091506 0.876519 
-0.002884 -0.091362 0.875137 
-0.001402 -0.091242 0.873990 
0.000075 -0.091137 0.872985 
0.001549 -0.091037 0.872026 
0.003020 -0.090923 0.870940 
0.004484 -0.090758 0.869354 
0.005943 -0.090601 0.867850 
0.007398 -0.090445 0.866361 
0.008846 -0.090276 0.864742 
0.010292 -0.090138 0.863417 
0.011731 -0.089983 0.861936 
0.013162 -0.089805 0.860228 
0.014591 -0.089651 0.858748 
0.016022 -0.089531 0.857602 
0.017446 -0.089400 0.856346 
0.018872 -0.089297 0.855358 
0.020300 -0.089216 0.854586 
0.021716 -0.089102 0.853489 
0.023131 -0.088994 0.852457 
0.024543 -0.088886 0.851425 
0.025951 -0.088781 0.850416 
0.027359 -0.088685 0.849499 
0.028778 -0.088631 0.848982 
0.030190 -0.088563 0.848333 
0.031609 -0.088520 0.847919 
0.033029 -0.088484 0.847573 
0.034448 -0.088449 0.847238 
0.035870 -0.088423 0.846989 
0.037295 -0.088406 0.846829 
0.038723 -0.088398 0.846749 
0.040154 -0.088398 0.846750 
0.041597 -0.088422 0.846982 
0.043042 -0.088448 0.847232 
0.044491 -0.088483 0.847566 
0.045942 -0.088518 0.847898 
0.047394 -0.088552 0.848224 
0.048838 -0.088571 0.848403 
0.050282 -0.088588 0.848570 
0.051727 -0.088606 0.848738 
0.053177 -0.088631 0.848982 
0.054634 -0.088666 0.849316 
0.056092 -0.088701 0.849654 
0.057546 -0.088728 0.849910 
0.058994 -0.088745 0.850070 
0.060442 -0.088760 0.850222 
0.061903 -0.088795 0.850548 
0.063368 -0.088833 0.850915 
0.064853 -0.088896 0.851522 
0.066345 -0.088967 0.852200 
0.067846 -0.089046 0.852957 
0.069350 -0.089126 0.853721 
0.070877 -0.089232 0.854737 
0.072403 -0.089332 0.855693 
0.073932 -0.089431 0.856647 
0.075454 -0.089518 0.857482 
0.076977 -0.089605 0.858307 
0.078506 -0.089693 0.859151 
0.080033 -0.089777 0.859954 
0.081600 -0.089902 0.861153 
0.083165 -0.090019 0.862282 
0.084733 -0.090137 0.863408 
0.086313 -0.090263 0.864610 
0.087913 -0.090406 0.865979 
0.089514 -0.090544 0.867304 
0.091121 -0.090683 0.868641 
0.092739 -0.090830 0.870045 
0.094352 -0.090967 0.871361 
0.095979 -0.091114 0.872764 
0.097614 -0.091263 0.874191 
0.099301 -0.091455 0.876031 
0.101007 -0.091660 0.877992 
0.102733 -0.091876 0.880064 
0.104518 -0.092138 0.882574 
0.106358 -0.092440 0.885469 
0.108174 -0.092714 0.888091 
0.109999 -0.092987 0.890706 
0.111899 -0.093316 0.893854 
0.113680 -0.093538 0.895982 
0.115351 -0.093665 0.897197 
0.117066 -0.093824 0.898720 
-0.024490 -0.093284 0.908299 
-0.022919 -0.093138 0.906882 
-0.021341 -0.092944 0.904987 
-0.019741 -0.092615 0.901788 
-0.018156 -0.092308 0.898802 
-0.016575 -0.091963 0.895435 
-0.015016 -0.091687 0.892748 
-0.013469 -0.091434 0.890286 
-0.011931 -0.091182 0.887838 
-0.010402 -0.090937 0.885447 
-0.008883 -0.090709 0.883229 
-0.007370 -0.090471 0.880908 
-0.005866 -0.090244 0.878695 
-0.004372 -0.090065 0.876961 
-0.002885 -0.089923 0.875572 
-0.001403 -0.089796 0.874340 
0.000075 -0.089692 0.873327 
0.001550 -0.089594 0.872370 
0.003021 -0.089492 0.871377 
0.004486 -0.089329 0.869794 
0.005947 -0.089183 0.868372 
0.007403 -0.089039 0.866963 
0.008854 -0.088889 0.865508 
0.010302 -0.088764 0.864292 
0.011747 -0.088641 0.863087 
0.013183 -0.088483 0.861554 
0.014615 -0.088338 0.860136 
0.016046 -0.088209 0.858886 
0.017470 -0.088070 0.857530 
0.018894 -0.087951 0.856368 
0.020322 -0.087862 0.855510 
0.021738 -0.087743 0.854347 
0.023155 -0.087637 0.853314 
0.024565 -0.087523 0.852206 
0.025975 -0.087419 0.851190 
0.027382 -0.087316 0.850187 
0.028798 -0.087254 0.849585 
0.030209 -0.087178 0.848851 
0.031628 -0.087135 0.848427 
0.033045 -0.087091 0.847995 
0.034468 -0.087063 0.847726 
0.035894 -0.087045 0.847551 
0.037323 -0.087037 0.847478 
0.038756 -0.087038 0.847485 
0.040197 -0.087055 0.847645 
0.041642 -0.087080 0.847889 
0.043088 -0.087106 0.848150 
0.044544 -0.087150 0.848572 
0.045997 -0.087185 0.848918 
0.047451 -0.087220 0.849254 
0.048901 -0.087246 0.849505 
0.050347 -0.087263 0.849670 
0.051794 -0.087280 0.849838 
0.053246 -0.087305 0.850080 
0.054700 -0.087332 0.850345 
0.056160 -0.087367 0.850685 
0.057616 -0.087394 0.850946 
0.059066 -0.087411 0.851112 
0.060521 -0.087435 0.851345 
0.061990 -0.087476 0.851746 
0.063457 -0.087513 0.852111 
0.064944 -0.087577 0.852727 
0.066433 -0.087638 0.853328 
0.067935 -0.087715 0.854079 
0.069434 -0.087785 0.854761 
0.070957 -0.087881 0.855694 
0.072490 -0.087987 0.856723 
0.074027 -0.088092 0.857743 
0.075545 -0.088172 0.858521 
0.077078 -0.088265 0.859427 
0.078608 -0.088351 0.860272 
0.080129 -0.088426 0.860994 
0.081690 -0.088539 0.862103 
0.083262 -0.088662 0.863294 
0.084826 -0.088770 0.864352 
0.086409 -0.088896 0.865572 
0.088020 -0.089045 0.867026 
0.089623 -0.089182 0.868356 
0.091223 -0.089311 0.869617 
0.092824 -0.089437 0.870845 
0.094428 -0.089562 0.872061 
0.096037 -0.089688 0.873288 
0.097664 -0.089827 0.874638 
0.099345 -0.090010 0.876420 
0.101052 -0.090211 0.878381 
0.102779 -0.090424 0.880455 
0.104554 -0.090673 0.882876 
0.106384 -0.090961 0.885682 
0.108190 -0.091222 0.888219 
0.110021 -0.091496 0.890890 
0.111901 -0.091802 0.893869 
0.113712 -0.092045 0.896237 
0.115414 -0.092194 0.897689 
0.117129 -0.092350 0.899206 
-0.026050 -0.091831 0.909159 
-0.024491 -0.091747 0.908329 
-0.022919 -0.091602 0.906894 
-0.021341 -0.091409 0.904981 
-0.019741 -0.091085 0.901776 
-0.018156 -0.090785 0.898800 
-0.016576 -0.090455 0.895532 
-0.015017 -0.090182 0.892834 
-0.013469 -0.089923 0.890271 
-0.011930 -0.089667 0.887737 
-0.010402 -0.089434 0.885429 
-0.008884 -0.089220 0.883307 
-0.007372 -0.088995 0.881080 
-0.005869 -0.088788 0.879032 
-0.004374 -0.088621 0.877383 
-0.002886 -0.088481 0.875996 
-0.001404 -0.088357 0.874765 
0.000075 -0.088255 0.873752 
0.001551 -0.088166 0.872870 
0.003023 -0.088073 0.871954 
0.004490 -0.087923 0.870470 
0.005952 -0.087788 0.869134 
0.007410 -0.087654 0.867805 
0.008863 -0.087515 0.866430 
0.010314 -0.087402 0.865310 
0.011762 -0.087290 0.864202 
0.013202 -0.087153 0.862846 
0.014639 -0.087021 0.861539 
0.016069 -0.086878 0.860121 
0.017493 -0.086730 0.858657 
0.018916 -0.086601 0.857376 
0.020342 -0.086497 0.856351 
0.021760 -0.086379 0.855184 
0.023182 -0.086292 0.854317 
0.024594 -0.086181 0.853220 
0.026008 -0.086086 0.852279 
0.027416 -0.085983 0.851264 
0.028832 -0.085913 0.850569 
0.030240 -0.085829 0.849741 
0.031658 -0.085779 0.849237 
0.033071 -0.085721 0.848663 
0.034492 -0.085686 0.848320 
0.035918 -0.085667 0.848138 
0.037353 -0.085668 0.848143 
0.038791 -0.085679 0.848249 
0.040237 -0.085704 0.848502 
0.041688 -0.085737 0.848826 
0.043140 -0.085771 0.849165 
0.044598 -0.085815 0.849600 
0.046058 -0.085860 0.850040 
0.047519 -0.085902 0.850458 
0.048975 -0.085935 0.850781 
0.050423 -0.085951 0.850946 
0.051872 -0.085968 0.851108 
0.053326 -0.085992 0.851352 
0.054781 -0.086018 0.851609 
0.056244 -0.086053 0.851956 
0.057703 -0.086081 0.852231 
0.059156 -0.086099 0.852405 
0.060613 -0.086122 0.852638 
0.062078 -0.086155 0.852962 
0.063541 -0.086183 0.853242 
0.065029 -0.086244 0.853842 
0.066519 -0.086303 0.854432 
0.068016 -0.086370 0.855096 
0.069516 -0.086438 0.855769 
0.071040 -0.086532 0.856697 
0.072569 -0.086628 0.857648 
0.074101 -0.086725 0.858609 
0.075629 -0.086812 0.859469 
0.077164 -0.086905 0.860391 
0.078697 -0.086992 0.861248 
0.080212 -0.087056 0.861880 
0.081766 -0.087159 0.862902 
0.083331 -0.087270 0.864008 
0.084896 -0.087378 0.865071 
0.086482 -0.087503 0.866306 
0.088104 -0.087660 0.867860 
0.089709 -0.087794 0.869191 
0.091300 -0.087911 0.870353 
0.092892 -0.088025 0.871482 
0.094493 -0.088145 0.872666 
0.096094 -0.088260 0.873809 
0.097732 -0.088405 0.875242 
0.099415 -0.088587 0.877037 
0.101125 -0.088787 0.879017 
0.102844 -0.088988 0.881015 
0.104629 -0.089241 0.883512 
0.106450 -0.089515 0.886231 
0.108243 -0.089760 0.888657 
0.110074 -0.090029 0.891314 
0.111943 -0.090321 0.894209 
0.113764 -0.090567 0.896646 
0.115519 -0.090755 0.898504 
0.117326 -0.090978 0.900718 
-0.026086 -0.090414 0.910409 
-0.024514 -0.090293 0.909187 
-0.022927 -0.090096 0.907211 
-0.021343 -0.089884 0.905073 
-0.019743 -0.089565 0.901856 
-0.018160 -0.089279 0.898982 
-0.016581 -0.088964 0.895810 
-0.015022 -0.088696 0.893106 
-0.013471 -0.088431 0.890441 
