1654
0.163017 -0.260474 0.900771 
0.164376 -0.260216 0.899876 
0.165744 -0.259975 0.899043 
0.167099 -0.259719 0.898158 
0.168407 -0.259394 0.897035 
0.169693 -0.259042 0.895818 
0.170956 -0.258662 0.894503 
0.172201 -0.258261 0.893117 
0.173509 -0.257962 0.892082 
0.174856 -0.257724 0.891261 
0.176223 -0.257519 0.890551 
0.177619 -0.257361 0.890005 
0.179043 -0.257245 0.889603 
0.180453 -0.257111 0.889140 
0.181882 -0.257006 0.888778 
0.183348 -0.256955 0.888601 
0.184797 -0.256881 0.888345 
0.186171 -0.256705 0.887737 
0.187551 -0.256540 0.887165 
0.188908 -0.256346 0.886494 
0.190215 -0.256088 0.885604 
0.191557 -0.255881 0.884888 
0.192968 -0.255768 0.884497 
0.194347 -0.255615 0.883967 
0.195725 -0.255463 0.883440 
0.197153 -0.255379 0.883150 
0.198560 -0.255268 0.882768 
0.199970 -0.255164 0.882405 
0.201381 -0.255061 0.882051 
0.202829 -0.255006 0.881861 
0.204239 -0.254906 0.881516 
0.205648 -0.254805 0.881166 
0.207053 -0.254701 0.880807 
0.208512 -0.254664 0.880677 
0.209939 -0.254589 0.880418 
0.211407 -0.254564 0.880332 
0.212873 -0.254538 0.880244 
0.214337 -0.254509 0.880143 
0.215761 -0.254434 0.879884 
0.217243 -0.254428 0.879862 
0.218691 -0.254381 0.879701 
0.220158 -0.254358 0.879620 
0.221623 -0.254334 0.879535 
0.223107 -0.254330 0.879523 
0.224553 -0.254284 0.879364 
0.226040 -0.254284 0.879364 
0.227527 -0.254284 0.879364 
0.229013 -0.254284 0.879364 
0.230521 -0.254307 0.879443 
0.232099 -0.254407 0.879789 
0.233729 -0.254562 0.880327 
0.235369 -0.254727 0.880897 
0.237029 -0.254910 0.881530 
0.238731 -0.255136 0.882312 
0.240392 -0.255316 0.882934 
0.242111 -0.255556 0.883762 
0.243953 -0.255921 0.885024 
0.245833 -0.256321 0.886408 
0.247769 -0.256775 0.887977 
0.249781 -0.257300 0.889794 
0.251804 -0.257831 0.891631 
0.253840 -0.258370 0.893494 
0.255909 -0.258934 0.895446 
0.257986 -0.259501 0.897405 
0.260019 -0.260017 0.899190 
0.261979 -0.260455 0.900704 
0.263888 -0.260837 0.902025 
0.265718 -0.261137 0.903062 
0.267552 -0.261437 0.904099 
0.269393 -0.261740 0.905149 
0.271245 -0.262051 0.906224 
0.273068 -0.262331 0.907191 
0.274860 -0.262578 0.908045 
0.276819 -0.264522 0.909436 
0.276565 -0.262738 0.908601 
0.278524 -0.264681 0.909986 
0.278242 -0.262872 0.909064 
0.280267 -0.264875 0.910650 
0.279976 -0.263058 0.909705 
0.281917 -0.264978 0.911007 
0.281642 -0.263177 0.910118 
0.317005 -0.269939 0.928063 
0.315154 -0.268126 0.927234 
0.316755 -0.268155 0.927331 
0.161735 -0.259333 0.902114 
0.163045 -0.258992 0.900928 
0.164373 -0.258684 0.899856 
0.165732 -0.258432 0.898977 
0.167066 -0.258145 0.897981 
0.168343 -0.257776 0.896697 
0.169627 -0.257423 0.895470 
0.170888 -0.257044 0.894149 
0.172131 -0.256642 0.892753 
0.173456 -0.256370 0.891806 
0.174804 -0.256137 0.890995 
0.176169 -0.255931 0.890279 
0.177563 -0.255772 0.889725 
0.178969 -0.255631 0.889236 
0.180379 -0.255500 0.888778 
0.181828 -0.255424 0.888513 
0.183313 -0.255400 0.888432 
0.184778 -0.255349 0.888255 
0.186167 -0.255195 0.887720 
0.187544 -0.255026 0.887132 
0.188882 -0.254808 0.886372 
0.190150 -0.254500 0.885300 
0.191452 -0.254242 0.884403 
0.192822 -0.254077 0.883830 
0.194183 -0.253902 0.883221 
0.195562 -0.253754 0.882707 
0.197009 -0.253697 0.882506 
0.198438 -0.253616 0.882225 
0.199850 -0.253515 0.881875 
0.201242 -0.253390 0.881441 
0.202667 -0.253310 0.881160 
0.204054 -0.253181 0.880713 
0.205442 -0.253057 0.880281 
0.206861 -0.252973 0.879990 
0.208343 -0.252966 0.879964 
0.209791 -0.252918 0.879799 
0.211280 -0.252920 0.879803 
0.212766 -0.252918 0.879798 
0.214230 -0.252891 0.879703 
0.215694 -0.252864 0.879609 
0.217182 -0.252865 0.879615 
0.218653 -0.252846 0.879547 
0.220160 -0.252870 0.879629 
0.221646 -0.252868 0.879624 
0.223111 -0.252843 0.879538 
0.224575 -0.252818 0.879450 
0.226061 -0.252816 0.879443 
0.227506 -0.252771 0.879285 
0.228991 -0.252769 0.879279 
0.230477 -0.252768 0.879276 
0.232031 -0.252842 0.879532 
0.233638 -0.252972 0.879984 
0.235275 -0.253133 0.880546 
0.236912 -0.253291 0.881094 
0.238634 -0.253538 0.881956 
0.240319 -0.253743 0.882667 
0.242063 -0.254007 0.883586 
0.243929 -0.254396 0.884937 
0.245809 -0.254793 0.886320 
0.247718 -0.255216 0.887792 
0.249699 -0.255708 0.889504 
0.251691 -0.256205 0.891231 
0.253694 -0.256708 0.892981 
0.255735 -0.257242 0.894839 
0.257782 -0.257776 0.896696 
0.259761 -0.258237 0.898300 
0.261665 -0.258617 0.899623 
0.263514 -0.258940 0.900746 
0.265310 -0.259207 0.901675 
0.267118 -0.259482 0.902631 
0.268984 -0.259811 0.903774 
0.270865 -0.260150 0.904955 
0.272719 -0.260460 0.906033 
0.274564 -0.260757 0.907067 
0.276300 -0.260948 0.907731 
0.277976 -0.261081 0.908193 
0.279684 -0.261243 0.908756 
0.281342 -0.261356 0.909150 
0.283335 -0.263320 0.910613 
0.283030 -0.261495 0.909633 
0.284964 -0.263403 0.910900 
0.284686 -0.261604 0.910011 
0.286699 -0.263583 0.911522 
0.286426 -0.261788 0.910651 
0.288426 -0.263753 0.912108 
0.288180 -0.261983 0.911332 
0.316014 -0.268618 0.934411 
0.314824 -0.266275 0.926262 
0.316478 -0.266350 0.926521 
0.160356 -0.258039 0.902936 
0.161735 -0.257805 0.902116 
0.163069 -0.257503 0.901059 
0.164396 -0.257196 0.899986 
0.165740 -0.256921 0.899022 
0.167067 -0.256624 0.897984 
0.168327 -0.256232 0.896612 
0.169592 -0.255854 0.895288 
0.170834 -0.255447 0.893865 
0.172076 -0.255048 0.892470 
0.173403 -0.254781 0.891534 
0.174752 -0.254551 0.890729 
0.176116 -0.254346 0.890014 
0.177523 -0.254206 0.889522 
0.178930 -0.254069 0.889044 
0.180343 -0.253942 0.888601 
0.181811 -0.253894 0.888432 
0.183313 -0.253894 0.888432 
0.184778 -0.253844 0.888255 
0.186185 -0.253714 0.887803 
0.187564 -0.253550 0.887227 
0.188903 -0.253335 0.886474 
0.190152 -0.253002 0.885310 
0.191429 -0.252712 0.884295 
0.192758 -0.252494 0.883533 
0.194094 -0.252290 0.882818 
0.195456 -0.252122 0.882231 
0.196908 -0.252070 0.882050 
0.198357 -0.252018 0.881866 
0.199790 -0.251944 0.881608 
0.201182 -0.251822 0.881180 
0.202604 -0.251737 0.880885 
0.203984 -0.251602 0.880412 
0.205347 -0.251449 0.879877 
0.206751 -0.251347 0.879518 
0.208235 -0.251344 0.879509 
0.209687 -0.251303 0.879364 
0.211162 -0.251288 0.879313 
0.212645 -0.251284 0.879299 
0.214107 -0.251256 0.879200 
0.215592 -0.251253 0.879191 
0.217103 -0.251283 0.879295 
0.218616 -0.251313 0.879399 
0.220147 -0.251364 0.879579 
0.221651 -0.251383 0.879645 
0.223115 -0.251356 0.879552 
0.224578 -0.251330 0.879459 
0.226062 -0.251327 0.879450 
0.227505 -0.251278 0.879279 
0.228989 -0.251276 0.879269 
0.230474 -0.251274 0.879264 
0.232005 -0.251323 0.879435 
0.233610 -0.251450 0.879878 
0.235245 -0.251608 0.880432 
0.236863 -0.251746 0.880914 
0.238587 -0.251994 0.881781 
0.240297 -0.252223 0.882585 
0.242042 -0.252487 0.883510 
0.243888 -0.252853 0.884789 
0.245742 -0.253222 0.886081 
0.247600 -0.253591 0.887372 
0.249553 -0.254052 0.888983 
0.251521 -0.254522 0.890630 
0.253528 -0.255027 0.892395 
0.255590 -0.255580 0.894330 
0.257633 -0.256108 0.896177 
0.259581 -0.256536 0.897675 
0.261450 -0.256881 0.898884 
0.263240 -0.257146 0.899810 
0.264980 -0.257358 0.900551 
0.266773 -0.257619 0.901467 
0.268609 -0.257919 0.902516 
0.270484 -0.258252 0.903683 
0.272366 -0.258588 0.904857 
0.274237 -0.258911 0.905986 
0.276001 -0.259129 0.906751 
0.277707 -0.259291 0.907317 
0.279414 -0.259452 0.907879 
0.281070 -0.259563 0.908268 
0.282781 -0.259725 0.908834 
0.284440 -0.259836 0.909224 
0.286181 -0.260022 0.909874 
0.287934 -0.260216 0.910554 
0.289978 -0.262216 0.912141 
0.289755 -0.260469 0.911438 
0.291779 -0.262448 0.912950 
0.291556 -0.260702 0.912253 
0.313566 -0.266296 0.931829 
0.312717 -0.264248 0.924663 
0.314504 -0.264436 0.925321 
0.316218 -0.264561 0.925758 
0.159050 -0.258397 0.904188 
0.159055 -0.256874 0.904222 
0.160374 -0.256538 0.903039 
0.161735 -0.256276 0.902118 
0.163065 -0.255969 0.901036 
0.164390 -0.255660 0.899950 
0.165734 -0.255387 0.898988 
0.167064 -0.255097 0.897967 
0.168324 -0.254708 0.896597 
0.169573 -0.254307 0.895188 
0.170812 -0.253899 0.893750 
0.172052 -0.253499 0.892344 
0.173381 -0.253238 0.891425 
0.174717 -0.252990 0.890551 
0.176097 -0.252810 0.889917 
0.177502 -0.252669 0.889420 
0.178911 -0.252534 0.888947 
0.180326 -0.252411 0.888513 
0.181811 -0.252388 0.888432 
0.183313 -0.252388 0.888432 
0.184780 -0.252340 0.888264 
0.186208 -0.252240 0.887911 
0.187593 -0.252085 0.887364 
0.188934 -0.251873 0.886617 
0.190182 -0.251541 0.885452 
0.191454 -0.251246 0.884412 
0.192743 -0.250977 0.883465 
0.194057 -0.250745 0.882647 
0.195414 -0.250573 0.882041 
0.196865 -0.250521 0.881860 
0.198319 -0.250474 0.881694 
0.199771 -0.250426 0.881526 
0.201163 -0.250304 0.881095 
0.202562 -0.250192 0.880700 
0.203921 -0.250033 0.880142 
0.205282 -0.249878 0.879595 
0.206684 -0.249776 0.879237 
0.208190 -0.249799 0.879317 
0.209665 -0.249786 0.879271 
0.211137 -0.249769 0.879212 
0.212600 -0.249741 0.879115 
0.214058 -0.249708 0.878997 
0.215542 -0.249706 0.878990 
0.217057 -0.249739 0.879106 
0.218594 -0.249798 0.879313 
0.220144 -0.249870 0.879567 
0.221652 -0.249893 0.879647 
0.223117 -0.249869 0.879563 
0.224579 -0.249840 0.879464 
0.226063 -0.249837 0.879452 
0.227504 -0.249787 0.879276 
0.228987 -0.249784 0.879264 
0.230470 -0.249780 0.879251 
0.231981 -0.249806 0.879344 
0.233563 -0.249908 0.879701 
0.235196 -0.250063 0.880247 
0.236814 -0.250200 0.880731 
0.238519 -0.250427 0.881530 
0.240252 -0.250681 0.882422 
0.241997 -0.250943 0.883346 
0.243820 -0.251283 0.884542 
0.245668 -0.251644 0.885814 
0.247567 -0.252053 0.887252 
0.249547 -0.252538 0.888961 
0.251569 -0.253061 0.890801 
0.253610 -0.253596 0.892683 
0.255700 -0.254174 0.894718 
0.257722 -0.254676 0.896487 
0.259616 -0.255049 0.897798 
0.261434 -0.255341 0.898828 
0.263166 -0.255548 0.899557 
0.264822 -0.255678 0.900014 
0.266555 -0.255881 0.900729 
0.268356 -0.256147 0.901664 
0.270175 -0.256427 0.902649 
0.272049 -0.256756 0.903807 
0.273917 -0.257075 0.904930 
0.275680 -0.257292 0.905695 
0.277392 -0.257460 0.906285 
0.279123 -0.257644 0.906933 
0.280778 -0.257755 0.907325 
0.282486 -0.257914 0.907885 
0.284145 -0.258028 0.908284 
0.285889 -0.258216 0.908947 
0.287638 -0.258406 0.909616 
0.289449 -0.258650 0.910476 
0.291267 -0.258899 0.911350 
0.293377 -0.260950 0.913122 
0.293121 -0.259176 0.912325 
0.295197 -0.261194 0.913975 
0.294948 -0.259426 0.913207 
0.296991 -0.261414 0.914744 
0.296746 -0.259649 0.913990 
0.298797 -0.261640 0.915538 
0.298574 -0.259894 0.914854 
0.300632 -0.261891 0.916415 
0.300409 -0.260144 0.915733 
0.310395 -0.262040 0.922407 
0.312387 -0.262404 0.923688 
0.314201 -0.262614 0.924429 
0.315945 -0.262765 0.924960 
0.157656 -0.255550 0.904963 
0.159032 -0.255303 0.904087 
0.160351 -0.254970 0.902908 
0.161712 -0.254710 0.901986 
0.163032 -0.254390 0.900854 
0.164350 -0.254074 0.899733 
0.165712 -0.253829 0.898868 
0.167044 -0.253545 0.897861 
0.168292 -0.253139 0.896426 
0.169540 -0.252740 0.895012 
0.170776 -0.252331 0.893562 
0.172015 -0.251933 0.892153 
0.173347 -0.251677 0.891245 
0.174684 -0.251433 0.890382 
0.176080 -0.251277 0.889830 
0.177484 -0.251136 0.889330 
0.178893 -0.251003 0.888859 
0.180309 -0.250882 0.888432 
0.181811 -0.250882 0.888432 
0.183313 -0.250882 0.888432 
0.184798 -0.250859 0.888351 
0.186263 -0.250810 0.888177 
0.187671 -0.250685 0.887734 
0.189035 -0.250504 0.887094 
0.190301 -0.250197 0.886006 
0.191558 -0.249882 0.884890 
0.192792 -0.249543 0.883689 
0.194082 -0.249281 0.882762 
0.195416 -0.249080 0.882050 
0.196847 -0.249004 0.881780 
0.198301 -0.248957 0.881614 
0.199754 -0.248910 0.881449 
0.201145 -0.248787 0.881014 
0.202526 -0.248655 0.880546 
0.203883 -0.248495 0.879978 
0.205245 -0.248342 0.879438 
0.206669 -0.248267 0.879170 
0.208174 -0.248289 0.879249 
0.209665 -0.248295 0.879270 
0.211133 -0.248273 0.879194 
0.212593 -0.248242 0.879082 
0.214046 -0.248204 0.878949 
0.215531 -0.248203 0.878944 
0.217045 -0.248235 0.879058 
0.218585 -0.248297 0.879277 
0.220139 -0.248373 0.879545 
0.221647 -0.248397 0.879630 
0.223112 -0.248372 0.879543 
0.224578 -0.248348 0.879459 
0.226062 -0.248346 0.879450 
0.227505 -0.248297 0.879279 
0.228989 -0.248295 0.879269 
0.230474 -0.248293 0.879264 
0.231962 -0.248295 0.879269 
0.233539 -0.248391 0.879612 
0.235170 -0.248543 0.880149 
0.236788 -0.248680 0.880634 
0.238472 -0.248884 0.881355 
0.240224 -0.249156 0.882318 
0.241966 -0.249414 0.883234 
0.243785 -0.249748 0.884415 
0.245635 -0.250109 0.885694 
0.247556 -0.250538 0.887213 
0.249563 -0.251048 0.889019 
0.251642 -0.251624 0.891060 
0.253720 -0.252192 0.893072 
0.255842 -0.252797 0.895213 
0.257863 -0.253296 0.896980 
0.259731 -0.253639 0.898193 
0.261495 -0.253877 0.899038 
0.263174 -0.254031 0.899584 
0.264776 -0.254108 0.899857 
0.266428 -0.254234 0.900302 
0.268168 -0.254441 0.901035 
0.269929 -0.254665 0.901828 
0.271744 -0.254937 0.902791 
0.273608 -0.255253 0.903910 
0.275394 -0.255491 0.904755 
0.277103 -0.255657 0.905342 
0.278837 -0.255844 0.906002 
0.280514 -0.255977 0.906474 
0.282195 -0.256112 0.906952 
0.283880 -0.256248 0.907435 
0.285624 -0.256437 0.908103 
0.287342 -0.256600 0.908682 
0.289145 -0.256837 0.909521 
0.290956 -0.257079 0.910375 
0.292808 -0.257353 0.911348 
0.294634 -0.257603 0.912233 
0.296460 -0.257850 0.913108 
0.298283 -0.258091 0.913962 
0.300110 -0.258335 0.914823 
0.302306 -0.260445 0.916791 
0.302012 -0.258639 0.915899 
0.304271 -0.260800 0.918044 
0.303982 -0.258998 0.917171 
0.306338 -0.261240 0.919590 
0.306015 -0.259407 0.918621 
0.308391 -0.261663 0.921079 
0.308060 -0.259822 0.920090 
0.310081 -0.260213 0.921474 
0.312041 -0.260549 0.922664 
0.313914 -0.260809 0.923585 
0.156247 -0.255747 0.905661 
0.156170 -0.254087 0.905216 
0.157576 -0.253888 0.904505 
0.158939 -0.253623 0.903561 
0.160243 -0.253269 0.902303 
0.161593 -0.252995 0.901325 
0.162917 -0.252685 0.900221 
0.164268 -0.252423 0.899286 
0.165663 -0.252231 0.898603 
0.167012 -0.251974 0.897689 
0.168261 -0.251574 0.896261 
0.169508 -0.251175 0.894842 
0.170742 -0.250766 0.893384 
0.171980 -0.250370 0.891974 
0.173298 -0.250095 0.890995 
0.174651 -0.249876 0.890213 
0.176062 -0.249743 0.889740 
0.177467 -0.249604 0.889243 
0.178877 -0.249473 0.888778 
0.180309 -0.249376 0.888432 
0.181811 -0.249376 0.888432 
0.183313 -0.249376 0.888432 
0.184815 -0.249376 0.888432 
0.186300 -0.249353 0.888351 
0.187728 -0.249255 0.888001 
0.189113 -0.249102 0.887456 
0.190415 -0.248844 0.886535 
0.191676 -0.248535 0.885435 
0.192911 -0.248198 0.884236 
0.194185 -0.247916 0.883231 
0.195495 -0.247685 0.882406 
0.196886 -0.247558 0.881955 
0.198319 -0.247485 0.881694 
0.199736 -0.247394 0.881369 
0.201125 -0.247270 0.880929 
0.202506 -0.247138 0.880457 
0.203865 -0.246981 0.879898 
0.205230 -0.246833 0.879373 
0.206673 -0.246782 0.879191 
0.208160 -0.246782 0.879191 
0.209648 -0.246785 0.879199 
0.211094 -0.246738 0.879032 
0.212551 -0.246704 0.878911 
0.214006 -0.246668 0.878784 
0.215510 -0.246689 0.878857 
0.217007 -0.246702 0.878904 
0.218562 -0.246780 0.879184 
0.220114 -0.246853 0.879444 
0.221622 -0.246877 0.879529 
0.223089 -0.246856 0.879452 
0.224575 -0.246855 0.879450 
0.226061 -0.246853 0.879443 
0.227506 -0.246808 0.879285 
0.228991 -0.246807 0.879279 
0.230477 -0.246806 0.879276 
0.231964 -0.246807 0.879279 
0.233540 -0.246901 0.879615 
0.235168 -0.247050 0.880144 
0.236784 -0.247183 0.880620 
0.238446 -0.247363 0.881261 
0.240194 -0.247629 0.882208 
0.241932 -0.247882 0.883108 
0.243753 -0.248216 0.884298 
0.245605 -0.248577 0.885585 
0.247579 -0.249057 0.887294 
0.249617 -0.249595 0.889212 
0.251752 -0.250223 0.891450 
0.253880 -0.250836 0.893635 
0.256030 -0.251464 0.895872 
0.258049 -0.251957 0.897627 
0.259916 -0.252296 0.898835 
0.261626 -0.252479 0.899488 
0.263254 -0.252583 0.899857 
0.264826 -0.252631 0.900029 
0.266426 -0.252706 0.900295 
0.268087 -0.252837 0.900762 
0.269838 -0.253051 0.901524 
0.271597 -0.253270 0.902305 
0.273431 -0.253556 0.903323 
0.275217 -0.253795 0.904174 
0.276949 -0.253981 0.904838 
0.278629 -0.254118 0.905327 
0.280303 -0.254249 0.905791 
0.281981 -0.254381 0.906261 
0.283662 -0.254515 0.906740 
0.285405 -0.254702 0.907406 
0.287124 -0.254866 0.907992 
0.288927 -0.255103 0.908834 
0.290734 -0.255340 0.909681 
0.292608 -0.255634 0.910726 
0.294410 -0.255863 0.911541 
0.296231 -0.256104 0.912402 
0.298045 -0.256337 0.913233 
0.299838 -0.256551 0.913994 
0.301712 -0.256831 0.914989 
0.303717 -0.257219 0.916373 
0.305728 -0.257608 0.917759 
0.307779 -0.258027 0.919253 
0.309837 -0.258447 0.920749 
0.311779 -0.258767 0.921888 
0.154632 -0.252541 0.905173 
0.156048 -0.252356 0.904512 
0.157471 -0.252186 0.903902 
0.158834 -0.251925 0.902965 
0.160141 -0.251579 0.901725 
0.161479 -0.251290 0.900689 
0.162835 -0.251033 0.899767 
0.164219 -0.250823 0.899015 
0.165601 -0.250614 0.898266 
0.166933 -0.250334 0.897265 
0.168178 -0.249930 0.895815 
0.169421 -0.249531 0.894386 
0.170657 -0.249128 0.892940 
0.171930 -0.248786 0.891713 
0.173279 -0.248559 0.890900 
0.174649 -0.248364 0.890204 
0.176060 -0.248232 0.889728 
0.177465 -0.248094 0.889233 
0.178876 -0.247965 0.888772 
0.180309 -0.247870 0.888432 
0.181811 -0.247870 0.888432 
0.183313 -0.247870 0.888432 
0.184815 -0.247870 0.888432 
0.186317 -0.247870 0.888432 
0.187764 -0.247798 0.888175 
0.189169 -0.247672 0.887722 
0.190510 -0.247464 0.886976 
0.191792 -0.247183 0.885970 
0.193030 -0.246851 0.884781 
0.194286 -0.246547 0.883689 
0.195576 -0.246290 0.882768 
0.196927 -0.246114 0.882136 
0.198338 -0.246014 0.881780 
0.199752 -0.245919 0.881440 
0.201141 -0.245797 0.881000 
0.202520 -0.245663 0.880520 
0.203900 -0.245531 0.880049 
0.205285 -0.245408 0.879609 
0.206714 -0.245340 0.879364 
0.208201 -0.245340 0.879364 
0.209687 -0.245340 0.879364 
0.211114 -0.245270 0.879114 
0.212555 -0.245218 0.878925 
0.214014 -0.245188 0.878818 
0.215500 -0.245187 0.878817 
0.216993 -0.245196 0.878846 
0.218545 -0.245270 0.879114 
0.220074 -0.245318 0.879285 
0.221580 -0.245340 0.879364 
0.223067 -0.245340 0.879364 
0.224553 -0.245340 0.879364 
0.226040 -0.245340 0.879364 
0.227547 -0.245362 0.879443 
0.229056 -0.245386 0.879529 
0.230566 -0.245411 0.879617 
0.232055 -0.245413 0.879624 
0.233629 -0.245504 0.879950 
0.235214 -0.245605 0.880314 
0.236809 -0.245717 0.880713 
0.238446 -0.245869 0.881260 
0.240170 -0.246109 0.882121 
0.241906 -0.246358 0.883012 
0.243730 -0.246693 0.884213 
0.245611 -0.247082 0.885607 
0.247640 -0.247614 0.887515 
0.249751 -0.248221 0.889690 
0.251936 -0.248894 0.892101 
0.254113 -0.249550 0.894453 
0.256291 -0.250200 0.896784 
0.258286 -0.250665 0.898451 
0.260127 -0.250976 0.899565 
0.261808 -0.251129 0.900115 
0.263409 -0.251205 0.900385 
0.264931 -0.251205 0.900385 
0.266502 -0.251251 0.900551 
0.268107 -0.251329 0.900830 
0.269825 -0.251511 0.901482 
0.271558 -0.251704 0.902175 
0.273368 -0.251967 0.903115 
0.275101 -0.252156 0.903792 
0.276829 -0.252339 0.904448 
0.278477 -0.252446 0.904835 
0.280150 -0.252575 0.905296 
0.281824 -0.252704 0.905758 
0.283558 -0.252884 0.906405 
0.285329 -0.253096 0.907164 
0.287081 -0.253289 0.907856 
0.288886 -0.253526 0.908704 
0.290722 -0.253788 0.909642 
0.292599 -0.254083 0.910700 
0.294399 -0.254308 0.911507 
0.296194 -0.254526 0.912288 
0.297975 -0.254730 0.913020 
0.299761 -0.254936 0.913759 
0.301573 -0.255162 0.914569 
0.303524 -0.255503 0.915792 
0.305523 -0.255881 0.917144 
0.307577 -0.256300 0.918648 
0.154466 -0.250736 0.904200 
0.155907 -0.250597 0.903695 
0.157347 -0.250457 0.903190 
0.158712 -0.250201 0.902270 
0.160036 -0.249887 0.901135 
0.161393 -0.249629 0.900207 
0.162751 -0.249378 0.899300 
0.164135 -0.249172 0.898558 
0.165500 -0.248940 0.897721 
0.166829 -0.248658 0.896705 
0.168085 -0.248274 0.895320 
0.169344 -0.247902 0.893978 
0.170598 -0.247528 0.892630 
0.171893 -0.247221 0.891523 
0.173260 -0.247021 0.890802 
0.174630 -0.246829 0.890109 
0.176040 -0.246695 0.889627 
0.177448 -0.246562 0.889147 
0.178875 -0.246458 0.888769 
0.180309 -0.246364 0.888432 
0.181811 -0.246364 0.888432 
0.183313 -0.246364 0.888432 
0.184815 -0.246364 0.888432 
0.186317 -0.246364 0.888432 
0.187783 -0.246318 0.888264 
0.189191 -0.246195 0.887824 
0.190554 -0.246017 0.887181 
0.191853 -0.245760 0.886252 
0.193113 -0.245457 0.885160 
0.194349 -0.245129 0.883979 
0.195640 -0.244874 0.883058 
0.196967 -0.244668 0.882317 
0.198358 -0.244544 0.881869 
0.199752 -0.244425 0.881440 
0.201159 -0.244325 0.881080 
0.202540 -0.244194 0.880606 
0.203920 -0.244064 0.880137 
0.205305 -0.243941 0.879694 
0.206733 -0.243872 0.879443 
0.208201 -0.243849 0.879364 
0.209687 -0.243849 0.879364 
0.211134 -0.243803 0.879197 
0.212597 -0.243776 0.879100 
0.214078 -0.243770 0.879078 
0.215567 -0.243774 0.879091 
0.217058 -0.243779 0.879112 
0.218587 -0.243827 0.879285 
0.220094 -0.243849 0.879364 
0.221580 -0.243849 0.879364 
0.223067 -0.243849 0.879364 
0.224553 -0.243849 0.879364 
0.226040 -0.243849 0.879364 
0.227569 -0.243895 0.879529 
0.229083 -0.243923 0.879630 
0.230597 -0.243952 0.879733 
0.232086 -0.243954 0.879740 
0.233659 -0.244043 0.880063 
0.235220 -0.244120 0.880339 
0.236814 -0.244229 0.880731 
0.238450 -0.244380 0.881275 
0.240175 -0.244618 0.882137 
0.241911 -0.244866 0.883030 
0.243781 -0.245246 0.884400 
0.245736 -0.245706 0.886059 
0.247866 -0.246334 0.888323 
0.250059 -0.247017 0.890785 
0.252345 -0.247783 0.893549 
0.254553 -0.248464 0.896003 
0.256709 -0.249086 0.898248 
0.258636 -0.249480 0.899669 
0.260446 -0.249757 0.900666 
0.262052 -0.249836 0.900952 
0.263601 -0.249861 0.901044 
0.265097 -0.249836 0.900951 
0.266640 -0.249854 0.901018 
0.268215 -0.249903 0.901192 
0.269932 -0.250082 0.901839 
0.271639 -0.250249 0.902443 
0.273430 -0.250492 0.903319 
0.275130 -0.250650 0.903889 
0.276801 -0.250780 0.904357 
0.278415 -0.250856 0.904632 
0.280087 -0.250984 0.905092 
0.281765 -0.251116 0.905567 
0.283532 -0.251325 0.906322 
0.285362 -0.251588 0.907270 
0.287145 -0.251806 0.908058 
0.288984 -0.252072 0.909014 
0.290880 -0.252383 0.910137 
0.292788 -0.252702 0.911287 
0.294596 -0.252931 0.912114 
0.296336 -0.253101 0.912725 
0.298050 -0.253246 0.913251 
0.299742 -0.253371 0.913702 
0.301483 -0.253536 0.914296 
0.303337 -0.253795 0.915228 
0.305274 -0.254119 0.916396 
0.307254 -0.254476 0.917684 
0.152771 -0.248933 0.903216 
0.154270 -0.248887 0.903051 
0.155710 -0.248749 0.902551 
0.157158 -0.248627 0.902106 
0.158515 -0.248363 0.901149 
0.159873 -0.248106 0.900215 
0.161246 -0.247878 0.899390 
0.162631 -0.247671 0.898638 
0.164029 -0.247488 0.897974 
0.165377 -0.247234 0.897052 
0.166703 -0.246952 0.896028 
0.167985 -0.246611 0.894791 
0.169263 -0.246269 0.893552 
0.170527 -0.245913 0.892258 
0.171857 -0.245658 0.891336 
0.173241 -0.245484 0.890705 
0.174612 -0.245294 0.890014 
0.176024 -0.245166 0.889550 
0.177448 -0.245055 0.889146 
0.178876 -0.244952 0.888772 
0.180309 -0.244858 0.888432 
0.181811 -0.244858 0.888432 
0.183313 -0.244858 0.888432 
0.184815 -0.244858 0.888432 
0.186317 -0.244858 0.888432 
0.187785 -0.244814 0.888270 
0.189193 -0.244693 0.887833 
0.190558 -0.244518 0.887199 
0.191857 -0.244263 0.886271 
0.193135 -0.243985 0.885264 
0.194390 -0.243682 0.884164 
0.195682 -0.243430 0.883250 
0.197008 -0.243223 0.882501 
0.198397 -0.243097 0.882041 
0.199772 -0.242955 0.881529 
0.201182 -0.242859 0.881180 
0.202568 -0.242734 0.880726 
0.203947 -0.242603 0.880252 
0.205329 -0.242478 0.879798 
0.206753 -0.242404 0.879529 
0.208201 -0.242359 0.879364 
0.209687 -0.242359 0.879364 
0.211154 -0.242335 0.879279 
0.212638 -0.242333 0.879269 
0.214123 -0.242331 0.879264 
0.215611 -0.242333 0.879269 
0.217099 -0.242335 0.879279 
0.218607 -0.242359 0.879364 
0.220094 -0.242359 0.879364 
0.221580 -0.242359 0.879364 
0.223067 -0.242359 0.879364 
0.224553 -0.242359 0.879364 
0.226040 -0.242359 0.879364 
0.227592 -0.242429 0.879617 
0.229130 -0.242482 0.879812 
0.230672 -0.242539 0.880019 
0.232184 -0.242565 0.880111 
0.233777 -0.242674 0.880509 
0.235313 -0.242723 0.880686 
0.236904 -0.242828 0.881067 
0.238542 -0.242979 0.881616 
0.240270 -0.243219 0.882486 
0.242033 -0.243493 0.883478 
0.243950 -0.243915 0.885012 
0.245957 -0.244424 0.886857 
0.248146 -0.245104 0.889326 
0.250403 -0.245844 0.892010 
0.252728 -0.246642 0.894903 
0.254968 -0.247348 0.897465 
0.257079 -0.247920 0.899543 
0.258976 -0.248281 0.900851 
0.260755 -0.248525 0.901738 
0.262333 -0.248576 0.901921 
0.263859 -0.248577 0.901926 
0.265355 -0.248550 0.901828 
0.266871 -0.248542 0.901799 
0.268441 -0.248584 0.901950 
0.270163 -0.248766 0.902610 
0.271850 -0.248913 0.903144 
0.273613 -0.249128 0.903925 
0.275306 -0.249277 0.904467 
0.276941 -0.249373 0.904813 
0.278498 -0.249397 0.904902 
0.280174 -0.249527 0.905374 
0.281885 -0.249687 0.905955 
0.283689 -0.249928 0.906826 
0.285528 -0.250195 0.907797 
0.287344 -0.250440 0.908687 
0.289211 -0.250727 0.909727 
0.152583 -0.247097 0.902104 
0.154068 -0.247032 0.901868 
0.155522 -0.246920 0.901459 
0.156963 -0.246791 0.900987 
0.158350 -0.246578 0.900208 
0.159724 -0.246350 0.899377 
0.161096 -0.246124 0.898552 
0.162494 -0.245941 0.897883 
0.163905 -0.245779 0.897294 
0.165235 -0.245503 0.896285 
0.166576 -0.245246 0.895347 
0.167879 -0.244938 0.894224 
0.169178 -0.244631 0.893101 
0.170446 -0.244284 0.891836 
0.171792 -0.244054 0.890996 
0.173175 -0.243881 0.890362 
0.174557 -0.243709 0.889736 
0.175973 -0.243587 0.889292 
0.177415 -0.243503 0.888984 
0.178860 -0.243425 0.888697 
0.180309 -0.243352 0.888432 
0.181811 -0.243352 0.888432 
0.183313 -0.243352 0.888432 
0.184815 -0.243352 0.888432 
0.186317 -0.243352 0.888432 
0.187783 -0.243306 0.888264 
0.189191 -0.243185 0.887824 
0.190571 -0.243031 0.887261 
0.191871 -0.242779 0.886339 
0.193168 -0.242526 0.885415 
0.194445 -0.242251 0.884413 
0.195740 -0.242003 0.883509 
0.197050 -0.241779 0.882688 
0.198436 -0.241649 0.882216 
0.199811 -0.241508 0.881700 
0.201224 -0.241416 0.881363 
0.202632 -0.241318 0.881006 
0.204033 -0.241214 0.880625 
0.205431 -0.241107 0.880237 
0.206854 -0.241030 0.879957 
0.208300 -0.240983 0.879783 
0.209768 -0.240961 0.879703 
0.211216 -0.240916 0.879538 
0.212680 -0.240890 0.879444 
0.214145 -0.240866 0.879356 
0.215613 -0.240845 0.879279 
0.217101 -0.240846 0.879285 
0.218607 -0.240868 0.879364 
0.220094 -0.240868 0.879364 
0.221580 -0.240868 0.879364 
0.223067 -0.240868 0.879364 
0.224574 -0.240890 0.879443 
0.226083 -0.240913 0.879529 
0.227659 -0.241009 0.879877 
0.229222 -0.241087 0.880164 
0.230787 -0.241168 0.880457 
0.232299 -0.241193 0.880548 
0.233872 -0.241280 0.880866 
0.235407 -0.241327 0.881039 
0.237020 -0.241453 0.881498 
0.238684 -0.241628 0.882138 
0.240440 -0.241894 0.883111 
0.242231 -0.242193 0.884199 
0.244217 -0.242681 0.885983 
0.246304 -0.243263 0.888107 
0.248581 -0.244025 0.890887 
0.250928 -0.244845 0.893883 
0.253313 -0.245693 0.896977 
0.255535 -0.246372 0.899459 
0.257572 -0.246867 0.901266 
0.259387 -0.247145 0.902281 
0.261087 -0.247311 0.902885 
0.262638 -0.247334 0.902970 
0.264145 -0.247315 0.902901 
0.265641 -0.247287 0.902798 
0.267157 -0.247278 0.902766 
0.268732 -0.247323 0.902930 
0.270481 -0.247526 0.903672 
0.272175 -0.247678 0.904225 
0.273886 -0.247843 0.904827 
0.275544 -0.247958 0.905248 
0.277168 -0.248042 0.905556 
0.278704 -0.248047 0.905572 
0.280412 -0.248203 0.906143 
0.282213 -0.248441 0.907009 
0.284049 -0.248705 0.907976 
0.285920 -0.248998 0.909043 
0.287762 -0.249262 0.910010 
0.289636 -0.249551 0.911064 
0.150972 -0.245428 0.901592 
0.152467 -0.245381 0.901419 
0.153947 -0.245312 0.901165 
0.155392 -0.245188 0.900709 
0.156828 -0.245052 0.900208 
0.158229 -0.244865 0.899521 
0.159618 -0.244663 0.898779 
0.160976 -0.244418 0.897882 
0.162389 -0.244260 0.897301 
0.163797 -0.244099 0.896707 
0.165116 -0.243807 0.895636 
0.166459 -0.243557 0.894718 
0.167795 -0.243300 0.893775 
0.169113 -0.243023 0.892757 
0.170382 -0.242682 0.891503 
0.171741 -0.242472 0.890733 
0.173149 -0.242335 0.890230 
0.174551 -0.242192 0.889704 
0.175970 -0.242076 0.889275 
0.177432 -0.242019 0.889067 
0.178909 -0.241984 0.888941 
0.180343 -0.241892 0.888601 
0.181813 -0.241849 0.888441 
0.183296 -0.241824 0.888352 
0.184795 -0.241820 0.888337 
0.186280 -0.241798 0.888255 
0.187729 -0.241730 0.888007 
0.189152 -0.241631 0.887641 
0.190529 -0.241473 0.887063 
0.191830 -0.241224 0.886146 
0.193126 -0.240972 0.885223 
0.194444 -0.240751 0.884410 
0.195744 -0.240511 0.883526 
0.197075 -0.240313 0.882801 
0.198459 -0.240181 0.882317 
0.199849 -0.240059 0.881869 
0.201263 -0.239968 0.881534 
0.202694 -0.239898 0.881275 
0.204118 -0.239821 0.880991 
0.205538 -0.239739 0.880692 
0.206962 -0.239664 0.880418 
0.208409 -0.239617 0.880244 
0.209858 -0.239572 0.880079 
0.211302 -0.239523 0.879898 
0.212764 -0.239493 0.879789 
0.214228 -0.239467 0.879694 
0.215677 -0.239425 0.879538 
0.217163 -0.239425 0.879538 
0.218668 -0.239444 0.879609 
0.220155 -0.239444 0.879609 
0.221644 -0.239446 0.879617 
0.223153 -0.239470 0.879703 
0.224682 -0.239515 0.879868 
0.226194 -0.239541 0.879963 
0.227773 -0.239637 0.880317 
0.229358 -0.239738 0.880687 
0.230925 -0.239819 0.880985 
0.232463 -0.239869 0.881169 
0.234038 -0.239956 0.881490 
0.235618 -0.240048 0.881827 
0.237279 -0.240221 0.882461 
0.239017 -0.240468 0.883371 
0.240832 -0.240789 0.884550 
0.242673 -0.241133 0.885812 
0.244714 -0.241670 0.887786 
0.246835 -0.242279 0.890021 
0.249127 -0.243047 0.892844 
0.251488 -0.243873 0.895877 
0.253900 -0.244737 0.899054 
0.256046 -0.245338 0.901259 
0.258001 -0.245749 0.902769 
0.259809 -0.246015 0.903747 
0.261507 -0.246176 0.904338 
0.263044 -0.246183 0.904364 
0.264553 -0.246165 0.904298 
0.266076 -0.246159 0.904278 
0.267569 -0.246126 0.904155 
0.269123 -0.246149 0.904241 
0.270829 -0.246311 0.904835 
0.272523 -0.246459 0.905379 
0.274200 -0.246592 0.905865 
0.275861 -0.246707 0.906289 
0.277489 -0.246793 0.906604 
0.279087 -0.246850 0.906816 
0.280830 -0.247035 0.907493 
0.282662 -0.247295 0.908450 
0.284500 -0.247559 0.909418 
0.286343 -0.247823 0.910390 
0.288161 -0.248063 0.911271 
0.149412 -0.243842 0.901376 
0.150905 -0.243792 0.901194 
0.152388 -0.243728 0.900955 
0.153851 -0.243631 0.900599 
0.155292 -0.243505 0.900131 
0.156729 -0.243372 0.899640 
0.158144 -0.243210 0.899040 
0.159533 -0.243010 0.898302 
0.160891 -0.242768 0.897407 
0.162303 -0.242611 0.896827 
0.163714 -0.242455 0.896249 
0.165049 -0.242190 0.895272 
0.166424 -0.241990 0.894530 
0.167777 -0.241760 0.893683 
0.169111 -0.241508 0.892750 
0.170393 -0.241186 0.891559 
0.171736 -0.240955 0.890707 
0.173111 -0.240773 0.890033 
0.174512 -0.240630 0.889505 
0.175932 -0.240516 0.889082 
0.177399 -0.240467 0.888903 
0.178896 -0.240459 0.888873 
0.180346 -0.240390 0.888616 
0.181798 -0.240322 0.888366 
0.183260 -0.240271 0.888178 
0.184738 -0.240240 0.888064 
0.186203 -0.240193 0.887890 
0.187634 -0.240104 0.887560 
0.189075 -0.240029 0.887281 
0.190453 -0.239874 0.886710 
0.191772 -0.239649 0.885878 
0.193088 -0.239425 0.885049 
0.194443 -0.239251 0.884406 
0.195764 -0.239038 0.883618 
0.197135 -0.238889 0.883068 
0.198538 -0.238780 0.882667 
0.199946 -0.238680 0.882296 
0.201378 -0.238609 0.882035 
0.202812 -0.238543 0.881790 
0.204241 -0.238471 0.881523 
0.205667 -0.238396 0.881246 
0.207094 -0.238324 0.880979 
0.208525 -0.238257 0.880734 
0.209954 -0.238189 0.880480 
0.211394 -0.238134 0.880279 
0.212850 -0.238099 0.880149 
0.214315 -0.238073 0.880052 
0.215765 -0.238031 0.879898 
0.217272 -0.238053 0.879978 
0.218777 -0.238072 0.880049 
0.220265 -0.238072 0.880049 
0.221757 -0.238076 0.880063 
0.223268 -0.238102 0.880158 
0.224821 -0.238170 0.880412 
0.226357 -0.238221 0.880598 
0.227941 -0.238320 0.880966 
0.229528 -0.238421 0.881339 
0.231091 -0.238497 0.881619 
0.232672 -0.238590 0.881964 
0.234276 -0.238705 0.882387 
0.235933 -0.238872 0.883006 
0.237693 -0.239142 0.884002 
0.239513 -0.239466 0.885203 
0.241363 -0.239818 0.886502 
0.243235 -0.240187 0.887866 
0.245306 -0.240746 0.889933 
0.247433 -0.241353 0.892176 
0.249715 -0.242103 0.894948 
0.252027 -0.242873 0.897796 
0.254406 -0.243698 0.900846 
0.256470 -0.244214 0.902752 
0.258370 -0.244568 0.904060 
0.260204 -0.244855 0.905122 
0.261938 -0.245045 0.905826 
0.263509 -0.245083 0.905964 
0.265074 -0.245114 0.906078 
0.266650 -0.245154 0.906226 
0.268095 -0.245075 0.905934 
0.269676 -0.245119 0.906099 
0.149424 -0.242333 0.901447 
0.150876 -0.242218 0.901021 
0.152327 -0.242103 0.900591 
0.153754 -0.241953 0.900033 
0.155184 -0.241810 0.899502 
0.156620 -0.241679 0.899015 
0.158022 -0.241500 0.898348 
0.159424 -0.241323 0.897691 
0.160796 -0.241104 0.896876 
0.162209 -0.240950 0.896305 
0.163619 -0.240796 0.895729 
0.164983 -0.240578 0.894918 
0.166376 -0.240403 0.894269 
0.167729 -0.240176 0.893425 
0.169077 -0.239946 0.892570 
0.170375 -0.239649 0.891462 
0.171718 -0.239420 0.890613 
0.173093 -0.239240 0.889944 
0.174527 -0.239143 0.889582 
0.175966 -0.239055 0.889255 
0.177435 -0.239009 0.889083 
0.178949 -0.239023 0.889135 
0.180400 -0.238954 0.888880 
0.181817 -0.238842 0.888462 
0.183240 -0.238739 0.888079 
0.184693 -0.238676 0.887844 
0.186119 -0.238581 0.887490 
0.187535 -0.238473 0.887090 
0.188996 -0.238424 0.886907 
0.190376 -0.238275 0.886354 
0.191714 -0.238076 0.885612 
0.193066 -0.237897 0.884946 
0.194460 -0.237772 0.884481 
0.195803 -0.237588 0.883796 
0.197214 -0.237488 0.883425 
0.198638 -0.237405 0.883116 
0.200049 -0.237307 0.882753 
0.201483 -0.237239 0.882498 
0.202919 -0.237173 0.882253 
0.204367 -0.237122 0.882065 
0.205813 -0.237071 0.881874 
0.207262 -0.237023 0.881696 
0.208696 -0.236959 0.881456 
0.210123 -0.236887 0.881190 
0.211542 -0.236808 0.880897 
0.212979 -0.236750 0.880681 
0.214427 -0.236705 0.880511 
0.215881 -0.236667 0.880372 
0.217390 -0.236690 0.880457 
0.218895 -0.236707 0.880520 
0.220383 -0.236707 0.880520 
0.221898 -0.236735 0.880625 
0.223434 -0.236785 0.880812 
0.225012 -0.236879 0.881160 
0.226573 -0.236953 0.881437 
0.228177 -0.237072 0.881877 
0.229785 -0.237193 0.882329 
0.231372 -0.237290 0.882690 
0.233025 -0.237454 0.883300 
0.234681 -0.237619 0.883913 
0.236421 -0.237866 0.884831 
0.238263 -0.238212 0.886119 
0.240144 -0.238593 0.887536 
0.242028 -0.238972 0.888946 
0.243953 -0.239386 0.890486 
0.246007 -0.239921 0.892476 
0.248089 -0.240476 0.894542 
0.250316 -0.241165 0.897103 
0.252547 -0.241849 0.899649 
0.254803 -0.242549 0.902251 
0.256811 -0.243006 0.903952 
0.258715 -0.243359 0.905265 
0.260608 -0.243698 0.906526 
0.262363 -0.243905 0.907297 
0.264026 -0.244024 0.907740 
0.265646 -0.244103 0.908034 
0.267222 -0.244141 0.908173 
0.268641 -0.244035 0.907778 
0.270224 -0.244079 0.907942 
0.274055 -0.247693 0.915612 
0.148058 -0.241062 0.902411 
0.149480 -0.240896 0.901789 
0.150879 -0.240694 0.901034 
0.152306 -0.240543 0.900469 
0.153706 -0.240352 0.899753 
0.155133 -0.240207 0.899209 
0.156570 -0.240079 0.898729 
0.157974 -0.239903 0.898072 
0.159376 -0.239728 0.897418 
0.160760 -0.239531 0.896678 
0.162156 -0.239353 0.896013 
0.163551 -0.239179 0.895360 
0.164931 -0.238984 0.894632 
0.166338 -0.238833 0.894068 
0.167679 -0.238590 0.893157 
0.169044 -0.238386 0.892394 
0.170375 -0.238137 0.891462 
0.171721 -0.237914 0.890627 
0.173101 -0.237742 0.889981 
0.174564 -0.237686 0.889773 
0.176019 -0.237619 0.889522 
0.177489 -0.237574 0.889354 
0.179023 -0.237615 0.889505 
0.180474 -0.237545 0.889244 
0.181853 -0.237383 0.888638 
0.183238 -0.237231 0.888069 
0.184650 -0.237117 0.887642 
0.186038 -0.236972 0.887101 
0.187450 -0.236863 0.886690 
0.188931 -0.236839 0.886603 
0.190334 -0.236720 0.886156 
0.191710 -0.236570 0.885594 
0.193101 -0.236440 0.885107 
0.194516 -0.236341 0.884737 
0.195900 -0.236206 0.884233 
0.197353 -0.236156 0.884046 
0.198803 -0.236103 0.883848 
0.200218 -0.236010 0.883499 
0.201673 -0.235964 0.883327 
0.203107 -0.235895 0.883069 
0.204555 -0.235844 0.882876 
0.206000 -0.235790 0.882674 
0.207468 -0.235763 0.882572 
0.208902 -0.235697 0.882326 
0.210312 -0.235605 0.881983 
0.211712 -0.235504 0.881604 
0.213149 -0.235445 0.881384 
0.214601 -0.235403 0.881226 
0.216039 -0.235347 0.881015 
0.217570 -0.235392 0.881184 
0.219096 -0.235431 0.881332 
0.220587 -0.235432 0.881335 
0.222104 -0.235461 0.881441 
0.223662 -0.235533 0.881712 
0.225264 -0.235649 0.882147 
0.226850 -0.235747 0.882515 
0.228483 -0.235893 0.883060 
0.230117 -0.236037 0.883601 
0.231750 -0.236179 0.884131 
0.233454 -0.236392 0.884927 
0.235171 -0.236614 0.885759 
0.236993 -0.236939 0.886975 
0.238915 -0.237358 0.888544 
0.240848 -0.237784 0.890138 
0.242761 -0.238184 0.891638 
0.244716 -0.238621 0.893272 
0.246750 -0.239128 0.895171 
0.248760 -0.239607 0.896963 
0.250905 -0.240209 0.899216 
0.253035 -0.240788 0.901386 
0.255186 -0.241382 0.903609 
0.257127 -0.241771 0.905065 
0.259087 -0.242172 0.906567 
0.261026 -0.242550 0.907982 
0.262827 -0.242796 0.908900 
0.264522 -0.242942 0.909448 
0.266169 -0.243041 0.909820 
0.267724 -0.243057 0.909878 
0.269097 -0.242908 0.909321 
0.270678 -0.242947 0.909468 
0.146797 -0.239966 0.904043 
0.148182 -0.239733 0.903168 
0.149559 -0.239493 0.902263 
0.150920 -0.239233 0.901283 
0.152308 -0.239019 0.900477 
0.153688 -0.238799 0.899646 
0.155095 -0.238624 0.898987 
0.156531 -0.238496 0.898507 
0.157923 -0.238304 0.897784 
0.159340 -0.238154 0.897216 
0.160738 -0.237977 0.896551 
0.162133 -0.237801 0.895889 
0.163513 -0.237606 0.895153 
0.164906 -0.237432 0.894497 
0.166314 -0.237283 0.893936 
0.167658 -0.237046 0.893045 
0.169027 -0.236849 0.892303 
0.170391 -0.236649 0.891549 
0.171756 -0.236453 0.890811 
0.173156 -0.236308 0.890264 
0.174638 -0.236277 0.890148 
0.176112 -0.236236 0.889993 
0.177584 -0.236192 0.889827 
0.179102 -0.236211 0.889897 
0.180533 -0.236115 0.889537 
0.181894 -0.235930 0.888838 
0.183240 -0.235729 0.888081 
0.184615 -0.235567 0.887470 
0.185980 -0.235396 0.886828 
0.187390 -0.235284 0.886405 
0.188872 -0.235262 0.886324 
0.190294 -0.235169 0.885973 
0.191710 -0.235068 0.885593 
0.193141 -0.234988 0.885292 
0.194579 -0.234918 0.885025 
0.196006 -0.234834 0.884712 
0.197499 -0.234831 0.884699 
0.198972 -0.234804 0.884598 
0.200408 -0.234735 0.884337 
0.201883 -0.234711 0.884247 
0.203316 -0.234640 0.883981 
0.204765 -0.234588 0.883783 
0.206230 -0.234555 0.883658 
0.207723 -0.234554 0.883654 
0.209159 -0.234490 0.883413 
0.210590 -0.234420 0.883150 
0.212008 -0.234337 0.882837 
0.213429 -0.234258 0.882541 
0.214860 -0.234191 0.882290 
0.216297 -0.234132 0.882067 
0.217829 -0.234176 0.882233 
0.219360 -0.234218 0.882391 
0.220875 -0.234243 0.882485 
0.222415 -0.234295 0.882678 
0.224018 -0.234410 0.883112 
0.225626 -0.234530 0.883565 
0.227218 -0.234631 0.883946 
0.228877 -0.234800 0.884581 
0.230538 -0.234969 0.885218 
0.232184 -0.235121 0.885790 
0.233921 -0.235361 0.886696 
0.235712 -0.235653 0.887795 
0.237587 -0.236025 0.889197 
0.239541 -0.236470 0.890874 
0.241500 -0.236915 0.892549 
0.243437 -0.237331 0.894119 
0.245397 -0.237766 0.895757 
0.247346 -0.238184 0.897332 
0.249261 -0.238566 0.898770 
0.251298 -0.239058 0.900624 
0.265078 -0.241907 0.911356 
0.266722 -0.242001 0.911711 
0.268252 -0.241990 0.911671 
0.269601 -0.241819 0.911024 
0.146940 -0.238665 0.904922 
0.148296 -0.238386 0.903863 
0.149645 -0.238101 0.902784 
0.150978 -0.237797 0.901630 
0.152325 -0.237520 0.900582 
0.153672 -0.237248 0.899550 
0.155060 -0.237046 0.898784 
0.156496 -0.236919 0.898304 
0.157874 -0.236709 0.897507 
0.159292 -0.236561 0.896946 
0.160703 -0.236406 0.896359 
0.162099 -0.236232 0.895699 
0.163465 -0.236018 0.894887 
0.164873 -0.235868 0.894316 
0.166294 -0.235740 0.893833 
0.167639 -0.235507 0.892947 
0.169010 -0.235314 0.892215 
0.170407 -0.235159 0.891630 
0.171806 -0.235012 0.891070 
0.173211 -0.234875 0.890550 
0.174699 -0.234850 0.890458 
0.176187 -0.234828 0.890373 
0.177659 -0.234784 0.890207 
0.179146 -0.234760 0.890116 
0.180578 -0.234665 0.889756 
0.181951 -0.234496 0.889115 
0.183279 -0.234272 0.888267 
0.184619 -0.234068 0.887491 
0.185965 -0.233874 0.886756 
0.187371 -0.233758 0.886316 
0.188834 -0.233713 0.886148 
0.190277 -0.233646 0.885892 
0.191733 -0.233595 0.885697 
0.193222 -0.233585 0.885661 
0.194703 -0.233566 0.885589 
0.196169 -0.233529 0.885447 
0.197685 -0.233551 0.885531 
0.199196 -0.233567 0.885594 
0.200653 -0.233521 0.885418 
0.202149 -0.233520 0.885415 
0.203604 -0.233472 0.885234 
0.205077 -0.233445 0.885131 
0.206548 -0.233416 0.885022 
0.208045 -0.233417 0.885025 
0.209486 -0.233356 0.884794 
0.210940 -0.233310 0.884616 
0.212382 -0.233251 0.884395 
0.213784 -0.233149 0.884008 
0.215192 -0.233056 0.883654 
0.216625 -0.232990 0.883406 
0.218156 -0.233031 0.883559 
0.219673 -0.233055 0.883650 
0.221217 -0.233108 0.883854 
0.222782 -0.233183 0.884135 
0.224388 -0.233298 0.884573 
0.225977 -0.233395 0.884939 
0.227593 -0.233517 0.885405 
0.229280 -0.233712 0.886141 
0.230971 -0.233907 0.886881 
0.232646 -0.234084 0.887552 
0.234429 -0.234366 0.888622 
0.236271 -0.234704 0.889903 
0.238152 -0.235075 0.891312 
0.240111 -0.235519 0.892994 
0.242072 -0.235958 0.894659 
0.243965 -0.236327 0.896059 
0.245883 -0.236716 0.897531 
0.247764 -0.237064 0.898850 
0.249605 -0.237370 0.900011 
0.145653 -0.237527 0.906435 
0.147073 -0.237346 0.905742 
0.148413 -0.237041 0.904577 
0.149739 -0.236719 0.903352 
0.151044 -0.236371 0.902023 
0.152374 -0.236068 0.900867 
0.153688 -0.235749 0.899647 
0.155059 -0.235521 0.898778 
0.156480 -0.235373 0.898212 
0.157859 -0.235165 0.897418 
0.159277 -0.235019 0.896864 
0.160703 -0.234887 0.896359 
0.162101 -0.234716 0.895708 
0.163453 -0.234484 0.894820 
0.164861 -0.234335 0.894254 
0.166280 -0.234205 0.893757 
0.167640 -0.233993 0.892949 
0.169027 -0.233824 0.892302 
0.170456 -0.233716 0.891890 
0.171891 -0.233617 0.891512 
0.173315 -0.233505 0.891086 
0.174805 -0.233483 0.891000 
0.176293 -0.233458 0.890907 
0.177765 -0.233413 0.890735 
0.179233 -0.233365 0.890550 
0.180649 -0.233249 0.890109 
0.182021 -0.233079 0.889459 
0.183352 -0.232859 0.888619 
0.184694 -0.232658 0.887853 
0.186041 -0.232465 0.887115 
0.187463 -0.232369 0.886750 
0.188907 -0.232302 0.886492 
0.190351 -0.232235 0.886238 
0.191827 -0.232208 0.886134 
0.193341 -0.232227 0.886207 
0.194846 -0.232235 0.886237 
0.196351 -0.232243 0.886270 
0.197886 -0.232286 0.886434 
0.199382 -0.232283 0.886420 
0.200841 -0.232237 0.886247 
0.202340 -0.232238 0.886249 
0.203821 -0.232219 0.886177 
0.205319 -0.232218 0.886173 
0.206835 -0.232238 0.886249 
0.208355 -0.232263 0.886344 
0.209821 -0.232227 0.886209 
0.211298 -0.232203 0.886117 
0.212745 -0.232148 0.885907 
0.214152 -0.232049 0.885529 
0.215559 -0.231953 0.885162 
0.216965 -0.231856 0.884793 
0.218476 -0.231872 0.884852 
0.219996 -0.231898 0.884952 
0.221548 -0.231956 0.885175 
0.223118 -0.232033 0.885468 
0.224768 -0.232190 0.886068 
0.226359 -0.232286 0.886433 
0.227979 -0.232410 0.886907 
0.229687 -0.232621 0.887713 
0.231425 -0.232860 0.888625 
0.233128 -0.233061 0.889390 
0.234938 -0.233365 0.890552 
0.236824 -0.233741 0.891985 
0.238707 -0.234109 0.893389 
0.240630 -0.234511 0.894922 
0.242571 -0.234925 0.896504 
0.244439 -0.235264 0.897799 
0.246332 -0.235623 0.899168 
0.144401 -0.236450 0.908197 
0.145757 -0.236159 0.907080 
0.147165 -0.235957 0.906305 
0.148510 -0.235660 0.905164 
0.149832 -0.235334 0.903911 
0.151124 -0.234966 0.902497 
0.152452 -0.234662 0.901331 
0.153750 -0.234319 0.900012 
0.155093 -0.234048 0.898972 
0.156497 -0.233876 0.898311 
0.157890 -0.233690 0.897596 
0.159309 -0.233546 0.897044 
0.160738 -0.233418 0.896551 
0.162151 -0.233270 0.895986 
0.163503 -0.233039 0.895095 
0.164895 -0.232868 0.894439 
0.166299 -0.232716 0.893854 
0.167673 -0.232526 0.893125 
0.169062 -0.232360 0.892488 
0.170511 -0.232279 0.892178 
0.171982 -0.232228 0.891981 
0.173424 -0.232140 0.891645 
0.174899 -0.232097 0.891480 
0.176366 -0.232044 0.891276 
0.177833 -0.231992 0.891076 
0.179268 -0.231900 0.890722 
0.180685 -0.231786 0.890285 
0.182078 -0.231643 0.889735 
0.183426 -0.231446 0.888979 
0.184772 -0.231251 0.888228 
0.186138 -0.231081 0.887578 
0.187562 -0.230988 0.887218 
0.189006 -0.230919 0.886954 
0.190467 -0.230873 0.886778 
0.191962 -0.230868 0.886757 
0.193480 -0.230890 0.886844 
0.195005 -0.230921 0.886962 
0.196533 -0.230955 0.887091 
0.198070 -0.230998 0.887258 
0.199565 -0.230992 0.887235 
0.201045 -0.230969 0.887145 
0.202548 -0.230972 0.887159 
0.204053 -0.230979 0.887183 
0.205556 -0.230983 0.887198 
0.207077 -0.231006 0.887289 
0.208618 -0.231051 0.887461 
0.210123 -0.231056 0.887482 
0.211626 -0.231059 0.887492 
0.213103 -0.231035 0.887398 
0.214554 -0.230981 0.887192 
0.215984 -0.230906 0.886904 
0.217372 -0.230788 0.886452 
0.218883 -0.230801 0.886501 
0.220424 -0.230846 0.886673 
0.221980 -0.230905 0.886899 
0.223534 -0.230962 0.887119 
0.225207 -0.231139 0.887799 
0.226800 -0.231233 0.888161 
0.228422 -0.231356 0.888631 
0.230134 -0.231567 0.889442 
0.231900 -0.231829 0.890448 
0.144430 -0.234957 0.908377 
0.145813 -0.234711 0.907429 
0.147221 -0.234510 0.906650 
0.148553 -0.234193 0.905426 
0.149866 -0.233854 0.904112 
0.151157 -0.233488 0.902699 
0.152488 -0.233189 0.901542 
0.153772 -0.232826 0.900138 
0.155114 -0.232557 0.899099 
0.156515 -0.232380 0.898415 
0.157922 -0.232215 0.897779 
0.159329 -0.232054 0.897154 
0.160760 -0.231931 0.896678 
0.162187 -0.231803 0.896184 
0.163538 -0.231570 0.895285 
0.164913 -0.231377 0.894537 
0.166315 -0.231223 0.893943 
0.167705 -0.231056 0.893298 
0.169098 -0.230897 0.892681 
0.170571 -0.230847 0.892488 
0.172061 -0.230822 0.892390 
0.173520 -0.230757 0.892140 
0.174992 -0.230709 0.891954 
0.176441 -0.230631 0.891654 
0.177888 -0.230553 0.891352 
0.179305 -0.230437 0.890904 
0.180721 -0.230323 0.890463 
0.182133 -0.230205 0.890005 
0.183503 -0.230036 0.889354 
0.184871 -0.229867 0.888701 
0.186274 -0.229745 0.888227 
0.187701 -0.229654 0.887875 
0.189130 -0.229567 0.887539 
0.190608 -0.229540 0.887435 
0.192102 -0.229532 0.887403 
0.193603 -0.229533 0.887409 
0.195130 -0.229565 0.887531 
0.196656 -0.229595 0.887647 
0.198177 -0.229618 0.887737 
0.199674 -0.229613 0.887719 
0.201172 -0.229610 0.887707 
0.202673 -0.229611 0.887708 
0.204218 -0.229660 0.887900 
0.205762 -0.229708 0.888086 
0.207324 -0.229776 0.888346 
0.208887 -0.229843 0.888608 
0.210434 -0.229892 0.888795 
0.211961 -0.229918 0.888897 
0.213483 -0.229939 0.888979 
0.214965 -0.229916 0.888891 
0.216404 -0.229849 0.888631 
0.217817 -0.229755 0.888268 
0.219310 -0.229746 0.888232 
0.220831 -0.229766 0.888310 
0.222387 -0.229822 0.888526 
0.223984 -0.229919 0.888903 
0.225684 -0.230121 0.889682 
0.227285 -0.230219 0.890059 
0.228891 -0.230321 0.890454 
0.142976 -0.233551 0.908899 
0.144438 -0.233429 0.908426 
0.145823 -0.233189 0.907490 
0.147209 -0.232955 0.906578 
0.148538 -0.232635 0.905336 
0.149851 -0.232298 0.904025 
0.151145 -0.231938 0.902622 
0.152476 -0.231642 0.901470 
0.153774 -0.231303 0.900150 
0.155117 -0.231036 0.899111 
0.156517 -0.230859 0.898425 
0.157939 -0.230718 0.897874 
0.159347 -0.230559 0.897255 
0.160780 -0.230439 0.896787 
0.162207 -0.230312 0.896296 
0.163555 -0.230077 0.895379 
0.164914 -0.229861 0.894539 
0.166315 -0.229708 0.893943 
0.167722 -0.229565 0.893386 
0.169133 -0.229431 0.892866 
0.170626 -0.229408 0.892775 
0.172118 -0.229385 0.892687 
0.173594 -0.229342 0.892518 
0.175050 -0.229272 0.892249 
0.176499 -0.229196 0.891949 
0.177928 -0.229094 0.891554 
0.179359 -0.228997 0.891176 
0.180776 -0.228884 0.890735 
0.182207 -0.228789 0.890367 
0.183600 -0.228649 0.889823 
0.185003 -0.228525 0.889339 
0.186428 -0.228428 0.888964 
0.187858 -0.228340 0.888618 
0.189288 -0.228253 0.888281 
0.190749 -0.228204 0.888089 
0.192244 -0.228196 0.888059 
0.193727 -0.228175 0.887977 
0.195251 -0.228202 0.888081 
0.196775 -0.228228 0.888184 
0.198295 -0.228249 0.888265 
0.199775 -0.228224 0.888169 
0.201293 -0.228242 0.888240 
0.202815 -0.228266 0.888331 
0.204379 -0.228335 0.888601 
0.205945 -0.228406 0.888876 
0.207510 -0.228475 0.889146 
0.209077 -0.228544 0.889414 
0.210665 -0.228637 0.889774 
0.212240 -0.228712 0.890068 
0.213812 -0.228784 0.890347 
0.215381 -0.228852 0.890612 
0.216885 -0.228851 0.890608 
0.218329 -0.228786 0.890355 
