1642
0.142996 -0.085970 0.797591 
0.144463 -0.086041 0.798246 
0.145927 -0.086109 0.798878 
0.147391 -0.086175 0.799492 
0.148877 -0.086253 0.800212 
0.150298 -0.086292 0.800575 
0.151723 -0.086333 0.800954 
0.153109 -0.086351 0.801124 
0.154558 -0.086404 0.801615 
0.156052 -0.086480 0.802326 
0.157573 -0.086571 0.803168 
0.159133 -0.086681 0.804189 
0.160708 -0.086797 0.805265 
0.162264 -0.086902 0.806234 
0.163779 -0.086983 0.806984 
0.165297 -0.087063 0.807734 
0.166820 -0.087146 0.808501 
0.168388 -0.087250 0.809467 
0.169963 -0.087356 0.810451 
0.171529 -0.087456 0.811379 
0.173146 -0.087580 0.812527 
0.174691 -0.089045 0.813329 
0.174735 -0.087688 0.813533 
-0.069066 -0.110230 1.022662 
-0.069128 -0.108593 1.023572 
-0.067216 -0.108300 1.020810 
-0.065334 -0.108042 1.018380 
-0.063427 -0.107727 1.015412 
-0.061542 -0.107433 1.012637 
-0.059699 -0.107198 1.010424 
-0.057869 -0.106973 1.008308 
-0.056052 -0.106759 1.006284 
-0.044680 -0.100324 0.945631 
-0.043015 -0.100169 0.944167 
-0.041347 -0.099994 0.942519 
-0.039649 -0.099732 0.940047 
-0.037939 -0.099415 0.937066 
-0.036244 -0.099112 0.934206 
-0.034544 -0.098765 0.930941 
-0.032848 -0.098401 0.927506 
-0.031161 -0.098025 0.923962 
-0.029509 -0.097728 0.921166 
-0.027877 -0.097466 0.918689 
-0.026255 -0.097211 0.916285 
-0.024651 -0.096995 0.914253 
-0.023065 -0.096827 0.912675 
-0.021478 -0.096626 0.910778 
-0.019904 -0.096463 0.909241 
-0.018338 -0.096310 0.907798 
-0.016774 -0.096141 0.906202 
-0.015210 -0.095942 0.904328 
-0.013655 -0.095758 0.902589 
-0.012102 -0.095546 0.900592 
-0.010558 -0.095346 0.898707 
-0.009020 -0.095150 0.896862 
-0.007490 -0.094972 0.895184 
-0.005965 -0.094785 0.893424 
-0.004446 -0.094616 0.891831 
-0.002933 -0.094451 0.890271 
-0.001426 -0.094286 0.888723 
0.000076 -0.094132 0.887272 
0.001574 -0.093985 0.885886 
0.003067 -0.093848 0.884591 
0.004556 -0.093706 0.883251 
0.006041 -0.093582 0.882080 
0.007522 -0.093458 0.880913 
0.008998 -0.093324 0.879649 
0.010472 -0.093207 0.878551 
0.011942 -0.093084 0.877386 
0.013409 -0.092971 0.876323 
0.014873 -0.092867 0.875342 
0.016340 -0.092789 0.874609 
0.017800 -0.092696 0.873733 
0.019264 -0.092631 0.873118 
0.020727 -0.092575 0.872589 
0.022191 -0.092529 0.872158 
0.023652 -0.092475 0.871649 
0.025108 -0.092411 0.871048 
0.026562 -0.092344 0.870416 
0.028007 -0.092259 0.869615 
0.029450 -0.092173 0.868802 
0.030885 -0.092072 0.867847 
0.032322 -0.091986 0.867038 
0.033757 -0.091902 0.866247 
0.035186 -0.091811 0.865390 
0.036613 -0.091720 0.864533 
0.038040 -0.091638 0.863756 
0.039457 -0.091538 0.862819 
0.040860 -0.091413 0.861635 
0.042257 -0.091284 0.860425 
0.043645 -0.091145 0.859114 
0.045029 -0.091007 0.857810 
0.046406 -0.090864 0.856460 
0.047778 -0.090720 0.855104 
0.049154 -0.090590 0.853885 
0.050530 -0.090470 0.852749 
0.051905 -0.090354 0.851661 
0.053283 -0.090249 0.850664 
0.054662 -0.090152 0.849750 
0.056037 -0.090054 0.848826 
0.057389 -0.089923 0.847597 
0.058742 -0.089800 0.846439 
0.060073 -0.089652 0.845043 
0.061399 -0.089503 0.843633 
0.062691 -0.089312 0.841832 
0.063994 -0.089143 0.840244 
0.065273 -0.088951 0.838436 
0.066560 -0.088777 0.836794 
0.067860 -0.088627 0.835381 
0.069189 -0.088520 0.834373 
0.070519 -0.088419 0.833420 
0.071866 -0.088344 0.832712 
0.073224 -0.088284 0.832144 
0.074559 -0.088199 0.831343 
0.075891 -0.088113 0.830537 
0.077205 -0.088011 0.829569 
0.078516 -0.087908 0.828603 
0.079831 -0.087814 0.827714 
0.081160 -0.087738 0.827002 
0.082475 -0.087650 0.826167 
0.083815 -0.087591 0.825613 
0.085167 -0.087546 0.825188 
0.086521 -0.087504 0.824795 
0.087892 -0.087480 0.824571 
0.089286 -0.087480 0.824571 
0.090639 -0.087441 0.824204 
0.091775 -0.087196 0.821894 
0.092676 -0.086739 0.817584 
0.093017 -0.083330 0.785455 
0.093341 -0.082444 0.777096 
0.093918 -0.081802 0.771045 
0.095195 -0.081779 0.770832 
0.096481 -0.081765 0.770698 
0.097785 -0.081766 0.770704 
0.099097 -0.081773 0.770777 
0.100434 -0.081801 0.771037 
0.101782 -0.081837 0.771374 
0.103151 -0.081888 0.771863 
0.104543 -0.081956 0.772502 
0.105963 -0.082045 0.773339 
0.107425 -0.082163 0.774451 
0.108885 -0.082277 0.775526 
0.110331 -0.082378 0.776474 
0.111783 -0.082481 0.777445 
0.113217 -0.082568 0.778264 
0.114616 -0.082628 0.778836 
0.116038 -0.082703 0.779540 
0.117493 -0.082799 0.780449 
0.118954 -0.082898 0.781381 
0.120483 -0.083042 0.782734 
0.122020 -0.083188 0.784108 
0.123565 -0.083336 0.785504 
0.125100 -0.083474 0.786804 
0.126636 -0.083610 0.788088 
0.128133 -0.083717 0.789102 
0.129647 -0.083833 0.790196 
0.131153 -0.083943 0.791225 
0.132651 -0.084044 0.792178 
0.134137 -0.084136 0.793048 
0.135602 -0.084213 0.793775 
0.137092 -0.084304 0.794634 
0.138590 -0.084399 0.795523 
0.140069 -0.084480 0.796287 
0.141525 -0.084545 0.796904 
0.143023 -0.084634 0.797745 
0.144478 -0.084697 0.798334 
0.145953 -0.084770 0.799020 
0.147417 -0.084835 0.799635 
0.148915 -0.084918 0.800419 
0.150339 -0.084958 0.800796 
0.151776 -0.085005 0.801237 
0.153163 -0.085023 0.801404 
0.154627 -0.085083 0.801972 
0.156140 -0.085169 0.802782 
0.157696 -0.085276 0.803793 
0.159275 -0.085394 0.804903 
0.160861 -0.085514 0.806035 
0.162401 -0.085607 0.806914 
0.163899 -0.085677 0.807574 
0.165402 -0.085749 0.808247 
0.166897 -0.085815 0.808871 
0.168437 -0.085903 0.809702 
0.169995 -0.085999 0.810605 
0.171561 -0.086097 0.811531 
0.173178 -0.086219 0.812679 
0.174773 -0.086328 0.813707 
-0.069145 -0.106885 1.023831 
-0.067227 -0.106588 1.020986 
-0.065336 -0.106318 1.018404 
-0.063414 -0.105985 1.015208 
-0.061517 -0.105673 1.012228 
-0.059689 -0.105468 1.010258 
-0.057862 -0.105251 1.008180 
-0.056046 -0.105042 1.006180 
-0.044794 -0.098971 0.948030 
-0.043042 -0.098629 0.944748 
-0.041373 -0.098459 0.943124 
-0.039680 -0.098214 0.940772 
-0.037968 -0.097901 0.937779 
-0.036265 -0.097584 0.934744 
-0.034559 -0.097231 0.931361 
-0.032859 -0.096861 0.927814 
-0.031170 -0.096489 0.924249 
-0.029513 -0.096179 0.921282 
-0.027880 -0.095921 0.918807 
-0.026258 -0.095669 0.916394 
-0.024651 -0.095446 0.914264 
-0.023063 -0.095271 0.912588 
-0.021475 -0.095072 0.910682 
-0.019900 -0.094903 0.909063 
-0.018333 -0.094744 0.907532 
-0.016769 -0.094575 0.905916 
-0.015204 -0.094370 0.903952 
-0.013647 -0.094170 0.902043 
-0.012095 -0.093961 0.900037 
-0.010549 -0.093745 0.897968 
-0.009011 -0.093540 0.896008 
-0.007482 -0.093355 0.894233 
-0.005959 -0.093181 0.892563 
-0.004442 -0.093008 0.890905 
-0.002931 -0.092854 0.889431 
-0.001425 -0.092693 0.887890 
0.000076 -0.092540 0.886424 
0.001572 -0.092395 0.885040 
0.003064 -0.092262 0.883765 
0.004552 -0.092131 0.882506 
0.006036 -0.092010 0.881347 
0.007516 -0.091896 0.880252 
0.008991 -0.091756 0.878917 
0.010462 -0.091632 0.877730 
0.011932 -0.091519 0.876645 
0.013399 -0.091418 0.875678 
0.014863 -0.091319 0.874727 
0.016330 -0.091252 0.874092 
0.017791 -0.091169 0.873294 
0.019252 -0.091096 0.872589 
0.020713 -0.091031 0.871973 
0.022173 -0.090976 0.871439 
0.023628 -0.090904 0.870753 
0.025080 -0.090831 0.870050 
0.026528 -0.090755 0.869326 
0.027970 -0.090664 0.868452 
0.029409 -0.090573 0.867585 
0.030841 -0.090474 0.866636 
0.032277 -0.090391 0.865838 
0.033704 -0.090292 0.864888 
0.035131 -0.090201 0.864024 
0.036552 -0.090104 0.863089 
0.037976 -0.090021 0.862294 
0.039387 -0.089915 0.861276 
0.040790 -0.089799 0.860168 
0.042185 -0.089673 0.858962 
0.043575 -0.089545 0.857739 
0.044959 -0.089412 0.856467 
0.046333 -0.089272 0.855119 
0.047704 -0.089131 0.853771 
0.049076 -0.089003 0.852543 
0.050446 -0.088877 0.851336 
0.051818 -0.088762 0.850236 
0.053194 -0.088659 0.849251 
0.054571 -0.088564 0.848341 
0.055939 -0.088460 0.847343 
0.057283 -0.088324 0.846037 
0.058621 -0.088184 0.844704 
0.059942 -0.088026 0.843190 
0.061257 -0.087869 0.841681 
0.062541 -0.087673 0.839809 
0.063846 -0.087517 0.838310 
0.065135 -0.087345 0.836663 
0.066439 -0.087200 0.835277 
0.067759 -0.087081 0.834137 
0.069109 -0.087006 0.833413 
0.070452 -0.086924 0.832635 
0.071812 -0.086866 0.832077 
0.073174 -0.086814 0.831576 
0.074510 -0.086732 0.830791 
0.075848 -0.086656 0.830067 
0.077176 -0.086572 0.829256 
0.078494 -0.086480 0.828377 
0.079817 -0.086396 0.827572 
0.081162 -0.086338 0.827015 
0.082484 -0.086259 0.826256 
0.083824 -0.086201 0.825701 
0.085176 -0.086156 0.825272 
0.086529 -0.086114 0.824870 
0.087892 -0.086083 0.824571 
0.089286 -0.086083 0.824571 
0.090647 -0.086052 0.824274 
0.091556 -0.085599 0.819935 
0.092184 -0.084900 0.813246 
0.092454 -0.081503 0.780699 
0.093040 -0.080865 0.774590 
0.093869 -0.080453 0.770642 
0.095153 -0.080437 0.770494 
0.096438 -0.080423 0.770357 
0.097750 -0.080431 0.770432 
0.099072 -0.080446 0.770580 
0.100427 -0.080488 0.770985 
0.101793 -0.080538 0.771461 
0.103182 -0.080604 0.772093 
0.104592 -0.080684 0.772863 
0.106023 -0.080780 0.773776 
0.107486 -0.080896 0.774887 
0.108937 -0.081001 0.775895 
0.110380 -0.081098 0.776822 
0.111823 -0.081192 0.777721 
0.113257 -0.081277 0.778538 
0.114658 -0.081337 0.779117 
0.116089 -0.081418 0.779885 
0.117545 -0.081513 0.780799 
0.119008 -0.081610 0.781733 
0.120538 -0.081752 0.783088 
0.122065 -0.081888 0.784395 
0.123609 -0.082033 0.785782 
0.125133 -0.082162 0.787012 
0.126669 -0.082295 0.788291 
0.128169 -0.082403 0.789321 
0.129682 -0.082517 0.790412 
0.131190 -0.082625 0.791447 
0.132698 -0.082731 0.792462 
0.134175 -0.082815 0.793274 
0.135641 -0.082891 0.794002 
0.137142 -0.082988 0.794926 
0.138629 -0.083074 0.795748 
0.140108 -0.083153 0.796508 
0.141574 -0.083223 0.797180 
0.143060 -0.083304 0.797953 
0.144504 -0.083359 0.798477 
0.145979 -0.083430 0.799158 
0.147444 -0.083494 0.799778 
0.148945 -0.083578 0.800580 
0.150383 -0.083625 0.801032 
0.151834 -0.083678 0.801539 
0.153246 -0.083710 0.801840 
0.154740 -0.083784 0.802556 
0.156273 -0.083879 0.803464 
0.157835 -0.083987 0.804500 
0.159425 -0.084109 0.805664 
0.160997 -0.084219 0.806715 
0.162522 -0.084302 0.807519 
0.164007 -0.084364 0.808108 
0.165512 -0.084435 0.808786 
0.166979 -0.084485 0.809268 
0.168534 -0.084579 0.810169 
0.170066 -0.084660 0.810940 
0.171633 -0.084757 0.811870 
0.173250 -0.084877 0.813018 
0.174859 -0.084990 0.814109 
-0.067164 -0.104758 1.020023 
-0.065262 -0.104475 1.017264 
-0.063348 -0.104154 1.014143 
-0.061473 -0.103884 1.011507 
-0.059665 -0.103713 1.009843 
-0.057851 -0.103522 1.007991 
-0.056039 -0.103323 1.006049 
-0.053813 -0.104014 0.996331 
-0.053932 -0.102551 0.998530 
-0.044909 -0.097615 0.950470 
-0.043067 -0.097085 0.945309 
-0.041400 -0.096922 0.943725 
-0.039714 -0.096702 0.941582 
-0.038004 -0.096403 0.938668 
-0.036288 -0.096062 0.935345 
-0.034571 -0.095684 0.931673 
-0.032866 -0.095308 0.928009 
-0.031177 -0.094941 0.924437 
-0.029516 -0.094629 0.921393 
-0.027887 -0.094385 0.919022 
-0.026268 -0.094154 0.916768 
-0.024659 -0.093925 0.914544 
-0.023068 -0.093743 0.912770 
-0.021480 -0.093547 0.910862 
-0.019898 -0.093353 0.908967 
-0.018325 -0.093167 0.907159 
-0.016758 -0.092980 0.905341 
-0.015193 -0.092768 0.903280 
-0.013634 -0.092556 0.901208 
-0.012084 -0.092351 0.899212 
-0.010538 -0.092129 0.897055 
-0.009002 -0.091926 0.895080 
-0.007473 -0.091735 0.893218 
-0.005952 -0.091564 0.891548 
-0.004437 -0.091395 0.889908 
-0.002928 -0.091252 0.888519 
-0.001423 -0.091094 0.886974 
0.000076 -0.090944 0.885513 
0.001571 -0.090802 0.884134 
0.003061 -0.090671 0.882860 
0.004548 -0.090552 0.881697 
0.006030 -0.090434 0.880545 
0.007510 -0.090322 0.879456 
0.008983 -0.090184 0.878113 
0.010454 -0.090070 0.877009 
0.011923 -0.089969 0.876018 
0.013391 -0.089879 0.875150 
0.014856 -0.089791 0.874293 
0.016323 -0.089734 0.873733 
0.017784 -0.089652 0.872938 
0.019241 -0.089563 0.872071 
0.020698 -0.089490 0.871355 
0.022153 -0.089417 0.870646 
0.023601 -0.089327 0.869776 
0.025048 -0.089245 0.868971 
0.026493 -0.089163 0.868174 
0.027933 -0.089073 0.867300 
0.029373 -0.088994 0.866525 
0.030807 -0.088906 0.865670 
0.032238 -0.088817 0.864808 
0.033660 -0.088711 0.863770 
0.035081 -0.088612 0.862813 
0.036496 -0.088506 0.861773 
0.037911 -0.088408 0.860828 
0.039319 -0.088302 0.859792 
0.040727 -0.088203 0.858825 
0.042124 -0.088088 0.857711 
0.043513 -0.087966 0.856517 
0.044899 -0.087844 0.855331 
0.046272 -0.087706 0.853985 
0.047636 -0.087560 0.852565 
0.049003 -0.087428 0.851276 
0.050372 -0.087305 0.850087 
0.051744 -0.087195 0.849009 
0.053118 -0.087094 0.848030 
0.054487 -0.086992 0.847032 
0.055847 -0.086880 0.845942 
0.057181 -0.086735 0.844530 
0.058505 -0.086580 0.843023 
0.059811 -0.086409 0.841359 
0.061118 -0.086246 0.839773 
0.062399 -0.086054 0.837904 
0.063708 -0.085909 0.836488 
0.065007 -0.085758 0.835018 
0.066329 -0.085642 0.833893 
0.067669 -0.085553 0.833024 
0.069038 -0.085504 0.832551 
0.070394 -0.085442 0.831941 
0.071765 -0.085400 0.831535 
0.073140 -0.085364 0.831183 
0.074482 -0.085292 0.830480 
0.075827 -0.085226 0.829837 
0.077169 -0.085159 0.829184 
0.078502 -0.085084 0.828460 
0.079827 -0.085004 0.827677 
0.081185 -0.084960 0.827252 
0.082514 -0.084889 0.826556 
0.083847 -0.084824 0.825925 
0.085192 -0.084773 0.825425 
0.086544 -0.084731 0.825016 
0.087899 -0.084692 0.824642 
0.089286 -0.084685 0.824571 
0.090439 -0.084461 0.822388 
0.091095 -0.083785 0.815812 
0.091448 -0.082855 0.806752 
0.091568 -0.080561 0.784417 
0.091907 -0.079705 0.776081 
0.092754 -0.079308 0.772212 
0.093819 -0.079104 0.770232 
0.095102 -0.079089 0.770082 
0.096394 -0.079081 0.770002 
0.097714 -0.079095 0.770143 
0.099052 -0.079124 0.770428 
0.100427 -0.079181 0.770983 
0.101814 -0.079246 0.771614 
0.103229 -0.079331 0.772442 
0.104657 -0.079424 0.773348 
0.106099 -0.079525 0.774331 
0.107563 -0.079640 0.775447 
0.109013 -0.079741 0.776436 
0.110447 -0.079829 0.777290 
0.111880 -0.079914 0.778119 
0.113307 -0.079993 0.778882 
0.114719 -0.080059 0.779532 
0.116153 -0.080140 0.780314 
0.117621 -0.080241 0.781298 
0.119084 -0.080337 0.782234 
0.120604 -0.080468 0.783516 
0.122111 -0.080589 0.784689 
0.123642 -0.080722 0.785988 
0.125154 -0.080841 0.787145 
0.126680 -0.080966 0.788356 
0.128189 -0.081077 0.789446 
0.129704 -0.081191 0.790547 
0.131223 -0.081303 0.791646 
0.132721 -0.081401 0.792601 
0.134210 -0.081491 0.793477 
0.135676 -0.081567 0.794211 
0.137181 -0.081663 0.795151 
0.138657 -0.081741 0.795906 
0.140136 -0.081819 0.796666 
0.141588 -0.081880 0.797257 
0.143062 -0.081952 0.797960 
0.144504 -0.082005 0.798477 
0.145980 -0.082075 0.799164 
0.147458 -0.082147 0.799856 
0.148975 -0.082237 0.800740 
0.150429 -0.082292 0.801273 
0.151907 -0.082359 0.801925 
0.153348 -0.082405 0.802374 
0.154873 -0.082495 0.803249 
0.156423 -0.082596 0.804233 
0.157996 -0.082708 0.805323 
0.159572 -0.082819 0.806407 
0.161129 -0.082919 0.807377 
0.162644 -0.082996 0.808123 
0.164118 -0.083050 0.808656 
0.165624 -0.083120 0.809336 
0.167106 -0.083176 0.809882 
0.168677 -0.083276 0.810855 
0.170196 -0.083349 0.811562 
0.171779 -0.083451 0.812559 
0.173397 -0.083569 0.813704 
0.174992 -0.083674 0.814726 
-0.063302 -0.102361 1.013412 
-0.061450 -0.102131 1.011128 
-0.059650 -0.101975 1.009587 
-0.057841 -0.101796 1.007819 
-0.056037 -0.101613 1.006008 
-0.054054 -0.101086 1.000787 
-0.045115 -0.096444 0.954833 
-0.043166 -0.095702 0.947485 
-0.041411 -0.095350 0.943996 
-0.039732 -0.095150 0.942020 
-0.038021 -0.094854 0.939089 
-0.036296 -0.094498 0.935558 
-0.034572 -0.094108 0.931697 
-0.032866 -0.093734 0.928000 
-0.031176 -0.093373 0.924423 
-0.029516 -0.093067 0.921392 
-0.027887 -0.092829 0.919043 
-0.026272 -0.092612 0.916887 
-0.024662 -0.092386 0.914657 
-0.023068 -0.092198 0.912788 
-0.021480 -0.092003 0.910864 
-0.019896 -0.091802 0.908871 
-0.018321 -0.091608 0.906947 
-0.016752 -0.091412 0.905015 
-0.015185 -0.091193 0.902841 
-0.013626 -0.090975 0.900682 
-0.012076 -0.090766 0.898616 
-0.010531 -0.090540 0.896381 
-0.008995 -0.090341 0.894411 
-0.007468 -0.090153 0.892545 
-0.005947 -0.089978 0.890813 
-0.004433 -0.089820 0.889252 
-0.002926 -0.089681 0.887872 
-0.001422 -0.089516 0.886244 
0.000076 -0.089368 0.884776 
0.001569 -0.089230 0.883409 
0.003059 -0.089102 0.882138 
0.004544 -0.088994 0.881067 
0.006026 -0.088885 0.879994 
0.007504 -0.088769 0.878844 
0.008977 -0.088641 0.877576 
0.010447 -0.088530 0.876475 
0.011917 -0.088438 0.875570 
0.013384 -0.088352 0.874720 
0.014851 -0.088283 0.874030 
0.016320 -0.088234 0.873550 
0.017780 -0.088154 0.872752 
0.019233 -0.088050 0.871721 
0.020687 -0.087967 0.870907 
0.022135 -0.087869 0.869936 
0.023577 -0.087763 0.868886 
0.025018 -0.087666 0.867928 
0.026461 -0.087585 0.867121 
0.027899 -0.087498 0.866259 
0.029340 -0.087428 0.865568 
0.030770 -0.087334 0.864636 
0.032199 -0.087246 0.863763 
0.033616 -0.087132 0.862632 
0.035031 -0.087025 0.861581 
0.036440 -0.086912 0.860455 
0.037853 -0.086816 0.859505 
0.039259 -0.086712 0.858474 
0.040665 -0.086616 0.857530 
0.042064 -0.086512 0.856494 
0.043449 -0.086386 0.855248 
0.044832 -0.086265 0.854053 
0.046207 -0.086136 0.852780 
0.047573 -0.086000 0.851425 
0.048939 -0.085872 0.850163 
0.050317 -0.085770 0.849151 
0.051688 -0.085663 0.848090 
0.053050 -0.085548 0.846953 
0.054412 -0.085438 0.845863 
0.055758 -0.085310 0.844594 
0.057079 -0.085151 0.843023 
0.058390 -0.084984 0.841372 
0.059689 -0.084809 0.839640 
0.060989 -0.084643 0.837991 
0.062267 -0.084456 0.836139 
0.063574 -0.084314 0.834736 
0.064890 -0.084190 0.833513 
0.066235 -0.084108 0.832702 
0.067592 -0.084046 0.832085 
0.068979 -0.084022 0.831844 
0.070353 -0.083983 0.831458 
0.071736 -0.083956 0.831196 
0.073118 -0.083930 0.830938 
0.074474 -0.083875 0.830395 
0.075827 -0.083820 0.829843 
0.077183 -0.083769 0.829338 
0.078518 -0.083697 0.828625 
0.079837 -0.083611 0.827774 
0.081187 -0.083560 0.827271 
0.082515 -0.083489 0.826568 
0.083841 -0.083418 0.825863 
0.085186 -0.083367 0.825365 
0.086545 -0.083333 0.825024 
0.087900 -0.083295 0.824647 
0.089073 -0.083089 0.822610 
0.089983 -0.082648 0.818241 
0.090374 -0.081750 0.809351 
0.090508 -0.079465 0.786730 
0.090805 -0.078571 0.777880 
0.091399 -0.077956 0.771791 
0.092492 -0.077778 0.770026 
0.093775 -0.077762 0.769873 
0.095057 -0.077747 0.769718 
0.096357 -0.077745 0.769706 
0.097684 -0.077766 0.769911 
0.099040 -0.077809 0.770335 
0.100442 -0.077886 0.771096 
0.101848 -0.077964 0.771875 
0.103284 -0.078063 0.772855 
0.104724 -0.078163 0.773841 
0.106166 -0.078262 0.774820 
0.107613 -0.078362 0.775809 
0.109062 -0.078460 0.776784 
0.110487 -0.078540 0.777575 
0.111912 -0.078618 0.778343 
0.113340 -0.078696 0.779115 
0.114772 -0.078774 0.779893 
0.116210 -0.078855 0.780693 
0.117678 -0.078955 0.781683 
0.119153 -0.079057 0.782688 
0.120661 -0.079178 0.783887 
0.122146 -0.079282 0.784915 
0.123664 -0.079405 0.786132 
0.125175 -0.079520 0.787277 
0.126691 -0.079636 0.788426 
0.128201 -0.079746 0.789517 
0.129716 -0.079857 0.790616 
0.131234 -0.079968 0.791710 
0.132721 -0.080058 0.792601 
0.134221 -0.080153 0.793545 
0.135689 -0.080228 0.794285 
0.137206 -0.080330 0.795293 
0.138672 -0.080400 0.795993 
0.140139 -0.080470 0.796680 
0.141576 -0.080522 0.797192 
0.143049 -0.080592 0.797888 
0.144480 -0.080638 0.798341 
0.145980 -0.080721 0.799164 
0.147484 -0.080805 0.799994 
0.149015 -0.080902 0.800958 
0.150498 -0.080971 0.801641 
0.152007 -0.081053 0.802455 
0.153467 -0.081108 0.802996 
0.155008 -0.081204 0.803948 
0.156546 -0.081297 0.804867 
0.158104 -0.081398 0.805870 
0.159662 -0.081498 0.806862 
0.161204 -0.081589 0.807756 
0.162722 -0.081665 0.808510 
0.164214 -0.081727 0.809126 
0.165737 -0.081804 0.809885 
0.167234 -0.081866 0.810503 
0.168819 -0.081971 0.811540 
0.170355 -0.082050 0.812320 
0.171956 -0.082158 0.813396 
0.173574 -0.082274 0.814539 
0.175170 -0.082376 0.815555 
-0.063228 -0.100525 1.012219 
-0.061398 -0.100332 1.010273 
-0.059612 -0.100200 1.008948 
-0.057811 -0.100035 1.007284 
-0.056019 -0.099876 1.005688 
-0.054156 -0.099577 1.002678 
-0.043282 -0.094347 0.950016 
-0.041431 -0.093794 0.944448 
-0.039750 -0.093596 0.942447 
-0.038037 -0.093302 0.939492 
-0.036304 -0.092931 0.935757 
-0.034575 -0.092537 0.931784 
-0.032865 -0.092159 0.927984 
-0.031175 -0.091801 0.924378 
-0.029513 -0.091494 0.921279 
-0.027885 -0.091262 0.918952 
-0.026272 -0.091059 0.916902 
-0.024667 -0.090855 0.914848 
-0.023071 -0.090661 0.912899 
-0.021482 -0.090469 0.910967 
-0.019896 -0.090262 0.908879 
-0.018319 -0.090060 0.906843 
-0.016746 -0.089848 0.904713 
-0.015179 -0.089622 0.902438 
-0.013619 -0.089400 0.900198 
-0.012069 -0.089195 0.898130 
-0.010525 -0.088973 0.895898 
-0.008990 -0.088777 0.893928 
-0.007464 -0.088593 0.892075 
-0.005944 -0.088422 0.890348 
-0.004431 -0.088267 0.888792 
-0.002924 -0.088129 0.887405 
-0.001421 -0.087968 0.885780 
0.000076 -0.087823 0.884318 
0.001569 -0.087686 0.882944 
0.003057 -0.087561 0.881677 
0.004542 -0.087462 0.880684 
0.006024 -0.087358 0.879635 
0.007501 -0.087244 0.878488 
0.008974 -0.087126 0.877301 
0.010445 -0.087024 0.876273 
0.011914 -0.086935 0.875379 
0.013381 -0.086853 0.874549 
0.014850 -0.086793 0.873943 
0.016318 -0.086745 0.873461 
0.017777 -0.086658 0.872584 
0.019227 -0.086546 0.871459 
0.020681 -0.086464 0.870635 
0.022123 -0.086350 0.869484 
0.023563 -0.086237 0.868349 
0.025000 -0.086133 0.867301 
0.026437 -0.086038 0.866345 
0.027872 -0.085944 0.865400 
0.029308 -0.085866 0.864615 
0.030731 -0.085758 0.863528 
0.032155 -0.085663 0.862567 
0.033568 -0.085549 0.861421 
0.034978 -0.085435 0.860278 
0.036385 -0.085324 0.859158 
0.037796 -0.085231 0.858218 
0.039204 -0.085138 0.857286 
0.040613 -0.085053 0.856431 
0.042011 -0.084953 0.855423 
0.043394 -0.084829 0.854175 
0.044775 -0.084709 0.852964 
0.046143 -0.084573 0.851598 
0.047507 -0.084439 0.850244 
0.048881 -0.084330 0.849150 
0.050262 -0.084238 0.848225 
0.051632 -0.084134 0.847173 
0.052992 -0.084019 0.846020 
0.054340 -0.083894 0.844754 
0.055669 -0.083744 0.843248 
0.056983 -0.083581 0.841604 
0.058293 -0.083419 0.839971 
0.059591 -0.083248 0.838257 
0.060893 -0.083092 0.836681 
0.062181 -0.082923 0.834982 
0.063493 -0.082793 0.833671 
0.064821 -0.082689 0.832622 
0.066177 -0.082625 0.831974 
0.067545 -0.082578 0.831505 
0.068931 -0.082554 0.831268 
0.070316 -0.082531 0.831028 
0.071707 -0.082514 0.830859 
0.073097 -0.082498 0.830698 
0.074468 -0.082461 0.830324 
0.075835 -0.082421 0.829927 
0.077198 -0.082379 0.829498 
0.078533 -0.082308 0.828788 
0.079851 -0.082223 0.827928 
0.081194 -0.082165 0.827351 
0.082522 -0.082094 0.826635 
0.083841 -0.082017 0.825862 
0.085186 -0.081969 0.825372 
0.086538 -0.081928 0.824959 
0.087884 -0.081883 0.824504 
0.088828 -0.081470 0.820345 
0.089478 -0.080805 0.813647 
0.089742 -0.077470 0.780067 
0.090305 -0.076827 0.773593 
0.091148 -0.076437 0.769671 
0.092448 -0.076436 0.769661 
0.093739 -0.076428 0.769580 
0.095022 -0.076414 0.769434 
0.096330 -0.076420 0.769494 
0.097666 -0.076447 0.769768 
0.099039 -0.076502 0.770325 
0.100451 -0.076586 0.771167 
0.101877 -0.076678 0.772094 
0.103323 -0.076782 0.773145 
0.104780 -0.076893 0.774258 
0.106225 -0.076991 0.775251 
0.107672 -0.077089 0.776232 
0.109122 -0.077186 0.777212 
0.110547 -0.077264 0.777994 
0.111965 -0.077334 0.778706 
0.113401 -0.077417 0.779534 
0.114844 -0.077501 0.780382 
0.116293 -0.077588 0.781256 
0.117766 -0.077688 0.782263 
0.119240 -0.077786 0.783258 
0.120728 -0.077892 0.784322 
0.122190 -0.077979 0.785196 
0.123686 -0.078086 0.786271 
0.125186 -0.078193 0.787348 
0.126693 -0.078301 0.788437 
0.128204 -0.078410 0.789537 
0.129718 -0.078518 0.790627 
0.131235 -0.078627 0.791717 
0.132721 -0.078714 0.792601 
0.134232 -0.078815 0.793613 
0.135702 -0.078889 0.794359 
0.137231 -0.078996 0.795442 
0.138696 -0.079065 0.796132 
0.140161 -0.079132 0.796808 
0.141586 -0.079176 0.797245 
0.143057 -0.079244 0.797936 
0.144489 -0.079290 0.798395 
0.145992 -0.079373 0.799230 
0.147509 -0.079462 0.800133 
0.149068 -0.079572 0.801238 
0.150579 -0.079655 0.802075 
0.152107 -0.079745 0.802983 
0.153609 -0.079821 0.803741 
0.155155 -0.079917 0.804709 
0.156678 -0.080000 0.805544 
0.158220 -0.080091 0.806465 
0.159777 -0.080188 0.807441 
0.161308 -0.080271 0.808276 
0.162840 -0.080353 0.809097 
0.164348 -0.080421 0.809789 
0.165874 -0.080497 0.810554 
0.167359 -0.080553 0.811112 
0.168948 -0.080657 0.812158 
0.170487 -0.080735 0.812947 
0.172090 -0.080843 0.814031 
0.173728 -0.080964 0.815258 
0.175340 -0.081073 0.816348 
-0.063114 -0.098632 1.010404 
-0.061336 -0.098519 1.009249 
-0.059568 -0.098417 1.008203 
-0.057773 -0.098263 1.006623 
-0.055988 -0.098116 1.005124 
-0.054233 -0.098016 1.004092 
-0.052085 -0.098864 0.995496 
-0.052286 -0.097551 0.999331 
-0.043481 -0.093163 0.954383 
-0.041522 -0.092394 0.946505 
-0.039754 -0.092008 0.942547 
-0.038048 -0.091736 0.939766 
-0.036312 -0.091365 0.935958 
-0.034579 -0.090968 0.931894 
-0.032865 -0.090586 0.927980 
-0.031170 -0.090222 0.924254 
-0.029506 -0.089911 0.921066 
-0.027878 -0.089685 0.918751 
-0.026269 -0.089495 0.916800 
-0.024667 -0.089303 0.914837 
-0.023071 -0.089113 0.912894 
-0.021483 -0.088927 0.910985 
-0.019897 -0.088723 0.908894 
-0.018317 -0.088516 0.906777 
-0.016743 -0.088300 0.904559 
-0.015174 -0.088069 0.902192 
-0.013614 -0.087840 0.899851 
-0.012063 -0.087629 0.897690 
-0.010520 -0.087411 0.895455 
-0.008987 -0.087227 0.893565 
-0.007461 -0.087055 0.891805 
-0.005942 -0.086887 0.890085 
-0.004430 -0.086743 0.888614 
-0.002923 -0.086607 0.887223 
-0.001421 -0.086448 0.885591 
0.000076 -0.086306 0.884133 
0.001568 -0.086172 0.882760 
0.003056 -0.086040 0.881413 
0.004541 -0.085950 0.880492 
0.006023 -0.085849 0.879452 
0.007499 -0.085730 0.878232 
0.008972 -0.085622 0.877129 
0.010444 -0.085529 0.876179 
0.011913 -0.085443 0.875298 
0.013380 -0.085362 0.874469 
0.014850 -0.085311 0.873945 
0.016318 -0.085264 0.873463 
0.017777 -0.085179 0.872589 
0.019226 -0.085062 0.871389 
0.020675 -0.084964 0.870392 
0.022115 -0.084842 0.869139 
0.023549 -0.084715 0.867839 
0.024983 -0.084604 0.866703 
0.026417 -0.084503 0.865666 
0.027846 -0.084401 0.864623 
0.029276 -0.084308 0.863672 
0.030694 -0.084192 0.862482 
0.032109 -0.084082 0.861347 
0.033521 -0.083970 0.860206 
0.034930 -0.083860 0.859079 
0.036338 -0.083760 0.858053 
0.037755 -0.083684 0.857279 
0.039170 -0.083611 0.856522 
0.040581 -0.083536 0.855762 
0.041983 -0.083447 0.854843 
0.043364 -0.083323 0.853573 
0.044739 -0.083196 0.852280 
0.046101 -0.083054 0.850823 
0.047464 -0.082923 0.849482 
0.048842 -0.082825 0.848475 
0.050218 -0.082729 0.847493 
0.051582 -0.082618 0.846354 
0.052929 -0.082488 0.845020 
0.054265 -0.082347 0.843580 
0.055582 -0.082186 0.841926 
0.056895 -0.082027 0.840299 
0.058208 -0.081875 0.838745 
0.059515 -0.081723 0.837184 
0.060821 -0.081577 0.835692 
0.062119 -0.081426 0.834148 
0.063442 -0.081314 0.833000 
0.064775 -0.081220 0.832035 
0.066131 -0.081158 0.831402 
0.067499 -0.081113 0.830938 
0.068878 -0.081083 0.830628 
0.070262 -0.081060 0.830390 
0.071653 -0.081045 0.830236 
0.073050 -0.081037 0.830163 
0.074435 -0.081017 0.829953 
0.075816 -0.080994 0.829714 
0.077180 -0.080953 0.829303 
0.078514 -0.080883 0.828582 
0.079830 -0.080797 0.827705 
0.081164 -0.080732 0.827035 
0.082490 -0.080662 0.826317 
0.083817 -0.080595 0.825627 
0.085163 -0.080547 0.825142 
0.086515 -0.080507 0.824734 
0.087866 -0.080468 0.824327 
0.088546 -0.079825 0.817739 
0.088895 -0.078907 0.808340 
0.088926 -0.076580 0.784505 
0.089200 -0.075687 0.775357 
0.090026 -0.075282 0.771208 
0.091099 -0.075093 0.769262 
0.092407 -0.075098 0.769319 
0.093706 -0.075097 0.769305 
0.094998 -0.075090 0.769235 
0.096315 -0.075103 0.769373 
0.097668 -0.075143 0.769780 
0.099059 -0.075211 0.770477 
0.100480 -0.075300 0.771388 
0.101923 -0.075403 0.772446 
0.103388 -0.075519 0.773630 
0.104847 -0.075628 0.774747 
0.106293 -0.075725 0.775742 
0.107739 -0.075820 0.776717 
0.109181 -0.075910 0.777636 
0.110598 -0.075980 0.778351 
0.112016 -0.076049 0.779062 
0.113462 -0.076136 0.779951 
0.114907 -0.076219 0.780807 
0.116367 -0.076311 0.781749 
0.117841 -0.076411 0.782765 
0.119315 -0.076507 0.783754 
0.120783 -0.076598 0.784682 
0.122243 -0.076681 0.785538 
0.123718 -0.076773 0.786477 
0.125219 -0.076878 0.787551 
0.126716 -0.076979 0.788583 
0.128228 -0.077086 0.789682 
0.129730 -0.077186 0.790704 
0.131246 -0.077291 0.791786 
0.132721 -0.077371 0.792601 
0.134222 -0.077464 0.793553 
0.135680 -0.077530 0.794231 
0.137197 -0.077629 0.795243 
0.138649 -0.077689 0.795859 
0.140112 -0.077754 0.796528 
0.141546 -0.077802 0.797022 
0.143030 -0.077877 0.797785 
0.144489 -0.077936 0.798394 
0.146018 -0.078032 0.799373 
0.147563 -0.078135 0.800426 
0.149150 -0.078257 0.801680 
0.150703 -0.078360 0.802733 
0.152248 -0.078457 0.803724 
0.153767 -0.078538 0.804563 
0.155298 -0.078625 0.805451 
0.156806 -0.078699 0.806205 
0.158335 -0.078781 0.807050 
0.159893 -0.078877 0.808030 
0.161428 -0.078960 0.808877 
0.162977 -0.079047 0.809778 
0.164514 -0.079128 0.810606 
0.166042 -0.079204 0.811377 
0.167530 -0.079258 0.811939 
0.169120 -0.079360 0.812983 
0.170675 -0.079445 0.813845 
0.172269 -0.079545 0.814878 
0.173913 -0.079667 0.816127 
0.175542 -0.079781 0.817289 
-0.063040 -0.096805 1.009212 
-0.061277 -0.096715 1.008278 
-0.059514 -0.096621 1.007293 
-0.057730 -0.096485 1.005883 
-0.055959 -0.096364 1.004616 
-0.054217 -0.096286 1.003805 
-0.052382 -0.096032 1.001157 
-0.041607 -0.090978 0.948463 
-0.039753 -0.090407 0.942517 
-0.038052 -0.090152 0.939858 
-0.036320 -0.089799 0.936173 
-0.034584 -0.089402 0.932036 
-0.032866 -0.089015 0.928003 
-0.031167 -0.088646 0.924153 
-0.029502 -0.088337 0.920936 
-0.027872 -0.088108 0.918548 
-0.026266 -0.087930 0.916687 
-0.024666 -0.087751 0.914821 
-0.023068 -0.087557 0.912797 
-0.021480 -0.087374 0.910890 
-0.019893 -0.087166 0.908726 
-0.018314 -0.086964 0.906618 
-0.016740 -0.086751 0.904403 
-0.015173 -0.086533 0.902123 
-0.013613 -0.086308 0.899784 
-0.012062 -0.086100 0.897614 
-0.010519 -0.085885 0.895366 
-0.008986 -0.085703 0.893474 
-0.007461 -0.085543 0.891804 
-0.005942 -0.085379 0.890099 
-0.004431 -0.085247 0.888716 
-0.002924 -0.085113 0.887320 
-0.001421 -0.084956 0.885685 
0.000076 -0.084808 0.884142 
0.001568 -0.084669 0.882692 
0.003056 -0.084539 0.881336 
0.004540 -0.084442 0.880331 
0.006022 -0.084342 0.879281 
0.007497 -0.084217 0.877985 
0.008971 -0.084120 0.876965 
0.010442 -0.084029 0.876021 
0.011912 -0.083953 0.875224 
0.013379 -0.083873 0.874400 
0.014850 -0.083830 0.873951 
0.016318 -0.083784 0.873469 
0.017777 -0.083701 0.872598 
0.019224 -0.083578 0.871323 
0.020671 -0.083474 0.870234 
0.022108 -0.083345 0.868889 
0.023539 -0.083211 0.867492 
0.024971 -0.083094 0.866273 
0.026401 -0.082986 0.865149 
0.027827 -0.082877 0.864012 
0.029251 -0.082775 0.862950 
0.030664 -0.082652 0.861662 
0.032076 -0.082535 0.860448 
0.033490 -0.082434 0.859396 
0.034898 -0.082328 0.858293 
0.036309 -0.082240 0.857366 
0.037728 -0.082173 0.856676 
0.039146 -0.082109 0.856007 
0.040558 -0.082038 0.855263 
0.041962 -0.081957 0.854423 
0.043338 -0.081828 0.853074 
0.044712 -0.081702 0.851766 
0.046073 -0.081563 0.850310 
0.047436 -0.081435 0.848981 
0.048810 -0.081332 0.847908 
0.050185 -0.081238 0.846927 
0.051537 -0.081113 0.845622 
0.052873 -0.080969 0.844120 
0.054201 -0.080822 0.842586 
0.055520 -0.080669 0.840997 
0.056833 -0.080514 0.839382 
0.058151 -0.080374 0.837923 
0.059462 -0.080233 0.836443 
0.060773 -0.080097 0.835032 
0.062071 -0.079951 0.833506 
0.063400 -0.079849 0.832447 
0.064738 -0.079765 0.831564 
0.066094 -0.079704 0.830932 
0.067455 -0.079652 0.830389 
0.068832 -0.079621 0.830067 
0.070208 -0.079591 0.829754 
0.071591 -0.079568 0.829519 
0.072987 -0.079562 0.829453 
0.074377 -0.079549 0.829317 
0.075759 -0.079528 0.829094 
0.077124 -0.079489 0.828696 
0.078462 -0.079427 0.828040 
0.079784 -0.079349 0.827227 
0.081116 -0.079284 0.826552 
0.082443 -0.079216 0.825844 
0.083776 -0.079157 0.825225 
0.085130 -0.079118 0.824826 
0.086480 -0.079078 0.824406 
0.087833 -0.079041 0.824023 
0.088402 -0.078311 0.816412 
0.088229 -0.074661 0.778354 
0.088713 -0.073968 0.771129 
0.089781 -0.073773 0.769105 
0.091082 -0.073774 0.769114 
0.092397 -0.073786 0.769239 
0.093698 -0.073786 0.769239 
0.095006 -0.073793 0.769307 
0.096341 -0.073819 0.769578 
0.097703 -0.073865 0.770057 
0.099104 -0.073939 0.770829 
0.100551 -0.074045 0.771935 
0.101997 -0.074148 0.773005 
0.103471 -0.074267 0.774255 
0.104931 -0.074374 0.775371 
0.106368 -0.074463 0.776294 
0.107799 -0.074545 0.777150 
0.109240 -0.074632 0.778054 
0.110648 -0.074694 0.778706 
0.112066 -0.074762 0.779410 
0.113514 -0.074848 0.780307 
0.114969 -0.074937 0.781233 
0.116432 -0.075028 0.782188 
0.117906 -0.075125 0.783197 
0.119381 -0.075220 0.784187 
0.120837 -0.075301 0.785035 
0.122287 -0.075377 0.785825 
0.123752 -0.075460 0.786692 
0.125253 -0.075563 0.787765 
0.126739 -0.075656 0.788728 
0.128250 -0.075761 0.789823 
0.129742 -0.075852 0.790773 
0.131257 -0.075955 0.791851 
0.132721 -0.076027 0.792601 
0.134232 -0.076124 0.793613 
0.135678 -0.076183 0.794223 
0.137182 -0.076272 0.795158 
0.138620 -0.076324 0.795694 
0.140082 -0.076387 0.796356 
0.141520 -0.076437 0.796872 
0.143019 -0.076518 0.797722 
0.144504 -0.076591 0.798476 
0.146059 -0.076699 0.799601 
0.147634 -0.076815 0.800810 
0.149225 -0.076937 0.802083 
0.150808 -0.077053 0.803292 
0.152366 -0.077154 0.804352 
0.153886 -0.077234 0.805186 
0.155390 -0.077305 0.805927 
0.156897 -0.077377 0.806671 
0.158423 -0.077456 0.807498 
0.159986 -0.077552 0.808501 
0.161553 -0.077648 0.809503 
0.163136 -0.077751 0.810570 
0.164691 -0.077838 0.811477 
0.166220 -0.077911 0.812245 
0.167720 -0.077970 0.812860 
0.169295 -0.078063 0.813828 
0.170867 -0.078153 0.814762 
0.172465 -0.078253 0.815804 
0.174110 -0.078373 0.817052 
0.175729 -0.078479 0.818157 
-0.061186 -0.094866 1.006792 
-0.059427 -0.094774 1.005818 
-0.057662 -0.094668 1.004691 
-0.055906 -0.094570 1.003652 
-0.054172 -0.094506 1.002972 
-0.052447 -0.094452 1.002402 
-0.050349 -0.095388 0.994441 
-0.050541 -0.094059 0.998224 
-0.041686 -0.089540 0.950263 
-0.039744 -0.088789 0.942293 
-0.038052 -0.088559 0.939862 
-0.036329 -0.088233 0.936396 
-0.034596 -0.087853 0.932360 
-0.032874 -0.087463 0.928224 
-0.031167 -0.087080 0.924164 
-0.029495 -0.086758 0.920743 
-0.027861 -0.086516 0.918171 
-0.026253 -0.086332 0.916228 
-0.024656 -0.086165 0.914448 
-0.023059 -0.085974 0.912423 
-0.021473 -0.085802 0.910599 
-0.019890 -0.085614 0.908602 
-0.018315 -0.085432 0.906674 
-0.016742 -0.085226 0.904482 
-0.015178 -0.085028 0.902379 
-0.013618 -0.084815 0.900122 
-0.012067 -0.084611 0.897960 
-0.010523 -0.084400 0.895717 
-0.008989 -0.084222 0.893825 
-0.007464 -0.084064 0.892155 
-0.005945 -0.083904 0.890458 
-0.004432 -0.083768 0.889009 
-0.002924 -0.083628 0.887523 
-0.001421 -0.083473 0.885880 
0.000076 -0.083319 0.884243 
0.001568 -0.083175 0.882717 
0.003056 -0.083046 0.881351 
0.004540 -0.082943 0.880254 
0.006021 -0.082842 0.879186 
0.007496 -0.082720 0.877886 
0.008971 -0.082631 0.876949 
0.010442 -0.082544 0.876020 
0.011912 -0.082470 0.875233 
0.013379 -0.082391 0.874400 
0.014850 -0.082348 0.873943 
0.016317 -0.082296 0.873385 
0.017776 -0.082214 0.872520 
0.019224 -0.082101 0.871323 
0.020669 -0.081991 0.870149 
0.022106 -0.081863 0.868792 
0.023534 -0.081722 0.867297 
0.024963 -0.081600 0.866002 
0.026390 -0.081486 0.864789 
0.027813 -0.081371 0.863572 
0.029231 -0.081255 0.862340 
0.030639 -0.081125 0.860959 
0.032050 -0.081010 0.859744 
0.033466 -0.080920 0.858786 
0.034877 -0.080826 0.857786 
0.036292 -0.080747 0.856947 
0.037717 -0.080696 0.856410 
0.039134 -0.080633 0.855741 
0.040542 -0.080556 0.854927 
0.041946 -0.080477 0.854086 
0.043321 -0.080350 0.852738 
0.044694 -0.080227 0.851431 
0.046055 -0.080091 0.849984 
0.047422 -0.079973 0.848732 
0.048795 -0.079872 0.847661 
0.050161 -0.079764 0.846523 
0.051502 -0.079625 0.845047 
0.052830 -0.079474 0.843442 
0.054152 -0.079322 0.841825 
0.055471 -0.079174 0.840253 
0.056794 -0.079037 0.838804 
0.058116 -0.078907 0.837428 
0.059438 -0.078783 0.836102 
0.060756 -0.078659 0.834787 
0.062054 -0.078516 0.833278 
0.063383 -0.078417 0.832228 
0.064726 -0.078340 0.831408 
0.066075 -0.078273 0.830698 
0.067429 -0.078215 0.830074 
0.068804 -0.078182 0.829729 
0.070172 -0.078144 0.829325 
0.071540 -0.078107 0.828935 
0.072921 -0.078085 0.828703 
0.074302 -0.078064 0.828475 
0.075676 -0.078036 0.828180 
0.077033 -0.077993 0.827721 
0.078358 -0.077919 0.826942 
0.079677 -0.077842 0.826122 
0.081001 -0.077772 0.825379 
0.082319 -0.077700 0.824609 
0.083672 -0.077661 0.824201 
0.085050 -0.077648 0.824056 
0.086419 -0.077626 0.823826 
0.087785 -0.077602 0.823572 
0.088152 -0.076710 0.814107 
0.087722 -0.072920 0.773888 
0.088470 -0.072461 0.769014 
0.089780 -0.072469 0.769102 
0.091097 -0.072482 0.769240 
0.092421 -0.072501 0.769439 
0.093730 -0.072508 0.769507 
0.095048 -0.072521 0.769645 
0.096391 -0.072552 0.769980 
0.097756 -0.072599 0.770476 
0.099158 -0.072672 0.771249 
0.100616 -0.072783 0.772434 
0.102072 -0.072891 0.773572 
0.103540 -0.073004 0.774771 
0.105001 -0.073109 0.775890 
0.106429 -0.073189 0.776736 
0.107849 -0.073261 0.777505 
0.109271 -0.073333 0.778272 
0.110678 -0.073394 0.778920 
0.112106 -0.073467 0.779690 
0.113575 -0.073565 0.780727 
0.115033 -0.073653 0.781669 
0.116507 -0.073750 0.782692 
0.117981 -0.073844 0.783691 
0.119446 -0.073931 0.784613 
0.120883 -0.073998 0.785329 
0.122324 -0.074067 0.786060 
0.123777 -0.074141 0.786848 
0.125267 -0.074236 0.787856 
0.126741 -0.074320 0.788740 
0.128252 -0.074422 0.789829 
0.129742 -0.074511 0.790773 
0.131257 -0.074613 0.791851 
0.132721 -0.074684 0.792601 
0.134221 -0.074773 0.793545 
0.135653 -0.074823 0.794077 
0.137141 -0.074902 0.794920 
0.138565 -0.074945 0.795377 
0.140027 -0.075008 0.796044 
0.141491 -0.075071 0.796713 
0.143008 -0.075161 0.797663 
0.144521 -0.075246 0.798570 
0.146090 -0.075359 0.799770 
0.147679 -0.075480 0.801055 
0.149274 -0.075602 0.802346 
0.150884 -0.075729 0.803700 
0.152445 -0.075830 0.804764 
0.153978 -0.075915 0.805670 
0.155467 -0.075977 0.806330 
0.156971 -0.076045 0.807053 
0.158483 -0.076116 0.807807 
0.160063 -0.076219 0.808890 
0.161652 -0.076323 0.809999 
0.163269 -0.076439 0.811229 
0.164842 -0.076532 0.812220 
0.166370 -0.076604 0.812980 
0.167871 -0.076662 0.813594 
0.169446 -0.076752 0.814554 
0.171019 -0.076840 0.815488 
0.172602 -0.076931 0.816454 
0.174247 -0.077048 0.817696 
0.175862 -0.077150 0.818778 
-0.061073 -0.092987 1.004927 
-0.059334 -0.092924 1.004244 
-0.057598 -0.092863 1.003587 
-0.055860 -0.092793 1.002829 
-0.054134 -0.092741 1.002273 
-0.052421 -0.092708 1.001917 
-0.050628 -0.092526 0.999945 
-0.039747 -0.087198 0.942368 
-0.038060 -0.086985 0.940063 
-0.036341 -0.086675 0.936710 
-0.034608 -0.086301 0.932670 
-0.032878 -0.085901 0.928351 
-0.031165 -0.085506 0.924083 
-0.029486 -0.085171 0.920461 
-0.027852 -0.084931 0.917866 
-0.026244 -0.084752 0.915930 
-0.024648 -0.084588 0.914159 
-0.023054 -0.084408 0.912214 
-0.021470 -0.084246 0.910462 
-0.019887 -0.084061 0.908466 
-0.018313 -0.083885 0.906560 
-0.016743 -0.083698 0.904543 
-0.015180 -0.083514 0.902553 
-0.013622 -0.083315 0.900400 
-0.012072 -0.083124 0.898341 
-0.010528 -0.082925 0.896189 
-0.008993 -0.082742 0.894213 
-0.007468 -0.082587 0.892532 
-0.005947 -0.082429 0.890831 
-0.004434 -0.082288 0.889301 
-0.002925 -0.082143 0.887735 
-0.001422 -0.081989 0.886069 
0.000076 -0.081828 0.884333 
0.001568 -0.081679 0.882717 
0.003056 -0.081552 0.881351 
0.004540 -0.081443 0.880166 
0.006020 -0.081343 0.879086 
0.007495 -0.081221 0.877773 
0.008970 -0.081136 0.876850 
0.010441 -0.081051 0.875933 
0.011911 -0.080978 0.875149 
0.013378 -0.080900 0.874306 
0.014847 -0.080850 0.873766 
0.016312 -0.080791 0.873123 
0.017769 -0.080703 0.872178 
0.019217 -0.080592 0.870980 
0.020659 -0.080476 0.869725 
0.022097 -0.080358 0.868447 
0.023525 -0.080220 0.866956 
0.024955 -0.080108 0.865741 
0.026382 -0.079996 0.864533 
0.027802 -0.079876 0.863240 
0.029217 -0.079754 0.861923 
0.030624 -0.079626 0.860538 
0.032031 -0.079507 0.859253 
0.033447 -0.079420 0.858305 
0.034861 -0.079335 0.857387 
0.036272 -0.079250 0.856475 
0.037696 -0.079200 0.855932 
0.039112 -0.079137 0.855254 
0.040519 -0.079062 0.854438 
0.041922 -0.078984 0.853593 
0.043304 -0.078874 0.852406 
0.044677 -0.078754 0.851110 
0.046035 -0.078614 0.849602 
0.047400 -0.078498 0.848343 
0.048768 -0.078391 0.847184 
0.050123 -0.078270 0.845880 
0.051457 -0.078125 0.844309 
0.052788 -0.077982 0.842770 
0.054110 -0.077834 0.841165 
0.055434 -0.077697 0.839692 
0.056767 -0.077579 0.838413 
0.058101 -0.077467 0.837204 
0.059433 -0.077359 0.836033 
0.060757 -0.077245 0.834803 
0.062066 -0.077119 0.833439 
0.063395 -0.077022 0.832390 
0.064738 -0.076945 0.831564 
0.066075 -0.076865 0.830699 
0.067422 -0.076799 0.829985 
0.068778 -0.076746 0.829415 
0.070126 -0.076687 0.828775 
0.071472 -0.076629 0.828144 
0.072836 -0.076590 0.827729 
0.074193 -0.076547 0.827262 
0.075556 -0.076511 0.826874 
0.076904 -0.076462 0.826339 
0.078221 -0.076383 0.825489 
0.079538 -0.076308 0.824673 
0.080860 -0.076240 0.823941 
0.082193 -0.076185 0.823343 
0.083565 -0.076167 0.823149 
0.084964 -0.076173 0.823216 
0.086351 -0.076169 0.823178 
0.087430 -0.071370 0.771309 
0.088464 -0.071152 0.768958 
0.089782 -0.071167 0.769118 
0.091114 -0.071192 0.769385 
0.092440 -0.071211 0.769596 
0.093759 -0.071225 0.769739 
0.095093 -0.071250 0.770010 
0.096444 -0.071286 0.770405 
0.097810 -0.071332 0.770902 
0.099212 -0.071403 0.771671 
0.100679 -0.071519 0.772919 
0.102138 -0.071626 0.774072 
0.103610 -0.071739 0.775294 
0.105070 -0.071841 0.776399 
0.106496 -0.071917 0.777225 
0.107905 -0.071981 0.777913 
0.109318 -0.072045 0.778606 
0.110726 -0.072105 0.779256 
0.112165 -0.072183 0.780100 
0.113647 -0.072287 0.781222 
0.115108 -0.072375 0.782174 
0.116582 -0.072470 0.783198 
0.118056 -0.072562 0.784193 
0.119511 -0.072640 0.785039 
0.120928 -0.072694 0.785624 
0.122368 -0.072761 0.786344 
0.123810 -0.072827 0.787061 
0.125289 -0.072914 0.787995 
0.126752 -0.072989 0.788809 
0.128262 -0.073089 0.789893 
0.129742 -0.073171 0.790773 
0.131257 -0.073271 0.791851 
0.132721 -0.073340 0.792601 
0.134210 -0.073421 0.793477 
0.135629 -0.073463 0.793933 
0.137103 -0.073534 0.794701 
0.138523 -0.073575 0.795138 
0.139997 -0.073643 0.795874 
0.141489 -0.073719 0.796698 
0.143034 -0.073822 0.797806 
0.144575 -0.073920 0.798866 
0.146144 -0.074030 0.800063 
0.147731 -0.074149 0.801338 
0.149325 -0.074267 0.802621 
0.150937 -0.074393 0.803983 
0.152501 -0.074493 0.805061 
0.154049 -0.074584 0.806039 
0.155526 -0.074638 0.806632 
0.157028 -0.074704 0.807346 
0.158540 -0.074774 0.808096 
0.160135 -0.074881 0.809253 
0.161743 -0.074992 0.810453 
0.163392 -0.075120 0.811839 
0.164983 -0.075220 0.812919 
0.166527 -0.075297 0.813748 
0.168044 -0.075360 0.814430 
0.169637 -0.075456 0.815469 
0.171215 -0.075544 0.816423 
0.172799 -0.075633 0.817383 
0.174440 -0.075746 0.818599 
-0.059262 -0.091110 1.003025 
-0.057550 -0.091085 1.002743 
-0.055822 -0.091032 1.002158 
-0.054109 -0.091000 1.001812 
-0.052403 -0.090978 1.001571 
-0.050709 -0.090976 1.001548 
-0.039744 -0.085594 0.942297 
-0.038070 -0.085412 0.940288 
-0.036360 -0.085131 0.937198 
-0.034626 -0.084764 0.933158 
-0.032892 -0.084362 0.928734 
-0.031171 -0.083956 0.924267 
-0.029486 -0.083608 0.920434 
-0.027845 -0.083354 0.917635 
-0.026238 -0.083178 0.915699 
-0.024640 -0.083011 0.913863 
-0.023049 -0.082844 0.912018 
-0.021468 -0.082693 0.910355 
-0.019887 -0.082520 0.908451 
-0.018316 -0.082364 0.906732 
-0.016749 -0.082191 0.904837 
-0.015187 -0.082019 0.902936 
-0.013629 -0.081832 0.900875 
-0.012078 -0.081639 0.898749 
-0.010532 -0.081436 0.896522 
-0.008997 -0.081256 0.894537 
-0.007469 -0.081094 0.892754 
-0.005948 -0.080930 0.890948 
-0.004434 -0.080789 0.889401 
-0.002925 -0.080639 0.887747 
-0.001422 -0.080487 0.886070 
0.000076 -0.080328 0.884325 
0.001568 -0.080180 0.882692 
0.003056 -0.080057 0.881336 
0.004539 -0.079942 0.880072 
0.006020 -0.079844 0.878992 
0.007494 -0.079724 0.877674 
0.008968 -0.079634 0.876677 
0.010439 -0.079551 0.875763 
0.011909 -0.079479 0.874975 
0.013375 -0.079402 0.874123 
0.014842 -0.079344 0.873492 
0.016307 -0.079285 0.872845 
0.017761 -0.079192 0.871812 
0.019210 -0.079089 0.870677 
0.020651 -0.078969 0.869359 
0.022090 -0.078861 0.868173 
0.023518 -0.078727 0.866701 
0.024950 -0.078625 0.865569 
0.026377 -0.078516 0.864371 
0.027797 -0.078399 0.863081 
0.029211 -0.078279 0.861764 
0.030621 -0.078160 0.860454 
0.032028 -0.078043 0.859171 
0.033441 -0.077950 0.858148 
0.034857 -0.077873 0.857297 
0.036264 -0.077783 0.856299 
0.037684 -0.077726 0.855672 
0.039092 -0.077649 0.854834 
0.040498 -0.077574 0.854004 
0.041897 -0.077490 0.853083 
0.043283 -0.077390 0.851982 
0.044656 -0.077274 0.850704 
0.046017 -0.077144 0.849274 
0.047378 -0.077023 0.847936 
0.048735 -0.076902 0.846606 
0.050078 -0.076768 0.845131 
0.051406 -0.076618 0.843476 
0.052736 -0.076478 0.841942 
0.054063 -0.076342 0.840441 
0.055398 -0.076224 0.839143 
0.056737 -0.076117 0.837963 
0.058080 -0.076021 0.836909 
0.059419 -0.075924 0.835834 
0.060748 -0.075819 0.834679 
0.062069 -0.075709 0.833474 
0.063403 -0.075620 0.832487 
0.064740 -0.075538 0.831590 
0.066070 -0.075451 0.830637 
0.067404 -0.075372 0.829765 
0.068746 -0.075306 0.829032 
0.070074 -0.075227 0.828165 
0.071399 -0.075148 0.827297 
0.072739 -0.075088 0.826635 
0.074072 -0.075023 0.825916 
0.075405 -0.074959 0.825214 
0.076729 -0.074889 0.824450 
0.078033 -0.074804 0.823511 
0.079339 -0.074723 0.822617 
0.080676 -0.074673 0.822069 
0.082026 -0.074637 0.821669 
0.083422 -0.074643 0.821742 
0.084843 -0.074672 0.822051 
0.087145 -0.069834 0.768798 
0.088472 -0.069855 0.769029 
0.089799 -0.069876 0.769258 
0.091141 -0.069908 0.769610 
0.092475 -0.069933 0.769887 
0.093803 -0.069953 0.770100 
0.095145 -0.069983 0.770432 
0.096499 -0.070020 0.770841 
0.097872 -0.070070 0.771391 
0.099291 -0.070151 0.772284 
0.100767 -0.070270 0.773592 
0.102228 -0.070375 0.774755 
0.103700 -0.070486 0.775971 
0.105154 -0.070581 0.777017 
0.106562 -0.070643 0.777706 
0.107953 -0.070693 0.778255 
0.109356 -0.070750 0.778882 
0.110766 -0.070810 0.779536 
0.112207 -0.070887 0.780391 
0.113691 -0.070990 0.781525 
0.115164 -0.071084 0.782554 
0.116629 -0.071171 0.783511 
0.118101 -0.071260 0.784493 
0.119555 -0.071336 0.785329 
0.120973 -0.071389 0.785916 
0.122412 -0.071454 0.786625 
0.123854 -0.071518 0.787336 
0.125320 -0.071596 0.788188 
0.126773 -0.071664 0.788938 
0.128272 -0.071756 0.789955 
0.129752 -0.071836 0.790838 
0.131269 -0.071935 0.791920 
0.132733 -0.072003 0.792673 
0.134210 -0.072076 0.793480 
0.135616 -0.072111 0.793859 
0.137066 -0.072167 0.794482 
0.138474 -0.072201 0.794856 
0.139947 -0.072268 0.795594 
0.141464 -0.072356 0.796561 
0.143037 -0.072471 0.797820 
0.144592 -0.072574 0.798962 
0.146172 -0.072688 0.800217 
0.147768 -0.072808 0.801535 
0.149345 -0.072917 0.802731 
0.150958 -0.073040 0.804091 
0.152537 -0.073146 0.805253 
0.154101 -0.073242 0.806312 
0.155581 -0.073297 0.806919 
0.157097 -0.073368 0.807700 
0.158623 -0.073442 0.808519 
0.160220 -0.073548 0.809682 
0.161842 -0.073663 0.810951 
0.163493 -0.073790 0.812343 
0.165098 -0.073893 0.813485 
0.166647 -0.073971 0.814333 
0.168210 -0.074053 0.815237 
0.169812 -0.074150 0.816312 
0.171424 -0.074251 0.817417 
0.173011 -0.074339 0.818386 
0.174651 -0.074448 0.819592 
-0.060950 -0.089399 1.002897 
-0.059236 -0.089370 1.002579 
-0.057524 -0.089344 1.002282 
-0.055798 -0.089294 1.001720 
-0.054086 -0.089263 1.001375 
-0.052375 -0.089233 1.001034 
-0.050671 -0.089212 1.000798 
-0.039745 -0.083999 0.942317 
-0.038082 -0.083846 0.940606 
-0.036391 -0.083612 0.937983 
-0.034662 -0.083270 0.934138 
-0.032926 -0.082874 0.929704 
-0.031200 -0.082466 0.925122 
-0.029506 -0.082104 0.921062 
-0.027855 -0.081828 0.917967 
-0.026245 -0.081647 0.915941 
-0.024645 -0.081477 0.914034 
-0.023053 -0.081315 0.912207 
-0.021474 -0.081174 0.910633 
-0.019894 -0.081007 0.908751 
-0.018323 -0.080855 0.907048 
