1647
0.121300 -0.088463 0.956042 
0.123009 -0.088530 0.956766 
0.124755 -0.088621 0.957749 
0.126546 -0.088742 0.959056 
0.128381 -0.088890 0.960649 
0.130234 -0.089047 0.962348 
0.132124 -0.089224 0.964260 
0.134011 -0.089396 0.966118 
0.135906 -0.089568 0.967980 
0.137790 -0.089729 0.969721 
0.139617 -0.089850 0.971027 
0.141402 -0.089941 0.972011 
0.143216 -0.090048 0.973172 
0.145070 -0.090178 0.974574 
0.147034 -0.090373 0.976675 
0.149046 -0.090593 0.979052 
0.151183 -0.090882 0.982181 
0.153314 -0.091162 0.985206 
0.155442 -0.091433 0.988141 
0.157459 -0.091635 0.990321 
0.159490 -0.091841 0.992543 
0.161492 -0.092026 0.994540 
0.163564 -0.092246 0.996919 
0.165714 -0.092505 0.999724 
0.168105 -0.092893 1.003910 
0.170511 -0.093280 1.008098 
0.172895 -0.093649 1.012079 
0.175179 -0.093956 1.015402 
0.177433 -0.094241 1.018484 
0.179587 -0.094468 1.020940 
0.181804 -0.094725 1.023708 
0.184023 -0.094977 1.026432 
0.186415 -0.095312 1.030060 
0.188847 -0.095662 1.033840 
0.191424 -0.096078 1.038339 
0.194078 -0.096525 1.043169 
0.196707 -0.096952 1.047782 
0.199201 -0.097305 1.051596 
0.201617 -0.097614 1.054931 
0.203908 -0.097857 1.057566 
0.206152 -0.098074 1.059911 
0.208458 -0.098317 1.062533 
0.210751 -0.098549 1.065042 
0.213072 -0.098791 1.067652 
0.215307 -0.098988 1.069788 
0.217495 -0.099162 1.071659 
0.219681 -0.099331 1.073487 
0.221922 -0.099522 1.075553 
0.224055 -0.099662 1.077067 
0.226299 -0.099848 1.079083 
0.228653 -0.100080 1.081590 
0.231086 -0.100343 1.084427 
0.233519 -0.100601 1.087220 
0.236012 -0.100881 1.090244 
0.238424 -0.101122 1.092850 
0.240749 -0.101323 1.095022 
0.243056 -0.101514 1.097079 
0.245376 -0.101707 1.099165 
0.247712 -0.101903 1.101289 
-0.033280 -0.085358 0.939693 
-0.031679 -0.085324 0.939324 
-0.030072 -0.085270 0.938731 
-0.028453 -0.085177 0.937702 
-0.026828 -0.085049 0.936292 
-0.025196 -0.084882 0.934459 
-0.023572 -0.084724 0.932714 
-0.021955 -0.084569 0.931008 
-0.020344 -0.084416 0.929331 
-0.018741 -0.084272 0.927743 
-0.017143 -0.084126 0.926137 
-0.015552 -0.083990 0.924632 
-0.013964 -0.083839 0.922971 
-0.012385 -0.083713 0.921586 
-0.010812 -0.083603 0.920377 
-0.009246 -0.083505 0.919300 
-0.007682 -0.083402 0.918163 
-0.006124 -0.083322 0.917288 
-0.004569 -0.083242 0.916407 
-0.003016 -0.083147 0.915352 
-0.001467 -0.083049 0.914282 
0.000079 -0.082952 0.913212 
0.001621 -0.082887 0.912489 
0.003162 -0.082835 0.911916 
0.004701 -0.082794 0.911468 
0.006240 -0.082769 0.911193 
0.007778 -0.082741 0.910888 
0.009312 -0.082688 0.910302 
0.010843 -0.082627 0.909626 
0.012369 -0.082549 0.908772 
0.013893 -0.082478 0.907986 
0.015415 -0.082407 0.907204 
0.016933 -0.082329 0.906353 
0.018446 -0.082244 0.905413 
0.019963 -0.082189 0.904809 
0.021474 -0.082119 0.904042 
0.022988 -0.082068 0.903481 
0.024506 -0.082034 0.903106 
0.026029 -0.082025 0.902999 
0.027551 -0.082009 0.902825 
0.029077 -0.082009 0.902825 
0.030603 -0.082009 0.902825 
0.032129 -0.082009 0.902825 
0.033659 -0.082017 0.902915 
0.035189 -0.082026 0.903015 
0.036724 -0.082044 0.903211 
0.038267 -0.082078 0.903587 
0.039811 -0.082113 0.903978 
0.041354 -0.082142 0.904290 
0.042913 -0.082200 0.904934 
0.044471 -0.082252 0.905508 
0.046024 -0.082291 0.905932 
0.047580 -0.082335 0.906414 
0.049142 -0.082384 0.906955 
0.050686 -0.082402 0.907150 
0.052241 -0.082436 0.907525 
0.053804 -0.082479 0.907999 
0.055352 -0.082499 0.908220 
0.056894 -0.082507 0.908316 
0.058444 -0.082529 0.908553 
0.059998 -0.082553 0.908813 
0.061543 -0.082565 0.908953 
0.063101 -0.082593 0.909257 
0.064658 -0.082618 0.909530 
0.066214 -0.082641 0.909791 
0.067781 -0.082676 0.910174 
0.069358 -0.082722 0.910677 
0.070959 -0.082793 0.911462 
0.072575 -0.082880 0.912415 
0.074218 -0.082992 0.913649 
0.075860 -0.083099 0.914830 
0.077531 -0.083232 0.916297 
0.079182 -0.083340 0.917481 
0.080827 -0.083437 0.918544 
0.082465 -0.083523 0.919491 
0.084099 -0.083601 0.920360 
0.085782 -0.083726 0.921731 
0.087527 -0.083905 0.923703 
0.089277 -0.084083 0.925656 
0.091032 -0.084258 0.927588 
0.092794 -0.084435 0.929536 
0.094516 -0.084570 0.931018 
0.096215 -0.084680 0.932234 
0.097969 -0.084834 0.933926 
0.099721 -0.084981 0.935547 
0.101512 -0.085157 0.937484 
0.103354 -0.085370 0.939826 
0.105253 -0.085622 0.942600 
0.107158 -0.085871 0.945347 
0.109069 -0.086119 0.948069 
0.110938 -0.086326 0.950353 
0.112774 -0.086501 0.952284 
0.114569 -0.086642 0.953829 
0.116339 -0.086759 0.955116 
0.118076 -0.086849 0.956110 
0.119797 -0.086925 0.956945 
0.121504 -0.086989 0.957648 
0.123216 -0.087055 0.958377 
0.124964 -0.087144 0.959354 
0.126744 -0.087253 0.960553 
0.128581 -0.087397 0.962148 
0.130438 -0.087552 0.963853 
0.132320 -0.087719 0.965692 
0.134197 -0.087880 0.967459 
0.136077 -0.088038 0.969198 
0.137943 -0.088183 0.970802 
0.139756 -0.088291 0.971991 
0.141527 -0.088372 0.972874 
0.143358 -0.088487 0.974138 
0.145245 -0.088633 0.975752 
0.147230 -0.088836 0.977980 
0.149265 -0.089063 0.980488 
0.151437 -0.089367 0.983833 
0.153573 -0.089643 0.986866 
0.155688 -0.089900 0.989704 
0.157692 -0.090090 0.991788 
0.159707 -0.090281 0.993894 
0.161681 -0.090445 0.995700 
0.163720 -0.090643 0.997873 
0.165872 -0.090897 1.000676 
0.168241 -0.091265 1.004723 
0.170620 -0.091630 1.008743 
0.173014 -0.091996 1.012776 
0.175335 -0.092317 1.016303 
0.177602 -0.092603 1.019457 
0.179792 -0.092844 1.022107 
0.182080 -0.093130 1.025260 
0.184353 -0.093404 1.028270 
0.186737 -0.093728 1.031840 
0.189155 -0.094063 1.035529 
0.191707 -0.094458 1.039873 
0.194267 -0.094849 1.044186 
0.196803 -0.095222 1.048292 
0.199248 -0.095545 1.051845 
0.201617 -0.095826 1.054933 
0.203842 -0.096034 1.057223 
0.206060 -0.096235 1.059441 
0.208316 -0.096450 1.061809 
0.210579 -0.096665 1.064175 
0.212893 -0.096899 1.066755 
0.215125 -0.097093 1.068883 
0.217311 -0.097263 1.070752 
0.219521 -0.097440 1.072702 
0.221763 -0.097628 1.074780 
0.223923 -0.097778 1.076432 
0.226193 -0.097973 1.078577 
0.228548 -0.098202 1.081094 
0.230977 -0.098458 1.083914 
0.233432 -0.098721 1.086812 
0.235896 -0.098985 1.089710 
0.238334 -0.099232 1.092439 
0.240657 -0.099429 1.094605 
0.242961 -0.099615 1.096653 
0.245251 -0.099793 1.098607 
0.247556 -0.099973 1.100595 
-0.031749 -0.083918 0.941412 
-0.030137 -0.083861 0.940773 
-0.028517 -0.083775 0.939803 
-0.026881 -0.083628 0.938161 
-0.025246 -0.083464 0.936324 
-0.023619 -0.083310 0.934590 
-0.021998 -0.083156 0.932860 
-0.020382 -0.082996 0.931067 
-0.018775 -0.082850 0.929437 
-0.017172 -0.082698 0.927723 
-0.015578 -0.082562 0.926202 
-0.013986 -0.082406 0.924445 
-0.012404 -0.082282 0.923054 
-0.010829 -0.082166 0.921756 
-0.009258 -0.082060 0.920570 
-0.007693 -0.081958 0.919426 
-0.006132 -0.081880 0.918554 
-0.004575 -0.081795 0.917596 
-0.003020 -0.081708 0.916615 
-0.001469 -0.081621 0.915642 
0.000079 -0.081517 0.914474 
0.001623 -0.081445 0.913667 
0.003166 -0.081390 0.913053 
0.004706 -0.081340 0.912496 
0.006246 -0.081300 0.912041 
0.007784 -0.081264 0.911642 
0.009319 -0.081211 0.911049 
0.010850 -0.081143 0.910281 
0.012378 -0.081067 0.909434 
0.013905 -0.081007 0.908757 
0.015430 -0.080946 0.908076 
0.016951 -0.080879 0.907321 
0.018469 -0.080810 0.906552 
0.019988 -0.080757 0.905955 
0.021502 -0.080689 0.905192 
0.023017 -0.080638 0.904617 
0.024534 -0.080595 0.904136 
0.026054 -0.080570 0.903853 
0.027574 -0.080545 0.903579 
0.029101 -0.080545 0.903569 
0.030628 -0.080545 0.903569 
0.032156 -0.080545 0.903579 
0.033691 -0.080562 0.903762 
0.035223 -0.080571 0.903867 
0.036759 -0.080589 0.904064 
0.038299 -0.080614 0.904347 
0.039837 -0.080632 0.904551 
0.041371 -0.080642 0.904662 
0.042930 -0.080697 0.905279 
0.044484 -0.080741 0.905767 
0.046037 -0.080779 0.906200 
0.047604 -0.080838 0.906864 
0.049177 -0.080903 0.907593 
0.050728 -0.080931 0.907899 
0.052286 -0.080967 0.908303 
0.053849 -0.081008 0.908770 
0.055393 -0.081019 0.908886 
0.056929 -0.081019 0.908888 
0.058476 -0.081033 0.909046 
0.060030 -0.081056 0.909307 
0.061576 -0.081067 0.909433 
0.063128 -0.081086 0.909640 
0.064678 -0.081101 0.909810 
0.066234 -0.081123 0.910056 
0.067794 -0.081149 0.910346 
0.069365 -0.081187 0.910773 
0.070958 -0.081248 0.911455 
0.072573 -0.081331 0.912389 
0.074208 -0.081432 0.913527 
0.075844 -0.081531 0.914630 
0.077514 -0.081662 0.916099 
0.079173 -0.081775 0.917373 
0.080826 -0.081879 0.918534 
0.082466 -0.081965 0.919502 
0.084109 -0.082052 0.920475 
0.085801 -0.082182 0.921933 
0.087538 -0.082349 0.923815 
0.089278 -0.082515 0.925668 
0.091041 -0.082694 0.927680 
0.092813 -0.082876 0.929720 
0.094546 -0.083018 0.931313 
0.096267 -0.083144 0.932733 
0.098033 -0.083305 0.934532 
0.099787 -0.083450 0.936167 
0.101568 -0.083614 0.938002 
0.103388 -0.083804 0.940129 
0.105283 -0.084048 0.942874 
0.107187 -0.084292 0.945607 
0.109103 -0.084538 0.948365 
0.110987 -0.084752 0.950773 
0.112860 -0.084952 0.953011 
0.114673 -0.085102 0.954693 
0.116459 -0.085228 0.956103 
0.118223 -0.085334 0.957298 
0.119972 -0.085427 0.958343 
0.121696 -0.085500 0.959160 
0.123424 -0.085574 0.959993 
0.125185 -0.085669 0.961054 
0.126968 -0.085776 0.962251 
0.128807 -0.085917 0.963836 
0.130656 -0.086062 0.965465 
0.132529 -0.086218 0.967217 
0.134394 -0.086366 0.968874 
0.136259 -0.086510 0.970491 
0.138111 -0.086643 0.971981 
0.139912 -0.086741 0.973077 
0.141684 -0.086819 0.973952 
0.143547 -0.086950 0.975424 
0.145471 -0.087114 0.977268 
0.147480 -0.087326 0.979643 
0.149552 -0.087569 0.982375 
0.151743 -0.087876 0.985814 
0.153852 -0.088130 0.988660 
0.155921 -0.088355 0.991188 
0.157891 -0.088520 0.993038 
0.159873 -0.088688 0.994926 
0.161847 -0.088848 0.996723 
0.163892 -0.089044 0.998920 
0.166063 -0.089303 1.001828 
0.168396 -0.089644 1.005647 
0.170714 -0.089969 1.009298 
0.173068 -0.090307 1.013090 
0.175411 -0.090633 1.016742 
0.177716 -0.090933 1.020107 
0.179995 -0.091214 1.023264 
0.182390 -0.091548 1.027005 
0.184730 -0.091848 1.030375 
0.187122 -0.092168 1.033967 
0.189525 -0.092488 1.037554 
0.191982 -0.092828 1.041367 
0.194426 -0.093155 1.045040 
0.196845 -0.093465 1.048513 
0.199222 -0.093750 1.051705 
0.201530 -0.093997 1.054478 
0.203752 -0.094200 1.056757 
0.205967 -0.094396 1.058961 
0.208194 -0.094595 1.061186 
0.210425 -0.094792 1.063397 
0.212734 -0.095020 1.065957 
0.214959 -0.095208 1.068061 
0.217147 -0.095375 1.069941 
0.219408 -0.095572 1.072152 
0.221678 -0.095770 1.074370 
0.223868 -0.095930 1.076165 
0.226164 -0.096133 1.078442 
0.228545 -0.096368 1.081080 
0.230949 -0.096609 1.083783 
0.233378 -0.096856 1.086560 
0.235812 -0.097103 1.089322 
0.238247 -0.097345 1.092041 
0.240545 -0.097528 1.094094 
0.242848 -0.097711 1.096143 
0.245134 -0.097884 1.098082 
0.247404 -0.098047 1.099920 
-0.030190 -0.082410 0.942416 
-0.028566 -0.082322 0.941408 
-0.026925 -0.082172 0.939696 
-0.025287 -0.082012 0.937866 
-0.023663 -0.081876 0.936307 
-0.022039 -0.081725 0.934580 
-0.020418 -0.081560 0.932692 
-0.018804 -0.081400 0.930865 
-0.017196 -0.081240 0.929032 
-0.015597 -0.081089 0.927314 
-0.014003 -0.080936 0.925559 
-0.012420 -0.080822 0.924257 
-0.010844 -0.080716 0.923049 
-0.009271 -0.080613 0.921865 
-0.007704 -0.080518 0.920786 
-0.006141 -0.080432 0.919800 
-0.004581 -0.080347 0.918822 
-0.003024 -0.080254 0.917756 
-0.001471 -0.080176 0.916871 
0.000079 -0.080068 0.915631 
0.001625 -0.079996 0.914816 
0.003169 -0.079927 0.914024 
0.004711 -0.079877 0.913455 
0.006252 -0.079829 0.912896 
0.007791 -0.079786 0.912412 
0.009326 -0.079726 0.911729 
0.010859 -0.079666 0.911036 
0.012388 -0.079592 0.910190 
0.013918 -0.079541 0.909611 
0.015446 -0.079492 0.909049 
0.016971 -0.079435 0.908398 
0.018493 -0.079377 0.907737 
0.020016 -0.079333 0.907225 
0.021530 -0.079259 0.906383 
0.023048 -0.079209 0.905810 
0.024566 -0.079166 0.905319 
0.026085 -0.079132 0.904934 
0.027604 -0.079100 0.904566 
0.029132 -0.079099 0.904550 
0.030662 -0.079099 0.904550 
0.032191 -0.079100 0.904566 
0.033728 -0.079117 0.904756 
0.035261 -0.079125 0.904856 
0.036795 -0.079134 0.904951 
0.038332 -0.079149 0.905130 
0.039866 -0.079158 0.905225 
0.041393 -0.079151 0.905143 
0.042943 -0.079188 0.905570 
0.044493 -0.079221 0.905948 
0.046046 -0.079258 0.906369 
0.047614 -0.079317 0.907049 
0.049192 -0.079390 0.907884 
0.050751 -0.079427 0.908303 
0.052319 -0.079477 0.908870 
0.053883 -0.079518 0.909339 
0.055427 -0.079527 0.909449 
0.056965 -0.079527 0.909449 
0.058512 -0.079540 0.909600 
0.060062 -0.079557 0.909786 
0.061609 -0.079568 0.909918 
0.063162 -0.079587 0.910130 
0.064711 -0.079600 0.910286 
0.066262 -0.079614 0.910441 
0.067815 -0.079630 0.910628 
0.069379 -0.079658 0.910948 
0.070964 -0.079710 0.911538 
0.072586 -0.079799 0.912555 
0.074222 -0.079899 0.913700 
0.075859 -0.079996 0.914811 
0.077529 -0.080124 0.916278 
0.079195 -0.080243 0.917632 
0.080843 -0.080338 0.918724 
0.082484 -0.080424 0.919707 
0.084129 -0.080511 0.920695 
0.085828 -0.080644 0.922222 
0.087557 -0.080801 0.924014 
0.089296 -0.080961 0.925850 
0.091076 -0.081153 0.928039 
0.092868 -0.081348 0.930277 
0.094615 -0.081499 0.931995 
0.096360 -0.081642 0.933631 
0.098127 -0.081799 0.935433 
0.099873 -0.081934 0.936977 
0.101644 -0.082085 0.938705 
0.103443 -0.082254 0.940628 
0.105316 -0.082476 0.943169 
0.107218 -0.082713 0.945882 
0.109136 -0.082955 0.948649 
0.111035 -0.083176 0.951179 
0.112936 -0.083393 0.953657 
0.114775 -0.083558 0.955545 
0.116588 -0.083699 0.957162 
0.118379 -0.083822 0.958564 
0.120155 -0.083931 0.959808 
0.121896 -0.084013 0.960743 
0.123630 -0.084087 0.961593 
0.125395 -0.084181 0.962667 
0.127179 -0.084284 0.963852 
0.129010 -0.084416 0.965357 
0.130861 -0.084558 0.966978 
0.132734 -0.084710 0.968719 
0.134573 -0.084837 0.970167 
0.136424 -0.084968 0.971673 
0.138266 -0.085091 0.973071 
0.140055 -0.085178 0.974076 
0.141862 -0.085275 0.975175 
0.143776 -0.085432 0.976979 
0.145739 -0.085615 0.979069 
0.147757 -0.085826 0.981483 
0.149849 -0.086074 0.984322 
0.152010 -0.086357 0.987551 
0.154088 -0.086586 0.990174 
0.156107 -0.086778 0.992368 
0.158073 -0.086937 0.994184 
0.160052 -0.087099 0.996038 
0.162044 -0.087265 0.997940 
0.164130 -0.087478 1.000369 
0.166326 -0.087744 1.003417 
0.168630 -0.088061 1.007045 
0.170896 -0.088353 1.010377 
0.173229 -0.088672 1.014033 
0.175562 -0.088986 1.017620 
0.177896 -0.089294 1.021144 
0.180246 -0.089604 1.024686 
0.182684 -0.089952 1.028664 
0.185045 -0.090255 1.032132 
0.187419 -0.090559 1.035610 
0.189758 -0.090841 1.038828 
0.192125 -0.091130 1.042139 
0.194491 -0.091415 1.045390 
0.196835 -0.091683 1.048464 
0.199147 -0.091932 1.051308 
0.201452 -0.092173 1.054068 
0.203696 -0.092383 1.056469 
0.205907 -0.092574 1.058654 
0.208108 -0.092758 1.060750 
0.210337 -0.092950 1.062948 
0.212595 -0.093152 1.065261 
0.214796 -0.093326 1.067250 
0.217006 -0.093501 1.069250 
0.219294 -0.093706 1.071595 
0.221572 -0.093904 1.073858 
0.223813 -0.094082 1.075900 
0.226133 -0.094292 1.078290 
0.228491 -0.094513 1.080825 
0.230870 -0.094739 1.083411 
0.233293 -0.094980 1.086166 
0.235724 -0.095220 1.088914 
0.238159 -0.095459 1.091638 
0.240486 -0.095650 1.093828 
0.242819 -0.095841 1.096012 
0.245104 -0.096010 1.097944 
0.247338 -0.096157 1.099627 
-0.031844 -0.080968 0.944226 
-0.030222 -0.080898 0.943416 
-0.028598 -0.080816 0.942455 
-0.026957 -0.080673 0.940787 
-0.025322 -0.080532 0.939149 
-0.023702 -0.080423 0.937880 
-0.022079 -0.080285 0.936271 
-0.020455 -0.080123 0.934379 
-0.018838 -0.079966 0.932547 
-0.017225 -0.079799 0.930597 
-0.015622 -0.079643 0.928782 
-0.014025 -0.079492 0.927015 
-0.012440 -0.079382 0.925730 
-0.010860 -0.079271 0.924444 
-0.009284 -0.079162 0.923164 
-0.007715 -0.079066 0.922054 
-0.006148 -0.078973 0.920964 
-0.004586 -0.078881 0.919889 
-0.003028 -0.078789 0.918821 
-0.001473 -0.078719 0.918007 
0.000079 -0.078606 0.916687 
0.001627 -0.078538 0.915887 
0.003173 -0.078470 0.915098 
0.004717 -0.078420 0.914518 
0.006258 -0.078365 0.913875 
0.007799 -0.078323 0.913387 
0.009335 -0.078256 0.912605 
0.010870 -0.078196 0.911910 
0.012400 -0.078123 0.911056 
0.013931 -0.078073 0.910473 
0.015461 -0.078026 0.909921 
0.016989 -0.077978 0.909366 
0.018515 -0.077930 0.908805 
0.020042 -0.077896 0.908403 
0.021560 -0.077832 0.907664 
0.023080 -0.077783 0.907082 
0.024600 -0.077740 0.906590 
0.026119 -0.077699 0.906108 
0.027637 -0.077659 0.905645 
0.029164 -0.077650 0.905534 
0.030695 -0.077650 0.905534 
0.032227 -0.077652 0.905561 
0.033765 -0.077668 0.905750 
0.035299 -0.077676 0.905840 
0.036834 -0.077683 0.905921 
0.038369 -0.077689 0.905997 
0.039901 -0.077690 0.906001 
0.041424 -0.077674 0.905817 
0.042966 -0.077694 0.906049 
0.044511 -0.077717 0.906320 
0.046064 -0.077753 0.906733 
0.047633 -0.077811 0.907419 
0.049213 -0.077884 0.908267 
0.050777 -0.077927 0.908770 
0.052341 -0.077969 0.909254 
0.053900 -0.078001 0.909631 
0.055444 -0.078010 0.909731 
0.056982 -0.078010 0.909731 
0.058531 -0.078024 0.909893 
0.060087 -0.078047 0.910170 
0.061641 -0.078067 0.910397 
0.063196 -0.078086 0.910622 
0.064747 -0.078101 0.910793 
0.066298 -0.078113 0.910936 
0.067844 -0.078121 0.911027 
0.069402 -0.078140 0.911250 
0.070993 -0.078196 0.911905 
0.072624 -0.078292 0.913023 
0.074269 -0.078400 0.914283 
0.075923 -0.078512 0.915589 
0.077595 -0.078637 0.917051 
0.079253 -0.078745 0.918302 
0.080893 -0.078829 0.919291 
0.082519 -0.078899 0.920100 
0.084164 -0.078983 0.921080 
0.085872 -0.079122 0.922697 
0.087592 -0.079267 0.924390 
0.089333 -0.079425 0.926234 
0.091122 -0.079620 0.928510 
0.092919 -0.079815 0.930788 
0.094680 -0.079974 0.932633 
0.096447 -0.080131 0.934475 
0.098216 -0.080287 0.936284 
0.099961 -0.080417 0.937800 
0.101721 -0.080555 0.939417 
0.103501 -0.080704 0.941157 
0.105353 -0.080905 0.943498 
0.107244 -0.081129 0.946104 
0.109160 -0.081365 0.948858 
0.111071 -0.081591 0.951491 
0.113010 -0.081830 0.954278 
0.114877 -0.082011 0.956394 
0.116717 -0.082168 0.958227 
0.118533 -0.082304 0.959810 
0.120337 -0.082428 0.961258 
0.122086 -0.082512 0.962237 
0.123837 -0.082595 0.963207 
0.125607 -0.082688 0.964291 
0.127393 -0.082789 0.965469 
0.129200 -0.082902 0.966780 
0.131039 -0.083031 0.968294 
0.132887 -0.083164 0.969835 
0.134723 -0.083285 0.971246 
0.136576 -0.083414 0.972754 
0.138435 -0.083543 0.974262 
0.140246 -0.083641 0.975404 
0.142102 -0.083763 0.976826 
0.144069 -0.083947 0.978968 
0.146059 -0.084140 0.981221 
0.148070 -0.084341 0.983560 
0.150163 -0.084583 0.986384 
0.152290 -0.084839 0.989372 
0.154304 -0.085027 0.991565 
0.156287 -0.085194 0.993518 
0.158250 -0.085347 0.995295 
0.160230 -0.085506 0.997151 
0.162248 -0.085681 0.999192 
0.164378 -0.085911 1.001879 
0.166586 -0.086177 1.004982 
0.168876 -0.086480 1.008514 
0.171124 -0.086756 1.011725 
0.173455 -0.087067 1.015357 
0.175790 -0.087375 1.018944 
0.178151 -0.087689 1.022604 
0.180527 -0.088004 1.026286 
0.182967 -0.088345 1.030258 
0.185327 -0.088641 1.033706 
0.187661 -0.088918 1.036943 
0.189958 -0.089174 1.039922 
0.192260 -0.089427 1.042874 
0.194552 -0.089670 1.045716 
0.196823 -0.089900 1.048396 
0.199085 -0.090122 1.050982 
0.201348 -0.090340 1.053526 
0.203592 -0.090546 1.055927 
0.205778 -0.090723 1.057990 
0.207953 -0.090892 1.059960 
0.210181 -0.091081 1.062161 
0.212416 -0.091269 1.064362 
0.214616 -0.091440 1.066352 
0.216871 -0.091631 1.068584 
0.219186 -0.091844 1.071066 
0.221468 -0.092040 1.073352 
0.223758 -0.092236 1.075640 
0.226106 -0.092453 1.078161 
0.228436 -0.092658 1.080562 
0.230785 -0.092869 1.083014 
0.233201 -0.093102 1.085736 
0.235627 -0.093336 1.088466 
0.238035 -0.093560 1.091070 
0.240395 -0.093760 1.093414 
0.242732 -0.093950 1.095619 
0.245015 -0.094115 1.097547 
0.247189 -0.094236 1.098963 
0.250504 -0.096662 1.105395 
0.249208 -0.094297 1.099675 
-0.031849 -0.079379 0.944374 
-0.030228 -0.079316 0.943613 
-0.028608 -0.079247 0.942801 
-0.026971 -0.079120 0.941287 
-0.025341 -0.079000 0.939857 
-0.023726 -0.078911 0.938804 
-0.022105 -0.078793 0.937395 
-0.020484 -0.078651 0.935711 
-0.018869 -0.078513 0.934063 
-0.017253 -0.078348 0.932101 
-0.015645 -0.078186 0.930177 
-0.014044 -0.078028 0.928301 
-0.012456 -0.077912 0.926920 
-0.010874 -0.077805 0.925645 
-0.009297 -0.077698 0.924366 
-0.007725 -0.077605 0.923259 
-0.006157 -0.077519 0.922244 
-0.004592 -0.077421 0.921080 
-0.003031 -0.077331 0.919999 
-0.001475 -0.077263 0.919191 
0.000079 -0.077150 0.917853 
0.001629 -0.077082 0.917047 
0.003177 -0.077024 0.916348 
0.004723 -0.076970 0.915703 
0.006266 -0.076915 0.915049 
0.007809 -0.076873 0.914550 
0.009346 -0.076799 0.913678 
0.010880 -0.076725 0.912796 
0.012412 -0.076652 0.911925 
0.013944 -0.076603 0.911343 
0.015477 -0.076562 0.910857 
0.017007 -0.076517 0.910316 
0.018536 -0.076476 0.909834 
0.020065 -0.076443 0.909434 
0.021587 -0.076388 0.908784 
0.023109 -0.076341 0.908223 
0.024631 -0.076299 0.907729 
0.026151 -0.076258 0.907237 
0.027673 -0.076225 0.906849 
0.029203 -0.076216 0.906742 
0.030733 -0.076210 0.906667 
0.032267 -0.076211 0.906682 
0.033803 -0.076219 0.906773 
0.035332 -0.076211 0.906682 
0.036861 -0.076203 0.906588 
0.038394 -0.076203 0.906583 
0.039922 -0.076196 0.906497 
0.041446 -0.076180 0.906313 
0.042990 -0.076200 0.906545 
0.044535 -0.076221 0.906804 
0.046089 -0.076256 0.907215 
0.047658 -0.076313 0.907898 
0.049235 -0.076378 0.908664 
0.050793 -0.076411 0.909061 
0.052352 -0.076443 0.909442 
0.053906 -0.076467 0.909724 
0.055446 -0.076469 0.909751 
0.056989 -0.076476 0.909836 
0.058543 -0.076497 0.910087 
0.060106 -0.076529 0.910459 
0.061668 -0.076557 0.910792 
0.063229 -0.076583 0.911104 
0.064783 -0.076598 0.911287 
0.066328 -0.076604 0.911357 
0.067869 -0.076604 0.911357 
0.069431 -0.076628 0.911635 
0.071037 -0.076698 0.912474 
0.072679 -0.076803 0.913724 
0.074345 -0.076928 0.915209 
0.076017 -0.077055 0.916715 
0.077681 -0.077168 0.918064 
0.079324 -0.077257 0.919122 
0.080961 -0.077336 0.920069 
0.082573 -0.077389 0.920693 
0.084217 -0.077469 0.921651 
0.085926 -0.077606 0.923278 
0.087639 -0.077741 0.924885 
0.089374 -0.077891 0.926662 
0.091173 -0.078090 0.929031 
0.092973 -0.078282 0.931323 
0.094747 -0.078448 0.933294 
0.096525 -0.078611 0.935237 
0.098286 -0.078755 0.936948 
0.100028 -0.078880 0.938434 
0.101777 -0.079006 0.939936 
0.103548 -0.079145 0.941586 
0.105393 -0.079335 0.943851 
0.107282 -0.079554 0.946447 
0.109195 -0.079782 0.949167 
0.111107 -0.080003 0.951796 
0.113060 -0.080248 0.954702 
0.114956 -0.080445 0.957048 
0.116822 -0.080616 0.959089 
0.118654 -0.080759 0.960788 
0.120486 -0.080899 0.962452 
0.122251 -0.080990 0.963539 
0.124009 -0.081075 0.964543 
0.125792 -0.081173 0.965708 
0.127579 -0.081271 0.966878 
0.129373 -0.081372 0.968075 
0.131189 -0.081483 0.969403 
0.133035 -0.081610 0.970915 
0.134860 -0.081721 0.972234 
0.136714 -0.081847 0.973736 
0.138591 -0.081984 0.975363 
0.140451 -0.082107 0.976826 
0.142361 -0.082257 0.978603 
0.144368 -0.082458 0.981002 
0.146397 -0.082667 0.983491 
0.148409 -0.082863 0.985814 
0.150470 -0.083080 0.988404 
0.152531 -0.083293 0.990938 
0.154492 -0.083448 0.992776 
0.156426 -0.083584 0.994399 
0.158375 -0.083726 0.996080 
0.160346 -0.083876 0.997871 
0.162407 -0.084070 1.000173 
0.164601 -0.084328 1.003241 
0.166851 -0.084608 1.006581 
0.169147 -0.084907 1.010129 
0.171423 -0.085189 1.013494 
0.173734 -0.085483 1.016993 
0.176035 -0.085767 1.020364 
0.178381 -0.086066 1.023924 
0.180737 -0.086365 1.027482 
0.183139 -0.086680 1.031224 
0.185457 -0.086949 1.034429 
0.187768 -0.087210 1.037538 
0.190047 -0.087452 1.040410 
0.192308 -0.087681 1.043136 
0.194534 -0.087890 1.045620 
0.196774 -0.088101 1.048138 
0.198985 -0.088296 1.050453 
0.201203 -0.088490 1.052766 
0.203424 -0.088683 1.055057 
0.205631 -0.088866 1.057232 
0.207803 -0.089031 1.059196 
0.210052 -0.089225 1.061511 
0.212290 -0.089412 1.063731 
0.214512 -0.089589 1.065837 
0.216789 -0.089786 1.068176 
0.219105 -0.089995 1.070672 
0.221364 -0.090178 1.072847 
0.223679 -0.090381 1.075257 
0.226022 -0.090592 1.077763 
0.228327 -0.090783 1.080047 
0.230670 -0.090987 1.082474 
0.233076 -0.091213 1.085154 
0.235500 -0.091442 1.087879 
0.237911 -0.091662 1.090500 
0.240302 -0.091871 1.092989 
0.242640 -0.092057 1.095202 
0.244922 -0.092219 1.097130 
0.247064 -0.092327 1.098410 
0.250214 -0.092807 1.104115 
-0.031846 -0.077770 0.944276 
-0.030224 -0.077706 0.943497 
-0.028608 -0.077649 0.942803 
-0.026976 -0.077540 0.941472 
-0.025358 -0.077457 0.940471 
-0.023747 -0.077388 0.939635 
-0.022132 -0.077297 0.938528 
-0.020513 -0.077175 0.937046 
-0.018899 -0.077055 0.935592 
-0.017280 -0.076888 0.933565 
-0.015669 -0.076728 0.931614 
-0.014065 -0.076570 0.929703 
-0.012475 -0.076454 0.928288 
-0.010888 -0.076334 0.926830 
-0.009309 -0.076236 0.925649 
-0.007736 -0.076152 0.924629 
-0.006167 -0.076077 0.923714 
-0.004600 -0.075983 0.922576 
-0.003036 -0.075887 0.921412 
-0.001477 -0.075811 0.920485 
0.000079 -0.075699 0.919122 
0.001631 -0.075618 0.918136 
0.003181 -0.075561 0.917444 
0.004729 -0.075521 0.916965 
0.006275 -0.075469 0.916325 
0.007820 -0.075427 0.915822 
0.009360 -0.075361 0.915014 
0.010895 -0.075280 0.914042 
0.012427 -0.075200 0.913071 
0.013962 -0.075151 0.912472 
0.015493 -0.075097 0.911815 
0.017022 -0.075044 0.911165 
0.018554 -0.075009 0.910751 
0.020085 -0.074976 0.910350 
0.021609 -0.074924 0.909710 
0.023135 -0.074885 0.909239 
0.024659 -0.074845 0.908749 
0.026178 -0.074797 0.908167 
0.027702 -0.074765 0.907779 
0.029233 -0.074756 0.907676 
0.030762 -0.074743 0.907515 
0.032293 -0.074736 0.907433 
0.033830 -0.074742 0.907499 
0.035357 -0.074726 0.907314 
0.036887 -0.074718 0.907219 
0.038421 -0.074719 0.907220 
0.039954 -0.074719 0.907219 
0.041476 -0.074697 0.906964 
0.043021 -0.074717 0.907201 
0.044564 -0.074733 0.907394 
0.046119 -0.074766 0.907800 
0.047680 -0.074809 0.908313 
0.049251 -0.074863 0.908968 
0.050809 -0.074893 0.909341 
0.052367 -0.074923 0.909707 
0.053922 -0.074946 0.909987 
0.055466 -0.074955 0.910094 
0.057016 -0.074970 0.910271 
0.058572 -0.074992 0.910543 
0.060131 -0.075017 0.910841 
0.061694 -0.075044 0.911171 
0.063255 -0.075069 0.911480 
0.064816 -0.075092 0.911752 
0.066369 -0.075106 0.911919 
0.067924 -0.075121 0.912100 
0.069495 -0.075152 0.912479 
0.071118 -0.075237 0.913513 
0.072765 -0.075343 0.914799 
0.074436 -0.075469 0.916335 
0.076110 -0.075593 0.917841 
0.077776 -0.075705 0.919192 
0.079411 -0.075782 0.920135 
0.081040 -0.075851 0.920970 
0.082643 -0.075893 0.921478 
0.084279 -0.075964 0.922340 
0.085974 -0.076083 0.923792 
0.087673 -0.076203 0.925242 
0.089406 -0.076347 0.926994 
0.091205 -0.076542 0.929360 
0.093005 -0.076731 0.931649 
0.094798 -0.076908 0.933797 
0.096588 -0.077076 0.935847 
0.098341 -0.077210 0.937468 
0.100082 -0.077331 0.938938 
0.101830 -0.077453 0.940425 
0.103592 -0.077582 0.941991 
0.105418 -0.077754 0.944080 
0.107307 -0.077967 0.946662 
0.109207 -0.078182 0.949272 
0.111130 -0.078406 0.951990 
0.113098 -0.078656 0.955022 
0.115022 -0.078867 0.957595 
0.116917 -0.079054 0.959864 
0.118774 -0.079211 0.961764 
0.120621 -0.079356 0.963532 
0.122392 -0.079448 0.964648 
0.124177 -0.079547 0.965849 
0.125961 -0.079643 0.967011 
0.127762 -0.079746 0.968266 
0.129557 -0.079844 0.969449 
0.131375 -0.079953 0.970777 
0.133224 -0.080078 0.972291 
0.135065 -0.080195 0.973712 
0.136938 -0.080328 0.975327 
0.138838 -0.080474 0.977098 
0.140749 -0.080622 0.978898 
0.142698 -0.080789 0.980920 
0.144729 -0.080997 0.983451 
0.146747 -0.081194 0.985843 
0.148730 -0.081367 0.987945 
0.150739 -0.081551 0.990172 
0.152734 -0.081722 0.992258 
0.154644 -0.081845 0.993753 
0.156546 -0.081961 0.995158 
0.158514 -0.082109 0.996957 
0.160529 -0.082278 0.999008 
0.162669 -0.082507 1.001786 
0.164943 -0.082799 1.005326 
0.167237 -0.083094 1.008912 
0.169534 -0.083385 1.012445 
0.171795 -0.083652 1.015689 
0.174054 -0.083913 1.018860 
0.176300 -0.084164 1.021901 
0.178608 -0.084438 1.025230 
0.180923 -0.084710 1.028540 
0.183244 -0.084980 1.031816 
0.185497 -0.085214 1.034655 
0.187766 -0.085450 1.037524 
0.190045 -0.085687 1.040402 
0.192271 -0.085896 1.042935 
0.194477 -0.086092 1.045314 
0.196729 -0.086305 1.047898 
0.198912 -0.086483 1.050067 
0.201107 -0.086664 1.052263 
0.203328 -0.086853 1.054557 
0.205554 -0.087041 1.056836 
0.207724 -0.087202 1.058793 
0.209997 -0.087403 1.061230 
0.212213 -0.087577 1.063345 
0.214459 -0.087761 1.065574 
0.216735 -0.087953 1.067913 
0.219025 -0.088148 1.070280 
0.221280 -0.088326 1.072442 
0.223594 -0.088525 1.074850 
0.225911 -0.088721 1.077232 
0.228212 -0.088908 1.079503 
0.230551 -0.089106 1.081914 
0.232930 -0.089317 1.084476 
0.235354 -0.089542 1.087203 
0.237764 -0.089758 1.089826 
0.240181 -0.089973 1.092440 
0.242515 -0.090154 1.094639 
0.244826 -0.090324 1.096700 
0.246994 -0.090439 1.098096 
-0.030205 -0.076058 0.942894 
-0.028597 -0.076021 0.942429 
-0.026979 -0.075951 0.941562 
-0.025371 -0.075902 0.940956 
-0.023767 -0.075861 0.940450 
-0.022156 -0.075789 0.939552 
-0.020542 -0.075692 0.938357 
-0.018928 -0.075585 0.937027 
-0.017309 -0.075431 0.935112 
-0.015694 -0.075266 0.933071 
-0.014087 -0.075108 0.931114 
-0.012491 -0.074977 0.929484 
-0.010902 -0.074857 0.928001 
-0.009322 -0.074770 0.926919 
-0.007748 -0.074697 0.926019 
-0.006177 -0.074633 0.925218 
-0.004608 -0.074554 0.924250 
-0.003042 -0.074461 0.923095 
-0.001479 -0.074364 0.921894 
0.000079 -0.074245 0.920412 
0.001633 -0.074162 0.919379 
0.003185 -0.074099 0.918603 
0.004735 -0.074056 0.918068 
0.006284 -0.074018 0.917605 
0.007832 -0.073984 0.917176 
0.009374 -0.073920 0.916379 
0.010911 -0.073840 0.915398 
0.012447 -0.073769 0.914517 
0.013984 -0.073720 0.913902 
0.015516 -0.073659 0.913150 
0.017044 -0.073591 0.912312 
0.018574 -0.073543 0.911715 
0.020104 -0.073502 0.911197 
0.021625 -0.073436 0.910382 
0.023150 -0.073391 0.909827 
0.024675 -0.073352 0.909337 
0.026198 -0.073311 0.908841 
0.027722 -0.073280 0.908452 
0.029255 -0.073273 0.908361 
0.030785 -0.073260 0.908202 
0.032317 -0.073252 0.908101 
0.033851 -0.073248 0.908060 
0.035378 -0.073233 0.907862 
0.036909 -0.073225 0.907774 
0.038444 -0.073226 0.907778 
0.039983 -0.073233 0.907865 
0.041510 -0.073219 0.907694 
0.043052 -0.073233 0.907868 
0.044597 -0.073249 0.908067 
0.046153 -0.073282 0.908472 
0.047710 -0.073314 0.908877 
0.049276 -0.073359 0.909433 
0.050834 -0.073389 0.909801 
0.052393 -0.073418 0.910164 
0.053949 -0.073441 0.910447 
0.055495 -0.073450 0.910558 
0.057046 -0.073465 0.910744 
0.058603 -0.073487 0.911018 
0.060158 -0.073505 0.911241 
0.061713 -0.073523 0.911464 
0.063274 -0.073546 0.911751 
0.064841 -0.073575 0.912105 
0.066403 -0.073597 0.912385 
0.067974 -0.073629 0.912773 
0.069562 -0.073676 0.913354 
0.071202 -0.073775 0.914586 
0.072852 -0.073881 0.915895 
0.074524 -0.074003 0.917418 
0.076198 -0.074123 0.918907 
0.077866 -0.074232 0.920254 
0.079496 -0.074301 0.921113 
0.081121 -0.074363 0.921881 
0.082715 -0.074396 0.922280 
0.084361 -0.074472 0.923233 
0.086047 -0.074581 0.924578 
0.087739 -0.074690 0.925934 
0.089470 -0.074830 0.927660 
0.091268 -0.075018 0.929997 
0.093050 -0.075188 0.932099 
0.094844 -0.075361 0.934253 
0.096636 -0.075527 0.936308 
0.098380 -0.075651 0.937844 
0.100113 -0.075762 0.939225 
0.101861 -0.075882 0.940703 
0.103623 -0.076008 0.942271 
0.105429 -0.076162 0.944180 
0.107306 -0.076362 0.946659 
0.109205 -0.076571 0.949246 
0.111127 -0.076790 0.951970 
0.113100 -0.077038 0.955037 
0.115050 -0.077264 0.957835 
0.116983 -0.077471 0.960408 
0.118867 -0.077641 0.962516 
0.120742 -0.077801 0.964498 
0.122527 -0.077899 0.965716 
0.124328 -0.078005 0.967022 
0.126115 -0.078099 0.968188 
0.127930 -0.078208 0.969542 
0.129731 -0.078306 0.970755 
0.131579 -0.078429 0.972285 
0.133448 -0.078562 0.973929 
0.135321 -0.078693 0.975559 
0.137216 -0.078835 0.977312 
0.139150 -0.078995 0.979295 
0.141100 -0.079160 0.981342 
0.143087 -0.079341 0.983595 
0.145111 -0.079540 0.986051 
0.147114 -0.079722 0.988310 
0.149048 -0.079863 0.990056 
0.150979 -0.079999 0.991745 
0.152909 -0.080132 0.993394 
0.154799 -0.080241 0.994749 
0.156685 -0.080346 0.996048 
0.158675 -0.080501 0.997971 
0.160797 -0.080719 1.000677 
0.163020 -0.080983 1.003949 
0.165359 -0.081299 1.007859 
0.167700 -0.081609 1.011706 
0.170003 -0.081895 1.015247 
0.172216 -0.082131 1.018177 
0.174422 -0.082360 1.021016 
0.176595 -0.082569 1.023611 
0.178823 -0.082799 1.026462 
0.181070 -0.083034 1.029374 
0.183286 -0.083250 1.032054 
0.185473 -0.083449 1.034522 
0.187695 -0.083660 1.037135 
0.189974 -0.083892 1.040009 
0.192202 -0.084098 1.042559 
0.194410 -0.084291 1.044955 
0.196662 -0.084499 1.047538 
0.198838 -0.084672 1.049681 
0.201032 -0.084849 1.051874 
0.203232 -0.085025 1.054058 
0.205458 -0.085210 1.056342 
0.207646 -0.085375 1.058393 
0.209943 -0.085582 1.060959 
0.212139 -0.085745 1.062978 
0.214411 -0.085935 1.065334 
0.216683 -0.086122 1.067658 
0.218944 -0.086302 1.069884 
0.221171 -0.086466 1.071912 
0.223477 -0.086657 1.074287 
0.225768 -0.086840 1.076553 
0.228069 -0.087023 1.078826 
0.230406 -0.087218 1.081234 
0.232814 -0.087435 1.083936 
0.235240 -0.087657 1.086676 
0.237649 -0.087868 1.089299 
0.240089 -0.088088 1.092020 
0.242420 -0.088264 1.094208 
0.244731 -0.088431 1.096277 
0.246930 -0.088555 1.097813 
-0.028608 -0.074453 0.942803 
-0.026999 -0.074411 0.942268 
-0.025401 -0.074397 0.942096 
-0.023805 -0.074385 0.941942 
-0.022198 -0.074337 0.941334 
-0.020583 -0.074250 0.940240 
-0.018969 -0.074154 0.939018 
-0.017346 -0.074002 0.937098 
-0.015726 -0.073834 0.934966 
-0.014112 -0.073664 0.932809 
-0.012511 -0.073518 0.930967 
-0.010919 -0.073400 0.929473 
-0.009336 -0.073308 0.928311 
-0.007759 -0.073238 0.927418 
-0.006188 -0.073190 0.926809 
-0.004616 -0.073114 0.925855 
-0.003047 -0.073030 0.924786 
-0.001482 -0.072933 0.923563 
0.000079 -0.072820 0.922130 
0.001636 -0.072738 0.921093 
0.003191 -0.072684 0.920409 
0.004744 -0.072636 0.919791 
0.006295 -0.072593 0.919246 
0.007845 -0.072551 0.918724 
0.009389 -0.072481 0.917833 
0.010928 -0.072398 0.916785 
0.012466 -0.072330 0.915919 
0.014005 -0.072281 0.915303 
0.015538 -0.072214 0.914451 
0.017066 -0.072139 0.913500 
0.018594 -0.072076 0.912705 
0.020122 -0.072021 0.912005 
0.021644 -0.071954 0.911162 
0.023167 -0.071903 0.910509 
0.024691 -0.071856 0.909921 
0.026214 -0.071817 0.909424 
0.027740 -0.071787 0.909040 
0.029274 -0.071780 0.908956 
0.030805 -0.071767 0.908792 
0.032338 -0.071759 0.908689 
0.033873 -0.071755 0.908644 
0.035401 -0.071739 0.908443 
0.036930 -0.071727 0.908281 
0.038465 -0.071727 0.908279 
0.040005 -0.071734 0.908375 
0.041536 -0.071727 0.908279 
0.043085 -0.071748 0.908551 
0.044634 -0.071770 0.908826 
0.046191 -0.071801 0.909226 
0.047749 -0.071832 0.909616 
0.049311 -0.071869 0.910079 
0.050861 -0.071884 0.910280 
0.052407 -0.071894 0.910397 
0.053958 -0.071910 0.910600 
0.055504 -0.071918 0.910707 
0.057056 -0.071934 0.910902 
0.058613 -0.071956 0.911180 
0.060173 -0.071978 0.911464 
0.061727 -0.071993 0.911660 
0.063281 -0.072008 0.911843 
0.064848 -0.072036 0.912200 
0.066425 -0.072074 0.912680 
0.068013 -0.072123 0.913294 
0.069625 -0.072192 0.914178 
0.071281 -0.072305 0.915605 
0.072930 -0.072406 0.916881 
0.074601 -0.072523 0.918364 
0.076267 -0.072631 0.919733 
0.077929 -0.072731 0.920995 
0.079555 -0.072794 0.921793 
0.081183 -0.072856 0.922585 
0.082771 -0.072882 0.922906 
0.084425 -0.072963 0.923934 
0.086095 -0.073055 0.925099 
0.087777 -0.073153 0.926339 
0.089489 -0.073272 0.927853 
0.091267 -0.073441 0.929988 
0.093030 -0.073592 0.931901 
0.094825 -0.073762 0.934058 
0.096617 -0.073925 0.936123 
0.098371 -0.074054 0.937754 
0.100113 -0.074170 0.939225 
0.101861 -0.074287 0.940703 
0.103623 -0.074411 0.942271 
0.105428 -0.074561 0.944170 
0.107304 -0.074755 0.946635 
0.109200 -0.074958 0.949206 
0.111124 -0.075175 0.951943 
0.113109 -0.075425 0.955116 
0.115075 -0.075656 0.958040 
0.117021 -0.075868 0.960723 
0.118931 -0.076051 0.963037 
0.120834 -0.076224 0.965230 
0.122648 -0.076337 0.966663 
0.124490 -0.076465 0.968286 
0.126308 -0.076575 0.969676 
0.128157 -0.076700 0.971264 
0.130004 -0.076821 0.972796 
0.131876 -0.076954 0.974478 
0.133755 -0.077087 0.976165 
0.135661 -0.077233 0.978011 
0.137577 -0.077381 0.979883 
0.139521 -0.077540 0.981903 
0.141493 -0.077712 0.984078 
0.143487 -0.077891 0.986345 
0.145484 -0.078068 0.988586 
0.147440 -0.078219 0.990497 
0.149324 -0.078329 0.991887 
0.151204 -0.078434 0.993223 
0.153087 -0.078539 0.994546 
0.154980 -0.078647 0.995911 
0.156883 -0.078757 0.997305 
0.158895 -0.078919 0.999356 
0.161078 -0.079161 1.002427 
0.163384 -0.079459 1.006193 
0.165760 -0.079783 1.010303 
0.168130 -0.080099 1.014297 
0.170455 -0.080386 1.017941 
0.172632 -0.080600 1.020640 
0.174765 -0.080788 1.023027 
0.176878 -0.080963 1.025246 
0.179017 -0.081148 1.027579 
0.181181 -0.081339 1.030006 
0.183310 -0.081511 1.032185 
0.185448 -0.081685 1.034382 
0.187620 -0.081869 1.036717 
0.189893 -0.082094 1.039566 
0.192122 -0.082296 1.042128 
0.194357 -0.082497 1.044668 
0.196611 -0.082702 1.047267 
0.198787 -0.082871 1.049408 
0.200958 -0.083035 1.051484 
0.203132 -0.083198 1.053544 
0.205359 -0.083379 1.055836 
0.207571 -0.083551 1.058014 
0.209893 -0.083764 1.060709 
0.212115 -0.083933 1.062855 
0.214411 -0.084129 1.065334 
0.216657 -0.084302 1.067528 
0.218888 -0.084467 1.069610 
0.221083 -0.084615 1.071487 
0.223362 -0.084792 1.073733 
0.225626 -0.084961 1.075874 
0.227949 -0.085150 1.078261 
0.230292 -0.085342 1.080698 
0.232701 -0.085557 1.083412 
0.235126 -0.085773 1.086150 
0.237532 -0.085979 1.088761 
0.239940 -0.086183 1.091343 
0.242272 -0.086357 1.093544 
0.244612 -0.086530 1.095742 
0.246844 -0.086664 1.097432 
-0.027020 -0.072869 0.942993 
-0.025430 -0.072881 0.943141 
-0.023839 -0.072891 0.943276 
-0.022238 -0.072871 0.943011 
-0.020626 -0.072809 0.942206 
-0.019010 -0.072720 0.941067 
-0.017385 -0.072579 0.939232 
-0.015759 -0.072405 0.936982 
-0.014141 -0.072230 0.934721 
-0.012534 -0.072072 0.932679 
-0.010939 -0.071955 0.931167 
-0.009353 -0.071865 0.929999 
-0.007773 -0.071791 0.929033 
-0.006198 -0.071743 0.928414 
-0.004624 -0.071674 0.927522 
-0.003052 -0.071584 0.926366 
-0.001484 -0.071485 0.925074 
0.000080 -0.071381 0.923737 
0.001639 -0.071307 0.922771 
0.003197 -0.071254 0.922094 
0.004753 -0.071208 0.921490 
0.006307 -0.071165 0.920933 
0.007859 -0.071122 0.920380 
0.009406 -0.071052 0.919478 
0.010947 -0.070966 0.918357 
0.012488 -0.070899 0.917501 
0.014028 -0.070846 0.916804 
0.015563 -0.070778 0.915926 
0.017090 -0.070690 0.914788 
0.018618 -0.070620 0.913881 
0.020143 -0.070550 0.912983 
0.021664 -0.070476 0.912026 
0.023186 -0.070417 0.911264 
0.024711 -0.070371 0.910666 
0.026236 -0.070333 0.910174 
0.027766 -0.070310 0.909877 
0.029304 -0.070310 0.909877 
0.030837 -0.070298 0.909721 
0.032371 -0.070291 0.909625 
0.033908 -0.070289 0.909595 
0.035438 -0.070274 0.909403 
0.036969 -0.070260 0.909232 
0.038506 -0.070261 0.909237 
0.040047 -0.070268 0.909324 
0.041580 -0.070261 0.909237 
0.043130 -0.070281 0.909500 
0.044677 -0.070296 0.909697 
0.046230 -0.070319 0.909994 
0.047784 -0.070342 0.910291 
0.049343 -0.070371 0.910665 
0.050889 -0.070381 0.910786 
0.052435 -0.070389 0.910893 
0.053986 -0.070403 0.911079 
0.055533 -0.070411 0.911180 
0.057085 -0.070426 0.911372 
0.058638 -0.070441 0.911565 
0.060192 -0.070455 0.911751 
0.061739 -0.070462 0.911843 
0.063292 -0.070475 0.912013 
0.064861 -0.070504 0.912384 
0.066453 -0.070557 0.913064 
0.068057 -0.070620 0.913888 
0.069692 -0.070711 0.915064 
0.071344 -0.070815 0.916410 
0.072993 -0.070912 0.917665 
0.074648 -0.071011 0.918939 
0.076298 -0.071101 0.920106 
0.077953 -0.071191 0.921280 
0.079588 -0.071261 0.922178 
0.081225 -0.071330 0.923070 
0.082832 -0.071369 0.923583 
0.084487 -0.071449 0.924614 
0.086142 -0.071525 0.925597 
0.087814 -0.071613 0.926733 
0.089508 -0.071714 0.928048 
0.091267 -0.071864 0.929986 
0.093029 -0.072011 0.931891 
0.094824 -0.072178 0.934048 
0.096616 -0.072338 0.936116 
0.098380 -0.072472 0.937845 
0.100123 -0.072586 0.939322 
0.101881 -0.072707 0.940895 
0.103655 -0.072836 0.942559 
0.105461 -0.072983 0.944462 
0.107326 -0.073166 0.946833 
0.109221 -0.073364 0.949391 
0.111133 -0.073567 0.952017 
0.113108 -0.073805 0.955104 
0.115073 -0.074031 0.958021 
0.117032 -0.074246 0.960812 
0.118969 -0.074442 0.963339 
0.120901 -0.074629 0.965763 
0.122759 -0.074766 0.967541 
0.124659 -0.074925 0.969600 
0.126523 -0.075059 0.971327 
0.128419 -0.075207 0.973249 
0.130316 -0.075353 0.975131 
0.132225 -0.075502 0.977057 
0.134125 -0.075642 0.978870 
0.136054 -0.075794 0.980846 
0.137975 -0.075939 0.982714 
0.139910 -0.076088 0.984644 
0.141887 -0.076256 0.986816 
0.143871 -0.076423 0.988986 
0.145826 -0.076572 0.990906 
0.147749 -0.076700 0.992571 
0.149612 -0.076795 0.993800 
0.151447 -0.076874 0.994823 
0.153316 -0.076968 0.996037 
0.155229 -0.077082 0.997507 
0.157139 -0.077192 0.998934 
0.159192 -0.077369 1.001224 
0.161439 -0.077636 1.004673 
0.163777 -0.077940 1.008611 
0.166187 -0.078272 1.012904 
0.168577 -0.078588 1.016995 
0.170889 -0.078861 1.020533 
0.173031 -0.079052 1.022999 
0.175105 -0.079207 1.025013 
0.177153 -0.079349 1.026845 
0.179206 -0.079489 1.028661 
0.181267 -0.079631 1.030490 
0.183290 -0.079753 1.032077 
0.185362 -0.079894 1.033901 
0.187485 -0.080054 1.035972 
0.189733 -0.080264 1.038692 
0.191983 -0.080471 1.041371 
0.194262 -0.080687 1.044157 
0.196541 -0.080898 1.046895 
0.198717 -0.081064 1.049037 
0.200880 -0.081222 1.051079 
0.203031 -0.081371 1.053018 
0.205257 -0.081549 1.055310 
0.207496 -0.081728 1.057630 
0.209845 -0.081947 1.060463 
0.212092 -0.082123 1.062741 
0.214411 -0.082323 1.065334 
0.216631 -0.082483 1.067402 
0.218835 -0.082634 1.069353 
0.221000 -0.082768 1.071086 
0.223250 -0.082931 1.073195 
0.225487 -0.083086 1.075212 
0.227836 -0.083281 1.077725 
0.230179 -0.083469 1.080168 
0.232588 -0.083679 1.082882 
0.235008 -0.083890 1.085605 
0.237436 -0.084099 1.088321 
0.239817 -0.084290 1.090785 
0.242179 -0.084471 1.093123 
0.244548 -0.084651 1.095458 
0.246839 -0.084802 1.097409 
-0.027043 -0.071332 0.943806 
-0.025461 -0.071370 0.944301 
-0.023877 -0.071406 0.944776 
-0.022282 -0.071413 0.944878 
-0.020673 -0.071373 0.944351 
-0.019057 -0.071301 0.943390 
-0.017429 -0.071166 0.941611 
-0.015797 -0.070986 0.939231 
-0.014174 -0.070808 0.936871 
-0.012562 -0.070652 0.934806 
-0.010963 -0.070530 0.933194 
-0.009372 -0.070434 0.931915 
-0.007788 -0.070352 0.930839 
-0.006210 -0.070297 0.930102 
-0.004632 -0.070222 0.929111 
-0.003058 -0.070134 0.927945 
-0.001487 -0.070030 0.926574 
0.000080 -0.069937 0.925352 
0.001642 -0.069874 0.924507 
0.003203 -0.069824 0.923848 
0.004762 -0.069778 0.923235 
0.006318 -0.069733 0.922642 
0.007873 -0.069682 0.921976 
0.009421 -0.069605 0.920955 
0.010965 -0.069526 0.919907 
0.012509 -0.069462 0.919055 
0.014052 -0.069409 0.918359 
0.015588 -0.069335 0.917378 
0.017117 -0.069247 0.916215 
0.018643 -0.069164 0.915123 
0.020169 -0.069089 0.914127 
0.021689 -0.069009 0.913068 
0.023210 -0.068944 0.912203 
0.024734 -0.068892 0.911520 
0.026260 -0.068854 0.911019 
0.027792 -0.068832 0.910729 
0.029332 -0.068833 0.910735 
0.030869 -0.068828 0.910673 
0.032406 -0.068822 0.910596 
0.033944 -0.068820 0.910563 
0.035476 -0.068805 0.910374 
0.037008 -0.068792 0.910197 
0.038547 -0.068792 0.910201 
0.040089 -0.068798 0.910281 
0.041624 -0.068792 0.910201 
0.043175 -0.068812 0.910461 
0.044720 -0.068821 0.910578 
0.046270 -0.068837 0.910790 
0.047821 -0.068852 0.910992 
0.049376 -0.068873 0.911266 
0.050917 -0.068874 0.911278 
0.052462 -0.068880 0.911364 
0.054013 -0.068892 0.911523 
0.055559 -0.068899 0.911615 
0.057107 -0.068908 0.911727 
0.058655 -0.068916 0.911834 
0.060209 -0.068929 0.912013 
0.061757 -0.068936 0.912105 
0.063312 -0.068950 0.912292 
0.064893 -0.068992 0.912844 
0.066500 -0.069058 0.913712 
0.068113 -0.069127 0.914632 
0.069750 -0.069217 0.915824 
0.071402 -0.069318 0.917161 
0.073047 -0.069408 0.918340 
0.074687 -0.069490 0.919425 
0.076331 -0.069571 0.920506 
0.077992 -0.069665 0.921744 
0.079636 -0.069740 0.922735 
0.081275 -0.069808 0.923641 
0.082907 -0.069868 0.924428 
0.084565 -0.069946 0.925467 
0.086205 -0.070007 0.926277 
0.087860 -0.070078 0.927215 
0.089543 -0.070169 0.928417 
0.091276 -0.070295 0.930076 
0.093037 -0.070438 0.931973 
0.094833 -0.070602 0.934140 
0.096626 -0.070758 0.936213 
0.098400 -0.070896 0.938040 
0.100154 -0.071015 0.939612 
0.101915 -0.071136 0.941206 
0.103701 -0.071270 0.942976 
0.105509 -0.071414 0.944892 
0.107364 -0.071586 0.947169 
0.109249 -0.071773 0.949634 
0.111147 -0.071962 0.952141 
0.113108 -0.072187 0.955109 
0.115071 -0.072406 0.958010 
0.117043 -0.072624 0.960897 
0.119006 -0.072831 0.963641 
0.120969 -0.073033 0.966305 
0.122872 -0.073193 0.968431 
0.124831 -0.073383 0.970936 
0.126744 -0.073540 0.973024 
0.128690 -0.073713 0.975300 
0.130634 -0.073879 0.977508 
0.132578 -0.074043 0.979668 
0.134485 -0.074181 0.981494 
0.136430 -0.074336 0.983553 
0.138353 -0.074477 0.985411 
0.140279 -0.074615 0.987238 
0.142244 -0.074770 0.989298 
0.144215 -0.074925 0.991348 
0.146123 -0.075045 0.992931 
0.148003 -0.075147 0.994279 
0.149851 -0.075231 0.995389 
0.151672 -0.075300 0.996301 
0.153563 -0.075401 0.997640 
0.155516 -0.075531 0.999355 
0.157450 -0.075648 1.000909 
0.159546 -0.075840 1.003451 
0.161853 -0.076127 1.007250 
0.164184 -0.076420 1.011118 
0.166563 -0.076728 1.015200 
0.168952 -0.077035 1.019257 
0.171226 -0.077284 1.022550 
0.173299 -0.077437 1.024582 
0.175318 -0.077564 1.026264 
0.177320 -0.077681 1.027813 
0.179308 -0.077790 1.029246 
0.181285 -0.077892 1.030596 
0.183227 -0.077977 1.031720 
0.185252 -0.078095 1.033288 
0.187329 -0.078233 1.035112 
0.189553 -0.078429 1.037708 
0.191825 -0.078642 1.040516 
0.194172 -0.078880 1.043675 
0.196478 -0.079098 1.046560 
0.198675 -0.079269 1.048816 
0.200829 -0.079420 1.050810 
0.202971 -0.079563 1.052704 
0.205174 -0.079728 1.054885 
0.207444 -0.079915 1.057361 
0.209820 -0.080140 1.060337 
0.212092 -0.080321 1.062741 
0.214411 -0.080517 1.065334 
0.216608 -0.080665 1.067285 
0.218809 -0.080811 1.069227 
0.220947 -0.080932 1.070825 
0.223168 -0.081082 1.072802 
0.225401 -0.081233 1.074799 
0.227777 -0.081433 1.077445 
0.230095 -0.081609 1.079776 
0.232501 -0.081813 1.082479 
0.234912 -0.082016 1.085161 
0.237337 -0.082220 1.087867 
0.239695 -0.082399 1.090230 
0.242086 -0.082586 1.092704 
0.244455 -0.082762 1.095039 
0.246775 -0.082920 1.097123 
-0.025489 -0.069846 0.945350 
-0.023918 -0.069924 0.946398 
-0.022324 -0.069944 0.946676 
-0.020718 -0.069925 0.946416 
-0.019101 -0.069864 0.945585 
-0.017476 -0.069756 0.944119 
-0.015838 -0.069571 0.941628 
-0.014210 -0.069395 0.939242 
-0.012593 -0.069235 0.937073 
-0.010989 -0.069114 0.935433 
-0.009393 -0.069004 0.933951 
-0.007803 -0.068910 0.932670 
-0.006220 -0.068840 0.931726 
-0.004640 -0.068757 0.930603 
-0.003062 -0.068670 0.929422 
-0.001489 -0.068576 0.928157 
0.000080 -0.068494 0.927040 
0.001646 -0.068446 0.926398 
0.003210 -0.068404 0.925826 
0.004772 -0.068352 0.925124 
0.006331 -0.068301 0.924433 
0.007886 -0.068237 0.923569 
0.009435 -0.068147 0.922343 
0.010980 -0.068061 0.921185 
0.012525 -0.067991 0.920234 
0.014068 -0.067932 0.919437 
0.015606 -0.067859 0.918455 
0.017137 -0.067772 0.917277 
0.018662 -0.067679 0.916017 
0.020186 -0.067598 0.914921 
0.021708 -0.067520 0.913860 
0.023228 -0.067449 0.912900 
0.024753 -0.067398 0.912218 
0.026283 -0.067369 0.911814 
0.027822 -0.067361 0.911707 
0.029364 -0.067362 0.911730 
0.030909 -0.067371 0.911843 
0.032450 -0.067371 0.911846 
0.033988 -0.067363 0.911733 
0.035518 -0.067341 0.911443 
0.037051 -0.067327 0.911250 
0.038591 -0.067327 0.911250 
0.040132 -0.067328 0.911259 
0.041677 -0.067334 0.911352 
0.043230 -0.067354 0.911621 
0.044777 -0.067363 0.911732 
0.046324 -0.067371 0.911844 
0.047875 -0.067384 0.912026 
0.049426 -0.067397 0.912199 
0.050963 -0.067390 0.912109 
0.052500 -0.067383 0.912014 
0.054040 -0.067382 0.911992 
0.055576 -0.067375 0.911897 
0.057118 -0.067375 0.911906 
