1614
0.010404 -0.026020 0.872840 
0.011888 -0.026037 0.873424 
0.013373 -0.026053 0.873973 
0.014856 -0.026063 0.874293 
0.016350 -0.026090 0.875191 
0.017840 -0.026104 0.875678 
0.019328 -0.026115 0.876027 
0.020786 -0.026086 0.875074 
0.022240 -0.026057 0.874081 
0.023683 -0.026018 0.872773 
0.025115 -0.025973 0.871282 
0.026550 -0.025936 0.870046 
0.028021 -0.025936 0.870036 
0.029506 -0.025948 0.870448 
0.030987 -0.025957 0.870737 
0.032482 -0.025975 0.871355 
0.033974 -0.025989 0.871816 
0.035465 -0.026002 0.872251 
0.036947 -0.026008 0.872434 
0.038430 -0.026012 0.872600 
0.039913 -0.026018 0.872775 
0.041393 -0.026021 0.872876 
0.042874 -0.026024 0.872975 
0.044358 -0.026028 0.873137 
0.045838 -0.026031 0.873224 
0.047320 -0.026034 0.873322 
0.048802 -0.026037 0.873434 
0.050285 -0.026040 0.873532 
0.051767 -0.026043 0.873618 
0.053268 -0.026055 0.874024 
0.054774 -0.026068 0.874470 
0.056289 -0.026085 0.875041 
0.057816 -0.026107 0.875771 
0.059338 -0.026125 0.876387 
0.060851 -0.026139 0.876835 
0.062377 -0.026157 0.877442 
0.063888 -0.026168 0.877823 
0.065405 -0.026181 0.878267 
0.066928 -0.026197 0.878774 
0.068434 -0.026204 0.879031 
0.069915 -0.026202 0.878965 
0.071406 -0.026204 0.879027 
0.072841 -0.026186 0.878422 
0.074286 -0.026172 0.877946 
0.075744 -0.026163 0.877646 
0.077207 -0.026156 0.877404 
0.078680 -0.026152 0.877287 
0.080203 -0.026165 0.877724 
-0.199308 -0.026110 0.928681 
-0.197612 -0.026093 0.928090 
-0.195869 -0.026070 0.927267 
-0.194023 -0.026033 0.925938 
-0.192089 -0.025983 0.924164 
-0.190140 -0.025930 0.922287 
-0.188180 -0.025875 0.920331 
-0.186228 -0.025820 0.918376 
-0.184306 -0.025769 0.916536 
-0.182373 -0.025715 0.914616 
-0.180462 -0.025663 0.912771 
-0.178540 -0.025608 0.910839 
-0.176608 -0.025552 0.908819 
-0.174665 -0.025492 0.906709 
-0.172762 -0.025438 0.904769 
-0.170802 -0.025374 0.902494 
-0.168853 -0.025310 0.900237 
-0.166924 -0.025249 0.898050 
-0.165040 -0.025193 0.896062 
-0.163171 -0.025138 0.894119 
-0.161409 -0.025099 0.892735 
-0.159701 -0.025068 0.891626 
-0.158018 -0.025040 0.890633 
-0.156368 -0.025017 0.889812 
-0.154764 -0.025001 0.889241 
-0.153168 -0.024986 0.888703 
-0.151591 -0.024974 0.888264 
-0.150014 -0.024961 0.887820 
-0.148392 -0.024941 0.887097 
-0.146766 -0.024919 0.886332 
-0.145156 -0.024900 0.885653 
-0.143556 -0.024882 0.885020 
-0.141964 -0.024866 0.884421 
-0.140410 -0.024855 0.884050 
-0.138868 -0.024847 0.883751 
-0.137330 -0.024839 0.883466 
-0.135798 -0.024832 0.883214 
-0.134266 -0.024825 0.882961 
-0.132744 -0.024819 0.882766 
-0.131209 -0.024811 0.882482 
-0.129666 -0.024801 0.882135 
-0.128138 -0.024794 0.881882 
-0.126635 -0.024792 0.881792 
-0.125132 -0.024789 0.881705 
-0.123606 -0.024782 0.881458 
-0.122068 -0.024773 0.881109 
-0.120550 -0.024767 0.880901 
-0.119011 -0.024756 0.880532 
-0.117466 -0.024744 0.880108 
-0.115931 -0.024734 0.879750 
-0.114384 -0.024721 0.879292 
-0.112838 -0.024709 0.878832 
-0.111295 -0.024696 0.878376 
-0.109756 -0.024684 0.877947 
-0.108218 -0.024671 0.877506 
-0.106731 -0.024670 0.877479 
-0.105258 -0.024673 0.877567 
-0.103791 -0.024677 0.877711 
-0.102342 -0.024685 0.878009 
-0.100907 -0.024697 0.878436 
-0.099432 -0.024700 0.878526 
-0.097919 -0.024693 0.878278 
-0.096432 -0.024692 0.878252 
-0.094917 -0.024684 0.877973 
-0.093395 -0.024674 0.877619 
-0.091882 -0.024667 0.877339 
-0.090378 -0.024661 0.877140 
-0.088877 -0.024656 0.876955 
-0.087394 -0.024656 0.876953 
-0.085920 -0.024658 0.877044 
-0.084430 -0.024656 0.876965 
-0.082961 -0.024660 0.877111 
-0.081477 -0.024660 0.877097 
-0.079980 -0.024655 0.876939 
-0.078467 -0.024646 0.876599 
-0.076966 -0.024640 0.876381 
-0.075438 -0.024625 0.875846 
-0.073921 -0.024612 0.875407 
-0.072419 -0.024605 0.875151 
-0.070920 -0.024598 0.874902 
-0.069414 -0.024588 0.874562 
-0.067933 -0.024588 0.874531 
-0.066441 -0.024583 0.874353 
-0.064939 -0.024574 0.874035 
-0.063437 -0.024564 0.873690 
-0.061949 -0.024560 0.873548 
-0.060448 -0.024550 0.873191 
-0.058949 -0.024541 0.872859 
-0.057462 -0.024536 0.872686 
-0.055980 -0.024533 0.872579 
-0.054489 -0.024525 0.872321 
-0.053004 -0.024521 0.872150 
-0.051534 -0.024523 0.872232 
-0.050070 -0.024528 0.872406 
-0.048601 -0.024531 0.872516 
-0.047135 -0.024536 0.872691 
-0.045673 -0.024543 0.872937 
-0.044198 -0.024543 0.872947 
-0.042719 -0.024541 0.872878 
-0.041243 -0.024541 0.872873 
-0.039770 -0.024543 0.872945 
-0.038292 -0.024541 0.872878 
-0.036820 -0.024544 0.872971 
-0.035351 -0.024548 0.873139 
-0.033881 -0.024553 0.873305 
-0.032408 -0.024556 0.873393 
-0.030944 -0.024565 0.873728 
-0.029479 -0.024575 0.874088 
-0.028010 -0.024583 0.874384 
-0.026541 -0.024591 0.874659 
-0.025069 -0.024598 0.874907 
-0.023590 -0.024598 0.874907 
-0.022104 -0.024591 0.874656 
-0.020617 -0.024581 0.874295 
-0.019129 -0.024568 0.873825 
-0.017639 -0.024550 0.873203 
-0.016150 -0.024531 0.872508 
-0.014663 -0.024511 0.871817 
-0.013179 -0.024491 0.871098 
-0.011698 -0.024473 0.870461 
-0.010222 -0.024465 0.870163 
-0.008748 -0.024456 0.869844 
-0.007279 -0.024461 0.870026 
-0.005812 -0.024478 0.870620 
-0.004344 -0.024498 0.871340 
-0.002873 -0.024514 0.871916 
-0.001400 -0.024531 0.872531 
0.000075 -0.024554 0.873350 
0.001552 -0.024562 0.873638 
0.003029 -0.024566 0.873773 
0.004508 -0.024573 0.874021 
0.005988 -0.024584 0.874401 
0.007466 -0.024585 0.874423 
0.008949 -0.024595 0.874790 
0.010437 -0.024617 0.875559 
0.011929 -0.024641 0.876445 
0.013426 -0.024669 0.877438 
0.014925 -0.024695 0.878363 
0.016436 -0.024735 0.879763 
0.017945 -0.024765 0.880855 
0.019457 -0.024794 0.881889 
0.020940 -0.024784 0.881532 
0.022416 -0.024769 0.880980 
0.023878 -0.024741 0.879989 
0.025330 -0.024706 0.878736 
0.026789 -0.024681 0.877866 
0.028236 -0.024649 0.876729 
0.029680 -0.024617 0.875579 
0.031115 -0.024582 0.874328 
0.032564 -0.024560 0.873532 
0.034001 -0.024531 0.872511 
0.035494 -0.024543 0.872958 
0.036984 -0.024553 0.873309 
0.038472 -0.024561 0.873571 
0.039958 -0.024566 0.873758 
0.041440 -0.024569 0.873859 
0.042922 -0.024571 0.873952 
0.044403 -0.024574 0.874030 
0.045885 -0.024576 0.874114 
0.047368 -0.024579 0.874208 
0.048851 -0.024581 0.874306 
0.050335 -0.024584 0.874400 
0.051828 -0.024591 0.874651 
0.053348 -0.024610 0.875337 
0.054880 -0.024634 0.876176 
0.056423 -0.024661 0.877129 
0.057977 -0.024691 0.878207 
0.059516 -0.024713 0.879008 
0.061038 -0.024728 0.879534 
0.062563 -0.024743 0.880059 
0.064071 -0.024751 0.880340 
0.065585 -0.024761 0.880688 
0.067105 -0.024772 0.881102 
0.068602 -0.024775 0.881197 
0.070079 -0.024771 0.881038 
0.071566 -0.024769 0.880999 
0.072982 -0.024745 0.880116 
0.074407 -0.024724 0.879373 
0.075851 -0.024710 0.878880 
0.077308 -0.024701 0.878553 
0.078775 -0.024695 0.878355 
0.080308 -0.024710 0.878878 
-0.199320 -0.024537 0.928740 
-0.197645 -0.024524 0.928246 
-0.195954 -0.024509 0.927668 
-0.194155 -0.024480 0.926567 
-0.192322 -0.024446 0.925286 
-0.190472 -0.024409 0.923900 
-0.188589 -0.024368 0.922327 
-0.186652 -0.024319 0.920468 
-0.184756 -0.024274 0.918775 
-0.182816 -0.024223 0.916835 
-0.180884 -0.024172 0.914905 
-0.178991 -0.024125 0.913139 
-0.177107 -0.024079 0.911385 
-0.175217 -0.024031 0.909573 
-0.173337 -0.023984 0.907778 
-0.171409 -0.023929 0.905700 
-0.169447 -0.023868 0.903403 
-0.167472 -0.023804 0.900993 
-0.165526 -0.023744 0.898701 
-0.163616 -0.023687 0.896558 
-0.161811 -0.023645 0.894960 
-0.160081 -0.023613 0.893747 
-0.158362 -0.023582 0.892572 
-0.156676 -0.023555 0.891569 
-0.155054 -0.023538 0.890906 
-0.153452 -0.023523 0.890352 
-0.151858 -0.023509 0.889832 
-0.150294 -0.023500 0.889475 
-0.148696 -0.023485 0.888913 
-0.147096 -0.023470 0.888326 
-0.145497 -0.023454 0.887734 
-0.143909 -0.023440 0.887193 
-0.142338 -0.023428 0.886754 
-0.140795 -0.023421 0.886478 
-0.139251 -0.023413 0.886190 
-0.137712 -0.023406 0.885921 
-0.136177 -0.023400 0.885681 
-0.134642 -0.023393 0.885433 
-0.133118 -0.023388 0.885252 
-0.131591 -0.023383 0.885051 
-0.130056 -0.023376 0.884784 
-0.128521 -0.023369 0.884517 
-0.126999 -0.023364 0.884328 
-0.125477 -0.023359 0.884142 
-0.123922 -0.023348 0.883711 
-0.122377 -0.023338 0.883342 
-0.120853 -0.023332 0.883115 
-0.119312 -0.023322 0.882757 
-0.117763 -0.023311 0.882335 
-0.116258 -0.023309 0.882234 
-0.114710 -0.023297 0.881801 
-0.113173 -0.023288 0.881442 
-0.111637 -0.023278 0.881074 
-0.110103 -0.023269 0.880721 
-0.108549 -0.023255 0.880193 
-0.107046 -0.023251 0.880071 
-0.105567 -0.023253 0.880141 
-0.104093 -0.023256 0.880260 
-0.102630 -0.023262 0.880477 
-0.101180 -0.023271 0.880815 
-0.099701 -0.023273 0.880898 
-0.098174 -0.023265 0.880563 
-0.096673 -0.023261 0.880447 
-0.095155 -0.023254 0.880171 
-0.093629 -0.023245 0.879820 
-0.092123 -0.023240 0.879639 
-0.090617 -0.023235 0.879460 
-0.089113 -0.023231 0.879290 
-0.087635 -0.023233 0.879368 
-0.086165 -0.023238 0.879543 
-0.084673 -0.023236 0.879484 
-0.083209 -0.023242 0.879725 
-0.081721 -0.023242 0.879722 
-0.080210 -0.023236 0.879466 
-0.078685 -0.023224 0.879029 
-0.077178 -0.023218 0.878800 
-0.075640 -0.023202 0.878187 
-0.074118 -0.023190 0.877749 
-0.072612 -0.023183 0.877482 
-0.071107 -0.023176 0.877213 
-0.069590 -0.023165 0.876779 
-0.068104 -0.023163 0.876736 
-0.066615 -0.023161 0.876648 
-0.065117 -0.023155 0.876427 
-0.063623 -0.023151 0.876260 
-0.062150 -0.023154 0.876380 
-0.060662 -0.023151 0.876279 
-0.059164 -0.023145 0.876035 
-0.057671 -0.023140 0.875851 
-0.056181 -0.023136 0.875711 
-0.054673 -0.023124 0.875264 
-0.053167 -0.023113 0.874833 
-0.051687 -0.023113 0.874824 
-0.050214 -0.023115 0.874916 
-0.048733 -0.023114 0.874882 
-0.047264 -0.023119 0.875069 
-0.045798 -0.023126 0.875322 
-0.044314 -0.023124 0.875254 
-0.042839 -0.023127 0.875344 
-0.041367 -0.023131 0.875511 
-0.039895 -0.023136 0.875691 
-0.038420 -0.023139 0.875807 
-0.036947 -0.023144 0.875997 
-0.035470 -0.023146 0.876084 
-0.033992 -0.023148 0.876158 
-0.032511 -0.023148 0.876171 
-0.031036 -0.023153 0.876345 
-0.029564 -0.023160 0.876610 
-0.028088 -0.023165 0.876795 
-0.026611 -0.023170 0.876973 
-0.025133 -0.023174 0.877135 
-0.023650 -0.023174 0.877135 
-0.022159 -0.023165 0.876799 
-0.020668 -0.023155 0.876427 
-0.019177 -0.023145 0.876031 
-0.017684 -0.023128 0.875408 
-0.016191 -0.023110 0.874711 
-0.014702 -0.023093 0.874079 
-0.013214 -0.023076 0.873434 
-0.011729 -0.023060 0.872815 
-0.010252 -0.023057 0.872701 
-0.008776 -0.023053 0.872567 
-0.007303 -0.023060 0.872822 
-0.005831 -0.023076 0.873413 
-0.004358 -0.023092 0.874030 
-0.002881 -0.023103 0.874446 
-0.001404 -0.023115 0.874901 
0.000075 -0.023135 0.875647 
0.001556 -0.023142 0.875927 
0.003038 -0.023152 0.876300 
0.004522 -0.023165 0.876806 
0.006009 -0.023183 0.877468 
0.007495 -0.023190 0.877758 
0.008985 -0.023205 0.878316 
0.010480 -0.023229 0.879208 
0.011981 -0.023257 0.880294 
0.013488 -0.023290 0.881539 
0.015003 -0.023328 0.882949 
0.016531 -0.023378 0.884854 
0.018062 -0.023423 0.886564 
0.019597 -0.023466 0.888199 
0.021104 -0.023473 0.888437 
0.022604 -0.023470 0.888354 
0.024088 -0.023453 0.887700 
0.025565 -0.023432 0.886898 
0.027052 -0.023421 0.886502 
0.028527 -0.023401 0.885742 
0.031441 -0.023341 0.883471 
0.032908 -0.023323 0.882768 
0.034296 -0.023252 0.880079 
0.035730 -0.023217 0.878775 
0.037157 -0.023181 0.877385 
0.038577 -0.023143 0.875949 
0.039983 -0.023099 0.874306 
0.041465 -0.023102 0.874400 
0.042952 -0.023106 0.874563 
0.044434 -0.023108 0.874648 
0.045922 -0.023113 0.874814 
0.047410 -0.023117 0.874983 
0.048898 -0.023121 0.875149 
0.050383 -0.023124 0.875233 
0.051882 -0.023133 0.875569 
0.053416 -0.023156 0.876447 
0.054963 -0.023183 0.877491 
0.056526 -0.023216 0.878730 
0.058100 -0.023252 0.880076 
0.059659 -0.023279 0.881122 
0.061191 -0.023296 0.881739 
0.062720 -0.023310 0.882273 
0.064232 -0.023317 0.882553 
0.065743 -0.023324 0.882813 
0.067255 -0.023331 0.883063 
0.068750 -0.023331 0.883091 
0.070223 -0.023325 0.882848 
0.071699 -0.023319 0.882641 
-0.197699 -0.022957 0.928498 
-0.196040 -0.022947 0.928077 
-0.194292 -0.022925 0.927221 
-0.192539 -0.022903 0.926330 
-0.190778 -0.022880 0.925382 
-0.188949 -0.022848 0.924090 
-0.187046 -0.022806 0.922410 
-0.185177 -0.022768 0.920869 
-0.183250 -0.022722 0.919011 
-0.181296 -0.022672 0.916987 
-0.179417 -0.022631 0.915310 
-0.177581 -0.022594 0.913825 
-0.175731 -0.022555 0.912240 
-0.173888 -0.022516 0.910668 
-0.172010 -0.022472 0.908879 
-0.170056 -0.022417 0.906649 
-0.168056 -0.022355 0.904137 
-0.166081 -0.022295 0.901716 
-0.164132 -0.022237 0.899385 
-0.162286 -0.022193 0.897589 
-0.160530 -0.022160 0.896254 
-0.158785 -0.022128 0.894958 
-0.157094 -0.022103 0.893943 
-0.155451 -0.022084 0.893187 
-0.153841 -0.022070 0.892606 
-0.152226 -0.022054 0.891987 
-0.150671 -0.022047 0.891709 
-0.149062 -0.022032 0.891101 
-0.147477 -0.022021 0.890626 
-0.145878 -0.022007 0.890060 
-0.144313 -0.021997 0.889688 
-0.142741 -0.021987 0.889261 
-0.141210 -0.021983 0.889086 
-0.139677 -0.021978 0.888897 
-0.138132 -0.021971 0.888629 
-0.136590 -0.021965 0.888366 
-0.135049 -0.021958 0.888107 
-0.133519 -0.021954 0.887922 
-0.131991 -0.021949 0.887739 
-0.130463 -0.021945 0.887553 
-0.128911 -0.021936 0.887196 
-0.127368 -0.021928 0.886896 
-0.125827 -0.021921 0.886602 
-0.124253 -0.021908 0.886066 
-0.122692 -0.021897 0.885611 
-0.121152 -0.021889 0.885304 
-0.119607 -0.021880 0.884945 
-0.118055 -0.021870 0.884521 
-0.116548 -0.021868 0.884438 
-0.115007 -0.021859 0.884085 
-0.113488 -0.021854 0.883896 
-0.111960 -0.021848 0.883630 
-0.110433 -0.021841 0.883359 
-0.108884 -0.021830 0.882912 
-0.107374 -0.021826 0.882766 
-0.105879 -0.021826 0.882746 
-0.104389 -0.021826 0.882766 
-0.102901 -0.021827 0.882803 
-0.101427 -0.021831 0.882960 
-0.099923 -0.021829 0.882861 
-0.098392 -0.021820 0.882517 
-0.096879 -0.021815 0.882322 
-0.095367 -0.021811 0.882136 
-0.093839 -0.021802 0.881796 
-0.092331 -0.021798 0.881622 
-0.090830 -0.021796 0.881528 
-0.089332 -0.021794 0.881449 
-0.087860 -0.021798 0.881625 
-0.086404 -0.021807 0.881983 
-0.084933 -0.021812 0.882187 
-0.083468 -0.021819 0.882466 
-0.081983 -0.021821 0.882543 
-0.080468 -0.021814 0.882287 
-0.078935 -0.021803 0.881830 
-0.077418 -0.021796 0.881527 
-0.075867 -0.021778 0.880828 
-0.074333 -0.021765 0.880295 
-0.072813 -0.021756 0.879911 
-0.071296 -0.021747 0.879544 
-0.069775 -0.021736 0.879110 
-0.068293 -0.021737 0.879164 
-0.066806 -0.021737 0.879157 
-0.065316 -0.021736 0.879104 
-0.063836 -0.021738 0.879194 
-0.062373 -0.021746 0.879519 
-0.060893 -0.021749 0.879620 
-0.059403 -0.021747 0.879575 
-0.057904 -0.021743 0.879394 
-0.056402 -0.021737 0.879159 
-0.054881 -0.021723 0.878602 
-0.053359 -0.021708 0.877987 
-0.051862 -0.021703 0.877788 
-0.050374 -0.021701 0.877703 
-0.048878 -0.021696 0.877482 
-0.047395 -0.021696 0.877496 
-0.045916 -0.021698 0.877579 
-0.044424 -0.021694 0.877420 
-0.042946 -0.021696 0.877517 
-0.041470 -0.021701 0.877688 
-0.039996 -0.021706 0.877889 
-0.038524 -0.021713 0.878169 
-0.037051 -0.021719 0.878443 
-0.035569 -0.021722 0.878537 
-0.034090 -0.021726 0.878697 
-0.032608 -0.021728 0.878779 
-0.031126 -0.021730 0.878869 
-0.029646 -0.021734 0.879045 
-0.028168 -0.021740 0.879292 
-0.026686 -0.021745 0.879463 
-0.025204 -0.021749 0.879630 
-0.023720 -0.021751 0.879717 
-0.022224 -0.021743 0.879380 
-0.020728 -0.021733 0.879006 
-0.019236 -0.021726 0.878694 
-0.017738 -0.021710 0.878083 
-0.016239 -0.021692 0.877318 
-0.014746 -0.021677 0.876748 
-0.013254 -0.021661 0.876097 
-0.011766 -0.021648 0.875558 
-0.010285 -0.021647 0.875496 
-0.008805 -0.021648 0.875535 
-0.007327 -0.021652 0.875724 
-0.005850 -0.021666 0.876285 
-0.004371 -0.021677 0.876731 
-0.002890 -0.021687 0.877142 
-0.001408 -0.021698 0.877594 
0.000076 -0.021721 0.878503 
0.001561 -0.021730 0.878867 
0.003049 -0.021744 0.879438 
0.004540 -0.021762 0.880150 
0.006033 -0.021781 0.880942 
0.007526 -0.021791 0.881358 
0.009022 -0.021807 0.881999 
0.010525 -0.021832 0.882989 
0.012034 -0.021862 0.884198 
0.013552 -0.021899 0.885710 
0.015081 -0.021945 0.887587 
0.016625 -0.022003 0.889907 
0.018175 -0.022058 0.892121 
0.019730 -0.022110 0.894260 
0.021262 -0.022131 0.895081 
0.022787 -0.022143 0.895570 
0.024307 -0.022148 0.895795 
0.025821 -0.022148 0.895764 
0.027342 -0.022154 0.896004 
0.040372 -0.021828 0.882819 
0.041866 -0.021828 0.882845 
0.043363 -0.021831 0.882946 
0.044762 -0.021785 0.881106 
0.046156 -0.021740 0.879282 
0.047636 -0.021737 0.879164 
0.049017 -0.021690 0.877265 
0.050390 -0.021643 0.875360 
0.051894 -0.021653 0.875777 
0.053448 -0.021683 0.876976 
0.055012 -0.021715 0.878280 
0.056589 -0.021751 0.879705 
0.058187 -0.021792 0.881389 
0.059765 -0.021824 0.882690 
0.061297 -0.021839 0.883261 
0.062829 -0.021852 0.883806 
0.064343 -0.021859 0.884076 
0.065856 -0.021865 0.884332 
0.067372 -0.021872 0.884601 
0.068870 -0.021873 0.884640 
0.070340 -0.021865 0.884317 
0.071816 -0.021859 0.884085 
0.073901 -0.023545 0.891196 
-0.192698 -0.021351 0.927094 
-0.190971 -0.021333 0.926320 
-0.189183 -0.021308 0.925232 
-0.187306 -0.021272 0.923694 
-0.185438 -0.021237 0.922166 
-0.183524 -0.021196 0.920388 
-0.181587 -0.021152 0.918460 
-0.179743 -0.021118 0.916971 
-0.177975 -0.021092 0.915853 
-0.176192 -0.021064 0.914635 
-0.174400 -0.021034 0.913349 
-0.172553 -0.020997 0.911746 
-0.170625 -0.020950 0.909686 
-0.168636 -0.020894 0.907256 
-0.166660 -0.020839 0.904854 
-0.164701 -0.020784 0.902507 
-0.162847 -0.020743 0.900688 
-0.161051 -0.020707 0.899163 
-0.159283 -0.020675 0.897763 
-0.157569 -0.020650 0.896648 
-0.155888 -0.020628 0.895701 
-0.154258 -0.020612 0.895027 
-0.152621 -0.020595 0.894300 
-0.151061 -0.020589 0.894017 
-0.149450 -0.020575 0.893422 
-0.147894 -0.020569 0.893143 
-0.146310 -0.020558 0.892691 
-0.144768 -0.020554 0.892491 
-0.143192 -0.020544 0.892071 
-0.141670 -0.020542 0.891984 
-0.140146 -0.020540 0.891885 
-0.138596 -0.020534 0.891611 
-0.137044 -0.020527 0.891317 
-0.135493 -0.020520 0.891026 
-0.133944 -0.020514 0.890743 
-0.132399 -0.020508 0.890483 
-0.130868 -0.020504 0.890310 
-0.129300 -0.020494 0.889873 
-0.127739 -0.020485 0.889483 
-0.126178 -0.020475 0.889078 
-0.124575 -0.020459 0.888365 
-0.122998 -0.020446 0.887824 
-0.121445 -0.020438 0.887442 
-0.119897 -0.020429 0.887086 
-0.118340 -0.020419 0.886656 
-0.116837 -0.020419 0.886628 
-0.115304 -0.020413 0.886366 
-0.113783 -0.020409 0.886194 
-0.112261 -0.020404 0.886005 
-0.110741 -0.020400 0.885821 
-0.109199 -0.020392 0.885468 
-0.107678 -0.020387 0.885266 
-0.106187 -0.020389 0.885313 
-0.104682 -0.020387 0.885242 
-0.103169 -0.020384 0.885097 
-0.101679 -0.020385 0.885159 
-0.100159 -0.020380 0.884951 
-0.098614 -0.020370 0.884508 
-0.097089 -0.020364 0.884234 
-0.095583 -0.020361 0.884133 
-0.094053 -0.020354 0.883799 
-0.092549 -0.020351 0.883704 
-0.091053 -0.020351 0.883689 
-0.089559 -0.020351 0.883689 
-0.088092 -0.020357 0.883961 
-0.086644 -0.020368 0.884428 
-0.085179 -0.020376 0.884748 
-0.083719 -0.020384 0.885118 
-0.082231 -0.020386 0.885207 
-0.080710 -0.020380 0.884938 
-0.079172 -0.020369 0.884476 
-0.077650 -0.020362 0.884175 
-0.076088 -0.020344 0.883390 
-0.074548 -0.020331 0.882836 
-0.073015 -0.020320 0.882345 
-0.071486 -0.020310 0.881887 
-0.069968 -0.020302 0.881543 
-0.068490 -0.020305 0.881708 
-0.067001 -0.020306 0.881726 
-0.065518 -0.020308 0.881828 
-0.064046 -0.020314 0.882088 
-0.062581 -0.020323 0.882449 
-0.061111 -0.020330 0.882772 
-0.059630 -0.020334 0.882931 
-0.058126 -0.020330 0.882764 
-0.056618 -0.020324 0.882526 
-0.055090 -0.020311 0.881952 
-0.053557 -0.020295 0.881253 
-0.052049 -0.020288 0.880952 
-0.050549 -0.020283 0.880750 
-0.049035 -0.020273 0.880313 
-0.047537 -0.020269 0.880119 
-0.046043 -0.020266 0.880001 
-0.044542 -0.020260 0.879751 
-0.043059 -0.020262 0.879828 
-0.041580 -0.020266 0.880012 
-0.040101 -0.020271 0.880208 
-0.038629 -0.020279 0.880566 
-0.037155 -0.020287 0.880924 
-0.035670 -0.020290 0.881026 
-0.034190 -0.020296 0.881275 
-0.032707 -0.020299 0.881439 
-0.031217 -0.020300 0.881450 
-0.029730 -0.020302 0.881538 
-0.028248 -0.020307 0.881792 
-0.026763 -0.020312 0.881975 
-0.025277 -0.020316 0.882165 
-0.023791 -0.020320 0.882348 
-0.022295 -0.020316 0.882177 
-0.020796 -0.020310 0.881890 
-0.019301 -0.020305 0.881675 
-0.017798 -0.020291 0.881090 
-0.016296 -0.020275 0.880405 
-0.014798 -0.020262 0.879831 
-0.013301 -0.020247 0.879177 
-0.011807 -0.020235 0.878638 
-0.010322 -0.020235 0.878656 
-0.008837 -0.020236 0.878706 
-0.007353 -0.020239 0.878831 
-0.005870 -0.020250 0.879317 
-0.004386 -0.020259 0.879669 
-0.002900 -0.020267 0.880049 
-0.001413 -0.020278 0.880506 
0.000076 -0.020301 0.881517 
0.001567 -0.020312 0.882000 
0.003061 -0.020330 0.882761 
0.004558 -0.020351 0.883686 
0.006058 -0.020372 0.884614 
0.007558 -0.020384 0.885115 
0.009062 -0.020401 0.885835 
0.010571 -0.020424 0.886868 
0.012087 -0.020452 0.888052 
0.013614 -0.020490 0.889733 
0.015156 -0.020542 0.891974 
0.016715 -0.020605 0.894715 
0.018281 -0.020665 0.897340 
0.019856 -0.020725 0.899944 
0.021412 -0.020759 0.901405 
0.022964 -0.020785 0.902523 
0.024513 -0.020805 0.903384 
0.026059 -0.020820 0.904034 
0.027615 -0.020840 0.904938 
0.028846 -0.022145 0.895644 
0.029151 -0.020845 0.905120 
0.046660 -0.020471 0.888876 
0.048143 -0.020462 0.888518 
0.050882 -0.020356 0.883917 
0.052391 -0.020362 0.884161 
0.053938 -0.020382 0.885015 
0.055494 -0.020404 0.885964 
0.057055 -0.020426 0.886953 
0.058638 -0.020455 0.888221 
0.060144 -0.020457 0.888289 
0.061605 -0.020444 0.887706 
0.063061 -0.020429 0.887071 
0.064509 -0.020413 0.886354 
0.065958 -0.020397 0.885691 
0.067476 -0.020403 0.885961 
0.068969 -0.020402 0.885912 
0.070440 -0.020395 0.885575 
0.071925 -0.020391 0.885421 
-0.192761 -0.019786 0.927399 
-0.191072 -0.019773 0.926809 
-0.189299 -0.019752 0.925799 
-0.187475 -0.019724 0.924524 
-0.185660 -0.019698 0.923271 
-0.183783 -0.019664 0.921684 
-0.181881 -0.019627 0.919947 
-0.180071 -0.019599 0.918646 
-0.178322 -0.019577 0.917638 
-0.176570 -0.019555 0.916595 
-0.174808 -0.019531 0.915484 
-0.172988 -0.019501 0.914043 
-0.171111 -0.019463 0.912274 
-0.169182 -0.019419 0.910197 
-0.167255 -0.019374 0.908088 
-0.165340 -0.019329 0.906008 
-0.163498 -0.019293 0.904292 
-0.161706 -0.019261 0.902820 
-0.159914 -0.019229 0.901324 
-0.158164 -0.019202 0.900035 
-0.156447 -0.019178 0.898913 
-0.154794 -0.019161 0.898140 
-0.153117 -0.019142 0.897206 
-0.151537 -0.019134 0.896836 
-0.149918 -0.019120 0.896219 
-0.148358 -0.019115 0.895949 
-0.146767 -0.019105 0.895483 
-0.145221 -0.019101 0.895284 
-0.143652 -0.019093 0.894939 
-0.142139 -0.019093 0.894939 
-0.140599 -0.019090 0.894768 
-0.139030 -0.019082 0.894402 
-0.137457 -0.019073 0.894006 
-0.135884 -0.019065 0.893599 
-0.134317 -0.019057 0.893227 
-0.132768 -0.019051 0.892964 
-0.131233 -0.019047 0.892795 
-0.129660 -0.019038 0.892350 
-0.128083 -0.019028 0.891874 
-0.126505 -0.019017 0.891384 
-0.124909 -0.019004 0.890750 
-0.123329 -0.018992 0.890208 
-0.121772 -0.018984 0.889833 
-0.120217 -0.018976 0.889455 
-0.118642 -0.018965 0.888920 
-0.117124 -0.018962 0.888805 
-0.115587 -0.018957 0.888541 
-0.114051 -0.018951 0.888280 
-0.112527 -0.018947 0.888101 
-0.111023 -0.018947 0.888082 
-0.109491 -0.018942 0.887834 
-0.107980 -0.018940 0.887749 
-0.106498 -0.018943 0.887904 
-0.104988 -0.018941 0.887830 
-0.103448 -0.018934 0.887495 
-0.101934 -0.018932 0.887371 
-0.100398 -0.018925 0.887061 
-0.098849 -0.018916 0.886613 
-0.097320 -0.018910 0.886342 
-0.095811 -0.018908 0.886245 
-0.094276 -0.018900 0.885901 
-0.092767 -0.018898 0.885791 
-0.091267 -0.018897 0.885766 
-0.089771 -0.018898 0.885775 
-0.088311 -0.018906 0.886151 
-0.086867 -0.018918 0.886708 
-0.085399 -0.018924 0.887034 
-0.083935 -0.018932 0.887401 
-0.082443 -0.018934 0.887489 
-0.080925 -0.018930 0.887298 
-0.079392 -0.018922 0.886932 
-0.077874 -0.018918 0.886719 
-0.076307 -0.018901 0.885927 
-0.074761 -0.018889 0.885359 
-0.073216 -0.018876 0.884775 
-0.071682 -0.018866 0.884309 
-0.070168 -0.018861 0.884064 
-0.068695 -0.018867 0.884343 
-0.067210 -0.018870 0.884470 
-0.065734 -0.018875 0.884736 
-0.064263 -0.018883 0.885078 
-0.062794 -0.018891 0.885453 
-0.061326 -0.018900 0.885871 
-0.059850 -0.018907 0.886191 
-0.058341 -0.018903 0.886036 
-0.056834 -0.018900 0.885890 
-0.055302 -0.018888 0.885331 
-0.053762 -0.018873 0.884627 
-0.052239 -0.018863 0.884166 
-0.050727 -0.018857 0.883851 
-0.049197 -0.018843 0.883217 
-0.047682 -0.018835 0.882816 
-0.046174 -0.018828 0.882508 
-0.044664 -0.018820 0.882150 
-0.043176 -0.018822 0.882220 
-0.041693 -0.018826 0.882404 
-0.040210 -0.018830 0.882595 
-0.038734 -0.018837 0.882953 
-0.037259 -0.018847 0.883386 
-0.035767 -0.018848 0.883426 
-0.034281 -0.018851 0.883610 
-0.032793 -0.018855 0.883772 
-0.031300 -0.018855 0.883785 
-0.029809 -0.018857 0.883878 
-0.028326 -0.018865 0.884231 
-0.026840 -0.018871 0.884518 
-0.025353 -0.018877 0.884822 
-0.023865 -0.018883 0.885100 
-0.022366 -0.018882 0.885022 
-0.020866 -0.018877 0.884827 
-0.019367 -0.018875 0.884709 
-0.017863 -0.018866 0.884288 
-0.016359 -0.018855 0.883777 
-0.014855 -0.018843 0.883215 
-0.013353 -0.018830 0.882624 
-0.011854 -0.018819 0.882078 
-0.010361 -0.018817 0.881992 
-0.008870 -0.018816 0.881959 
-0.007380 -0.018818 0.882055 
-0.005891 -0.018825 0.882392 
-0.004401 -0.018831 0.882647 
-0.002910 -0.018839 0.883028 
-0.001418 -0.018849 0.883499 
0.000076 -0.018871 0.884542 
0.001573 -0.018886 0.885226 
0.003072 -0.018906 0.886172 
0.004576 -0.018928 0.887187 
0.006083 -0.018949 0.888193 
0.007589 -0.018962 0.888770 
0.009100 -0.018978 0.889550 
0.010615 -0.018998 0.890490 
0.012135 -0.019021 0.891580 
0.013668 -0.019057 0.893248 
0.015217 -0.019107 0.895568 
0.016775 -0.019157 0.897941 
0.018340 -0.019206 0.900217 
0.019911 -0.019253 0.902443 
0.021489 -0.019301 0.904667 
0.023068 -0.019342 0.906592 
0.024660 -0.019389 0.908801 
0.026261 -0.019436 0.911019 
0.027876 -0.019489 0.913501 
0.029440 -0.019502 0.914095 
0.030672 -0.020839 0.904855 
0.030992 -0.019506 0.914294 
0.051416 -0.019056 0.893187 
0.052925 -0.019055 0.893162 
0.054458 -0.019064 0.893549 
0.056003 -0.019075 0.894097 
0.057548 -0.019086 0.894623 
0.059113 -0.019103 0.895419 
0.060601 -0.019095 0.895031 
0.061994 -0.019058 0.893300 
0.063371 -0.019018 0.891437 
0.064744 -0.018979 0.889594 
0.066120 -0.018942 0.887878 
0.067572 -0.018929 0.887232 
0.069055 -0.018924 0.887014 
-0.191114 -0.018206 0.927012 
-0.189378 -0.018190 0.926186 
-0.187568 -0.018166 0.924983 
-0.185818 -0.018148 0.924057 
-0.183979 -0.018121 0.922671 
-0.182133 -0.018092 0.921222 
-0.180361 -0.018071 0.920127 
-0.178665 -0.018057 0.919403 
-0.176928 -0.018038 0.918453 
-0.175212 -0.018021 0.917601 
-0.173406 -0.017995 0.916253 
-0.171576 -0.017965 0.914756 
-0.169700 -0.017930 0.912982 
-0.167824 -0.017895 0.911174 
-0.165941 -0.017858 0.909300 
-0.164143 -0.017830 0.907855 
-0.162360 -0.017803 0.906474 
-0.160562 -0.017773 0.904975 
-0.158801 -0.017747 0.903658 
-0.157060 -0.017723 0.902433 
-0.155382 -0.017706 0.901551 
-0.153667 -0.017684 0.900432 
-0.152063 -0.017674 0.899949 
-0.150420 -0.017660 0.899218 
-0.148836 -0.017653 0.898835 
-0.147223 -0.017641 0.898263 
-0.145670 -0.017637 0.898052 
-0.144082 -0.017629 0.897614 
-0.142550 -0.017627 0.897525 
-0.140991 -0.017622 0.897262 
-0.139391 -0.017611 0.896722 
-0.137800 -0.017602 0.896237 
-0.136210 -0.017592 0.895744 
-0.134627 -0.017583 0.895285 
-0.133060 -0.017576 0.894931 
-0.131532 -0.017574 0.894826 
-0.129954 -0.017565 0.894379 
-0.128387 -0.017558 0.893993 
-0.126831 -0.017551 0.893678 
-0.125257 -0.017542 0.893225 
-0.123684 -0.017534 0.892770 
-0.122132 -0.017527 0.892464 
-0.120571 -0.017520 0.892076 
-0.118980 -0.017508 0.891452 
-0.117445 -0.017503 0.891240 
-0.115892 -0.017497 0.890888 
-0.114331 -0.017488 0.890456 
-0.112801 -0.017484 0.890260 
-0.111303 -0.017485 0.890316 
-0.109781 -0.017483 0.890181 
-0.108280 -0.017483 0.890215 
-0.106806 -0.017488 0.890476 
-0.105291 -0.017487 0.890393 
-0.103735 -0.017478 0.889959 
-0.102206 -0.017474 0.889739 
-0.100657 -0.017466 0.889346 
-0.099104 -0.017458 0.888907 
-0.097572 -0.017452 0.888633 
-0.096058 -0.017450 0.888528 
-0.094518 -0.017443 0.888172 
-0.093005 -0.017441 0.888062 
-0.091502 -0.017441 0.888047 
-0.090002 -0.017441 0.888062 
-0.088538 -0.017448 0.888431 
-0.087082 -0.017457 0.888899 
-0.085608 -0.017463 0.889202 
-0.084131 -0.017469 0.889475 
-0.082634 -0.017470 0.889548 
-0.081114 -0.017467 0.889373 
-0.079585 -0.017461 0.889093 
-0.078065 -0.017457 0.888898 
-0.076510 -0.017445 0.888283 
-0.074968 -0.017436 0.887806 
-0.073419 -0.017425 0.887231 
-0.071888 -0.017417 0.886844 
-0.070382 -0.017415 0.886761 
-0.068906 -0.017421 0.887058 
-0.067418 -0.017424 0.887207 
-0.065944 -0.017431 0.887561 
-0.064474 -0.017439 0.887973 
-0.062992 -0.017445 0.888255 
-0.061523 -0.017454 0.888725 
-0.060047 -0.017462 0.889111 
-0.058539 -0.017460 0.889039 
-0.057027 -0.017458 0.888902 
-0.055501 -0.017450 0.888521 
-0.053957 -0.017436 0.887828 
-0.052424 -0.017426 0.887293 
-0.050901 -0.017418 0.886898 
-0.049361 -0.017404 0.886168 
-0.047828 -0.017391 0.885522 
-0.046306 -0.017382 0.885038 
-0.044791 -0.017374 0.884664 
-0.043295 -0.017374 0.884654 
-0.041804 -0.017376 0.884761 
-0.040318 -0.017380 0.884966 
-0.038837 -0.017387 0.885310 
-0.037355 -0.017394 0.885661 
-0.035859 -0.017395 0.885701 
-0.034369 -0.017398 0.885888 
-0.032878 -0.017402 0.886058 
-0.031383 -0.017403 0.886145 
-0.029891 -0.017407 0.886330 
-0.028407 -0.017416 0.886779 
-0.026920 -0.017423 0.887167 
-0.025432 -0.017431 0.887561 
-0.023939 -0.017437 0.887846 
-0.022438 -0.017437 0.887856 
-0.020935 -0.017435 0.887754 
-0.019434 -0.017435 0.887737 
-0.017928 -0.017430 0.887484 
-0.016421 -0.017423 0.887135 
-0.014913 -0.017414 0.886663 
-0.013406 -0.017402 0.886086 
-0.011900 -0.017391 0.885524 
-0.010401 -0.017387 0.885320 
-0.008903 -0.017386 0.885244 
-0.007407 -0.017388 0.885340 
-0.005912 -0.017392 0.885584 
-0.004416 -0.017396 0.885757 
-0.002920 -0.017403 0.886132 
-0.001423 -0.017413 0.886615 
0.000076 -0.017432 0.887621 
0.001578 -0.017449 0.888478 
0.003084 -0.017471 0.889581 
0.004593 -0.017489 0.890499 
0.006105 -0.017508 0.891480 
0.007617 -0.017519 0.892053 
0.009131 -0.017530 0.892599 
0.010648 -0.017544 0.893308 
0.012172 -0.017564 0.894305 
0.013705 -0.017591 0.895723 
0.015254 -0.017631 0.897714 
0.016814 -0.017675 0.899987 
0.018380 -0.017718 0.902169 
0.019950 -0.017759 0.904236 
0.021528 -0.017799 0.906297 
0.023106 -0.017835 0.908115 
0.024701 -0.017878 0.910314 
0.026307 -0.017923 0.912617 
0.027926 -0.017973 0.915126 
0.029546 -0.018017 0.917380 
0.031163 -0.018055 0.919343 
0.032528 -0.019500 0.914028 
0.032769 -0.018084 0.920806 
0.034067 -0.019497 0.913854 
0.034375 -0.018110 0.922133 
0.051982 -0.017735 0.903011 
0.053489 -0.017728 0.902680 
0.055010 -0.017727 0.902600 
0.056544 -0.017729 0.902734 
0.058069 -0.017729 0.902709 
0.059603 -0.017731 0.902830 
0.061066 -0.017713 0.901901 
0.062439 -0.017670 0.899718 
0.063751 -0.017612 0.896771 
0.065097 -0.017566 0.894440 
0.066452 -0.017525 0.892326 
-0.189406 -0.016622 0.926324 
-0.187622 -0.016603 0.925251 
-0.185923 -0.016591 0.924580 
-0.184143 -0.016571 0.923493 
-0.182370 -0.016552 0.922418 
-0.180665 -0.016539 0.921677 
-0.179004 -0.016529 0.921148 
-0.177282 -0.016514 0.920294 
-0.175599 -0.016502 0.919627 
-0.173810 -0.016480 0.918391 
-0.172014 -0.016457 0.917089 
-0.170188 -0.016430 0.915605 
-0.168358 -0.016402 0.914077 
-0.166526 -0.016374 0.912502 
-0.164756 -0.016352 0.911247 
-0.162988 -0.016329 0.909979 
-0.161196 -0.016303 0.908547 
-0.159426 -0.016279 0.907216 
-0.157659 -0.016255 0.905876 
-0.155971 -0.016239 0.904964 
-0.154249 -0.016219 0.903841 
-0.152607 -0.016207 0.903168 
-0.150927 -0.016190 0.902249 
-0.149302 -0.016179 0.901646 
-0.147637 -0.016164 0.900791 
-0.146036 -0.016155 0.900305 
-0.144414 -0.016144 0.899685 
-0.142863 -0.016141 0.899495 
-0.141298 -0.016136 0.899215 
-0.139693 -0.016126 0.898668 
-0.138098 -0.016117 0.898174 
-0.136506 -0.016108 0.897688 
-0.134918 -0.016100 0.897226 
-0.133336 -0.016092 0.896786 
-0.131804 -0.016090 0.896673 
-0.130233 -0.016083 0.896297 
-0.128676 -0.016078 0.896007 
-0.127145 -0.016076 0.895895 
-0.125606 -0.016073 0.895720 
-0.124056 -0.016068 0.895460 
-0.122503 -0.016063 0.895174 
-0.120947 -0.016058 0.894856 
-0.119337 -0.016045 0.894131 
-0.117764 -0.016036 0.893664 
-0.116193 -0.016028 0.893199 
-0.114625 -0.016020 0.892747 
-0.113078 -0.016014 0.892452 
-0.111578 -0.016016 0.892520 
-0.110072 -0.016016 0.892543 
-0.108580 -0.016018 0.892678 
-0.107104 -0.016023 0.892956 
-0.105584 -0.016022 0.892868 
-0.104031 -0.016015 0.892499 
-0.102496 -0.016011 0.892272 
-0.100946 -0.016004 0.891899 
-0.099390 -0.015997 0.891464 
-0.097853 -0.015992 0.891197 
-0.096325 -0.015988 0.890996 
-0.094762 -0.015979 0.890467 
-0.093236 -0.015975 0.890266 
-0.091721 -0.015974 0.890173 
-0.090210 -0.015972 0.890113 
-0.088725 -0.015976 0.890307 
-0.087262 -0.015984 0.890743 
-0.085767 -0.015986 0.890852 
-0.084285 -0.015990 0.891111 
-0.082794 -0.015993 0.891272 
-0.081287 -0.015993 0.891265 
-0.079772 -0.015992 0.891181 
-0.078265 -0.015991 0.891173 
-0.076721 -0.015984 0.890741 
-0.075184 -0.015977 0.890366 
-0.073639 -0.015968 0.889885 
-0.072104 -0.015962 0.889508 
-0.070600 -0.015961 0.889503 
-0.069118 -0.015967 0.889793 
-0.067625 -0.015969 0.889941 
-0.066148 -0.015976 0.890299 
-0.064666 -0.015982 0.890629 
-0.063167 -0.015983 0.890724 
-0.061681 -0.015988 0.891005 
-0.060193 -0.015993 0.891278 
-0.058676 -0.015990 0.891117 
-0.057162 -0.015988 0.891001 
-0.055637 -0.015983 0.890704 
-0.054095 -0.015972 0.890099 
-0.052553 -0.015961 0.889477 
-0.051027 -0.015954 0.889084 
-0.049484 -0.015941 0.888370 
-0.047944 -0.015928 0.887658 
-0.046419 -0.015920 0.887189 
-0.044908 -0.015916 0.886968 
-0.043408 -0.015916 0.886968 
-0.041914 -0.015918 0.887089 
-0.040432 -0.015925 0.887467 
-0.038947 -0.015931 0.887817 
-0.037461 -0.015937 0.888164 
-0.035964 -0.015939 0.888273 
-0.034469 -0.015943 0.888452 
-0.032973 -0.015946 0.888616 
-0.031477 -0.015949 0.888786 
-0.029981 -0.015952 0.888982 
-0.028493 -0.015960 0.889440 
-0.027004 -0.015969 0.889918 
-0.025510 -0.015976 0.890299 
-0.024012 -0.015981 0.890572 
-0.022509 -0.015982 0.890659 
-0.021001 -0.015981 0.890572 
-0.019495 -0.015981 0.890563 
-0.017987 -0.015978 0.890396 
-0.016477 -0.015973 0.890142 
-0.014964 -0.015965 0.889692 
-0.013451 -0.015955 0.889126 
-0.011941 -0.015944 0.888547 
-0.010434 -0.015938 0.888171 
-0.008930 -0.015933 0.887907 
-0.007429 -0.015933 0.887912 
-0.005929 -0.015936 0.888076 
-0.004428 -0.015938 0.888169 
-0.002928 -0.015945 0.888610 
-0.001427 -0.015956 0.889170 
0.000077 -0.015972 0.890099 
0.001583 -0.015989 0.891039 
0.003093 -0.016006 0.891971 
0.004604 -0.016019 0.892696 
0.006119 -0.016033 0.893497 
0.007634 -0.016043 0.894056 
0.009151 -0.016052 0.894551 
0.010673 -0.016067 0.895365 
0.012200 -0.016085 0.896368 
0.013737 -0.016110 0.897767 
0.015285 -0.016142 0.899572 
0.016847 -0.016181 0.901750 
0.018414 -0.016219 0.903845 
0.019982 -0.016251 0.905659 
0.021559 -0.016287 0.907616 
0.023142 -0.016321 0.909512 
0.024739 -0.016360 0.911720 
0.026351 -0.016404 0.914146 
0.027982 -0.016454 0.916951 
0.029605 -0.016495 0.919233 
0.031223 -0.016529 0.921110 
0.032832 -0.016555 0.922556 
0.034434 -0.016575 0.923699 
0.035916 -0.018101 0.921654 
0.036037 -0.016595 0.924780 
0.037452 -0.018090 0.921112 
0.037650 -0.016616 0.925984 
0.038984 -0.018079 0.920529 
0.039267 -0.016638 0.927217 
0.040507 -0.018064 0.919780 
0.040872 -0.016653 0.928059 
0.049228 -0.017843 0.908536 
0.047729 -0.017857 0.909248 
0.048214 -0.016482 0.918486 
0.049720 -0.016466 0.917616 
0.052481 -0.016359 0.911683 
0.053985 -0.016348 0.911064 
0.055492 -0.016339 0.910515 
0.057020 -0.016335 0.910330 
0.058527 -0.016326 0.909829 
0.060034 -0.016318 0.909373 
0.061477 -0.016293 0.907978 
0.062842 -0.016249 0.905516 
0.064156 -0.016194 0.902473 
0.065492 -0.016148 0.899868 
0.066811 -0.016099 0.897144 
0.068527 -0.017671 0.899763 
-0.189374 -0.015049 0.926169 
-0.187622 -0.015035 0.925251 
-0.185968 -0.015027 0.924801 
-0.184244 -0.015014 0.923998 
-0.182559 -0.015004 0.923377 
-0.180927 -0.014998 0.923012 
-0.179328 -0.014995 0.922816 
-0.177659 -0.014986 0.922248 
-0.176010 -0.014978 0.921779 
-0.174255 -0.014961 0.920738 
-0.172508 -0.014945 0.919722 
-0.170727 -0.014925 0.918507 
-0.168926 -0.014903 0.917158 
-0.167136 -0.014882 0.915847 
-0.165377 -0.014863 0.914683 
-0.163621 -0.014844 0.913512 
-0.161822 -0.014820 0.912078 
-0.160029 -0.014797 0.910649 
-0.158238 -0.014774 0.909201 
-0.156526 -0.014757 0.908187 
-0.154784 -0.014738 0.906973 
-0.153122 -0.014725 0.906215 
-0.151420 -0.014709 0.905198 
-0.149757 -0.014696 0.904395 
-0.148068 -0.014680 0.903417 
-0.146429 -0.014669 0.902732 
-0.144773 -0.014655 0.901924 
-0.143202 -0.014651 0.901629 
-0.141603 -0.014643 0.901154 
-0.139979 -0.014632 0.900506 
-0.138368 -0.014623 0.899932 
-0.136772 -0.014615 0.899441 
-0.135184 -0.014608 0.898989 
-0.133609 -0.014602 0.898623 
-0.132074 -0.014600 0.898512 
-0.130515 -0.014596 0.898235 
-0.128981 -0.014594 0.898132 
-0.127476 -0.014595 0.898224 
-0.125962 -0.014596 0.898258 
-0.124437 -0.014595 0.898208 
-0.122892 -0.014592 0.898016 
-0.121333 -0.014587 0.897713 
-0.119706 -0.014574 0.896892 
-0.118113 -0.014564 0.896312 
-0.116522 -0.014555 0.895732 
-0.114926 -0.014544 0.895093 
-0.113354 -0.014537 0.894628 
-0.111838 -0.014536 0.894598 
-0.110318 -0.014535 0.894535 
-0.108820 -0.014537 0.894656 
-0.107351 -0.014543 0.895015 
-0.105838 -0.014543 0.895015 
-0.104302 -0.014540 0.894823 
-0.102784 -0.014539 0.894771 
-0.101231 -0.014533 0.894416 
-0.099671 -0.014527 0.893988 
-0.098128 -0.014522 0.893700 
-0.096585 -0.014517 0.893402 
-0.095017 -0.014508 0.892863 
-0.093496 -0.014506 0.892750 
-0.091977 -0.014505 0.892656 
-0.090460 -0.014504 0.892578 
-0.088960 -0.014505 0.892663 
-0.087475 -0.014509 0.892917 
-0.085951 -0.014507 0.892764 
-0.084458 -0.014509 0.892933 
-0.082956 -0.014511 0.893020 
-0.081448 -0.014511 0.893031 
-0.079940 -0.014511 0.893052 
-0.078445 -0.014514 0.893226 
-0.076914 -0.014510 0.892982 
-0.075389 -0.014507 0.892793 
-0.073855 -0.014502 0.892501 
-0.072323 -0.014498 0.892217 
-0.070821 -0.014499 0.892286 
-0.069328 -0.014502 0.892490 
-0.067829 -0.014504 0.892615 
-0.066339 -0.014509 0.892881 
-0.064841 -0.014511 0.893040 
-0.063326 -0.014510 0.892960 
-0.061829 -0.014513 0.893138 
-0.060326 -0.014514 0.893237 
-0.058800 -0.014510 0.892996 
-0.057282 -0.014508 0.892871 
-0.055754 -0.014504 0.892575 
-0.054213 -0.014495 0.892040 
-0.052673 -0.014486 0.891500 
-0.051152 -0.014482 0.891268 
-0.049611 -0.014472 0.890645 
-0.048072 -0.014462 0.890023 
-0.046547 -0.014456 0.889643 
-0.045037 -0.014454 0.889519 
-0.043534 -0.014454 0.889542 
-0.042041 -0.014458 0.889760 
-0.040561 -0.014467 0.890305 
-0.039072 -0.014473 0.890665 
-0.037581 -0.014478 0.891018 
-0.036082 -0.014481 0.891208 
-0.034583 -0.014484 0.891382 
-0.033079 -0.014485 0.891462 
-0.031578 -0.014488 0.891636 
-0.030077 -0.014491 0.891831 
-0.028576 -0.014495 0.892052 
-0.027080 -0.014501 0.892426 
-0.025579 -0.014506 0.892700 
-0.024074 -0.014508 0.892877 
-0.022567 -0.014510 0.892964 
-0.021060 -0.014511 0.893047 
-0.019550 -0.014511 0.893047 
-0.018037 -0.014509 0.892884 
-0.016526 -0.014507 0.892790 
-0.015009 -0.014500 0.892349 
-0.013492 -0.014491 0.891798 
-0.011977 -0.014482 0.891225 
-0.010466 -0.014477 0.890912 
-0.008956 -0.014470 0.890483 
-0.007451 -0.014471 0.890576 
-0.005947 -0.014474 0.890752 
-0.004442 -0.014477 0.890929 
-0.002937 -0.014484 0.891369 
-0.001431 -0.014493 0.891912 
0.000077 -0.014504 0.892576 
0.001587 -0.014517 0.893419 
0.003100 -0.014530 0.894175 
0.004615 -0.014539 0.894730 
0.006132 -0.014550 0.895440 
0.007651 -0.014559 0.895999 
0.009171 -0.014567 0.896499 
0.010696 -0.014581 0.897327 
0.012227 -0.014597 0.898334 
0.013765 -0.014618 0.899642 
0.015315 -0.014646 0.901335 
0.016876 -0.014678 0.903333 
0.018444 -0.014711 0.905339 
0.020013 -0.014739 0.907063 
0.021595 -0.014772 0.909105 
0.023184 -0.014806 0.911182 
0.024791 -0.014845 0.913608 
0.026412 -0.014889 0.916274 
0.028051 -0.014936 0.919214 
0.029679 -0.014974 0.921510 
0.031294 -0.015001 0.923202 
0.032900 -0.015022 0.924468 
0.034494 -0.015036 0.925324 
0.036090 -0.015049 0.926118 
0.037688 -0.015062 0.926930 
0.039290 -0.015075 0.927756 
0.040877 -0.015082 0.928172 
0.042346 -0.016616 0.925973 
0.042417 -0.015071 0.927525 
0.043904 -0.016613 0.925828 
0.043970 -0.015067 0.927223 
0.045411 -0.016592 0.924645 
0.045470 -0.015044 0.925839 
0.046817 -0.016536 0.921545 
0.046966 -0.015022 0.924473 
0.048456 -0.014999 0.923092 
0.049975 -0.014987 0.922328 
0.051080 -0.016405 0.914201 
0.051439 -0.014959 0.920622 
0.052943 -0.014945 0.919717 
0.054440 -0.014929 0.918732 
0.055928 -0.014911 0.917674 
0.057436 -0.014900 0.916981 
0.058926 -0.014885 0.916038 
0.060410 -0.014869 0.915067 
0.061834 -0.014839 0.913239 
0.063202 -0.014798 0.910714 
0.064535 -0.014751 0.907798 
0.065885 -0.014710 0.905267 
-0.184389 -0.013458 0.924726 
-0.182768 -0.013454 0.924435 
-0.181177 -0.013452 0.924290 
-0.179607 -0.013452 0.924253 
-0.178005 -0.013449 0.924043 
-0.176391 -0.013445 0.923773 
-0.174689 -0.013434 0.923030 
-0.172991 -0.013423 0.922297 
-0.171273 -0.013411 0.921444 
-0.169484 -0.013392 0.920187 
-0.167702 -0.013374 0.918948 
-0.165951 -0.013358 0.917858 
-0.164203 -0.013343 0.916762 
-0.162398 -0.013322 0.915323 
-0.160614 -0.013302 0.913975 
-0.158830 -0.013282 0.912603 
-0.157097 -0.013266 0.911502 
-0.155347 -0.013248 0.910277 
-0.153666 -0.013236 0.909433 
-0.151943 -0.013220 0.908322 
-0.150230 -0.013204 0.907251 
-0.148517 -0.013188 0.906160 
-0.146842 -0.013175 0.905277 
-0.145163 -0.013162 0.904351 
-0.143559 -0.013155 0.903876 
-0.141941 -0.013147 0.903309 
-0.140298 -0.013136 0.902560 
-0.138669 -0.013126 0.901887 
-0.137069 -0.013119 0.901391 
-0.135476 -0.013112 0.900935 
-0.133901 -0.013107 0.900585 
-0.132376 -0.013107 0.900568 
-0.130827 -0.013104 0.900387 
-0.129306 -0.013104 0.900391 
-0.127824 -0.013108 0.900678 
-0.126345 -0.013113 0.900984 
-0.124842 -0.013115 0.901133 
-0.123307 -0.013114 0.901051 
-0.121743 -0.013109 0.900748 
-0.120096 -0.013096 0.899817 
-0.118473 -0.013085 0.899042 
-0.116842 -0.013072 0.898188 
-0.115228 -0.013061 0.897444 
-0.113630 -0.013052 0.896805 
-0.112098 -0.013050 0.896681 
-0.110561 -0.013048 0.896510 
-0.109068 -0.013050 0.896694 
-0.107596 -0.013056 0.897058 
-0.106092 -0.013057 0.897167 
-0.104566 -0.013056 0.897086 
-0.103047 -0.013056 0.897064 
-0.101490 -0.013051 0.896706 
-0.099924 -0.013044 0.896261 
-0.098386 -0.013041 0.896048 
-0.096838 -0.013037 0.895747 
-0.095276 -0.013030 0.895291 
-0.093759 -0.013030 0.895259 
-0.092243 -0.013029 0.895237 
-0.090722 -0.013028 0.895166 
-0.089216 -0.013029 0.895238 
-0.087718 -0.013032 0.895398 
-0.086180 -0.013028 0.895141 
-0.084667 -0.013028 0.895144 
-0.083153 -0.013028 0.895138 
-0.081642 -0.013028 0.895165 
-0.080147 -0.013031 0.895361 
-0.078650 -0.013034 0.895560 
-0.077131 -0.013033 0.895495 
-0.075615 -0.013033 0.895474 
-0.074086 -0.013030 0.895284 
-0.072550 -0.013026 0.895015 
-0.071050 -0.013028 0.895180 
-0.069551 -0.013031 0.895365 
-0.068040 -0.013032 0.895396 
-0.066539 -0.013034 0.895566 
-0.065029 -0.013035 0.895629 
-0.063503 -0.013032 0.895450 
-0.061989 -0.013032 0.895455 
-0.060476 -0.013033 0.895464 
-0.058945 -0.013029 0.895209 
-0.057419 -0.013026 0.895004 
-0.055881 -0.013020 0.894613 
-0.054336 -0.013012 0.894072 
-0.052792 -0.013004 0.893518 
-0.051269 -0.013001 0.893302 
-0.049728 -0.012993 0.892757 
-0.048195 -0.012987 0.892308 
-0.046675 -0.012983 0.892090 
-0.045166 -0.012983 0.892076 
-0.043660 -0.012984 0.892108 
-0.042166 -0.012988 0.892421 
-0.040686 -0.012997 0.893051 
-0.039193 -0.013003 0.893428 
-0.037699 -0.013009 0.893809 
-0.036196 -0.013011 0.894004 
-0.034688 -0.013013 0.894100 
-0.033173 -0.013011 0.894008 
-0.031664 -0.013012 0.894084 
-0.030157 -0.013014 0.894193 
-0.028649 -0.013016 0.894307 
-0.027145 -0.013020 0.894575 
-0.025637 -0.013022 0.894745 
-0.024127 -0.013023 0.894832 
-0.022615 -0.013024 0.894841 
-0.021104 -0.013025 0.894930 
-0.019591 -0.013025 0.894930 
-0.018076 -0.013024 0.894841 
-0.016563 -0.013023 0.894832 
-0.015045 -0.013018 0.894478 
-0.013527 -0.013013 0.894097 
-0.012010 -0.013007 0.893693 
-0.010495 -0.013002 0.893396 
-0.008982 -0.012997 0.893047 
-0.007473 -0.013000 0.893227 
-0.005964 -0.013002 0.893337 
-0.004454 -0.013003 0.893454 
-0.002945 -0.013008 0.893799 
-0.001435 -0.013014 0.894164 
0.000077 -0.013020 0.894635 
0.001591 -0.013031 0.895379 
0.003107 -0.013041 0.896035 
0.004624 -0.013048 0.896520 
0.006144 -0.013058 0.897215 
0.007666 -0.013066 0.897778 
0.009189 -0.013073 0.898271 
0.010717 -0.013086 0.899112 
0.012252 -0.013102 0.900202 
0.013794 -0.013121 0.901507 
0.015346 -0.013144 0.903128 
0.016908 -0.013172 0.905034 
0.018477 -0.013200 0.906951 
0.020048 -0.013225 0.908665 
0.021633 -0.013255 0.910718 
0.023233 -0.013289 0.913094 
0.024852 -0.013329 0.915865 
0.026484 -0.013372 0.918776 
0.028128 -0.013415 0.921737 
0.029756 -0.013447 0.923924 
0.031365 -0.013467 0.925312 
0.032964 -0.013481 0.926277 
0.034552 -0.013489 0.926859 
0.036138 -0.013497 0.927364 
0.037726 -0.013504 0.927867 
0.039308 -0.013509 0.928179 
0.040869 -0.013506 0.927997 
0.042394 -0.013492 0.927025 
0.043928 -0.013482 0.926333 
0.045427 -0.013462 0.924959 
0.046927 -0.013444 0.923707 
0.048426 -0.013426 0.922528 
0.049940 -0.013414 0.921683 
0.051407 -0.013390 0.920054 
0.052899 -0.013374 0.918946 
0.054382 -0.013357 0.917759 
0.055863 -0.013340 0.916600 
0.057375 -0.013331 0.915997 
0.058869 -0.013319 0.915148 
0.060359 -0.013307 0.914296 
0.061856 -0.013296 0.913563 
0.063305 -0.013276 0.912190 
0.064726 -0.013251 0.910494 
0.066167 -0.013232 0.909138 
0.067585 -0.013208 0.907550 
-0.182874 -0.011894 0.924970 
-0.181357 -0.011897 0.925205 
-0.179848 -0.011901 0.925489 
-0.178320 -0.011903 0.925680 
-0.176766 -0.011904 0.925736 
-0.175138 -0.011900 0.925406 
-0.173478 -0.011893 0.924893 
-0.171777 -0.011884 0.924155 
-0.170000 -0.011869 0.922989 
-0.168209 -0.011852 0.921730 
-0.166452 -0.011838 0.920629 
-0.164680 -0.011823 0.919425 
-0.162884 -0.011805 0.918061 
-0.161112 -0.011789 0.916811 
-0.159340 -0.011773 0.915534 
-0.157604 -0.011759 0.914442 
-0.155860 -0.011744 0.913281 
-0.154170 -0.011733 0.912418 
-0.152440 -0.011718 0.911297 
-0.150723 -0.011705 0.910231 
-0.149004 -0.011690 0.909128 
-0.147321 -0.011679 0.908229 
-0.145622 -0.011666 0.907213 
-0.143984 -0.011657 0.906557 
-0.142346 -0.011649 0.905881 
-0.140668 -0.011636 0.904943 
-0.139017 -0.011626 0.904153 
-0.137413 -0.011620 0.903657 
-0.135818 -0.011614 0.903206 
-0.134253 -0.011611 0.902952 
-0.132750 -0.011613 0.903115 
-0.131199 -0.011611 0.902948 
-0.129674 -0.011611 0.902955 
-0.128199 -0.011616 0.903318 
-0.126717 -0.011620 0.903639 
-0.125221 -0.011623 0.903871 
-0.123695 -0.011623 0.903885 
-0.122136 -0.011620 0.903656 
-0.120483 -0.011608 0.902712 
-0.118841 -0.011597 0.901833 
-0.117191 -0.011584 0.900872 
-0.115560 -0.011573 0.900033 
-0.113945 -0.011564 0.899289 
-0.112385 -0.011560 0.898976 
-0.110831 -0.011556 0.898695 
-0.109323 -0.011557 0.898791 
-0.107849 -0.011562 0.899166 
-0.106356 -0.011565 0.899400 
-0.104839 -0.011566 0.899432 
-0.103327 -0.011567 0.899499 
-0.101764 -0.011562 0.899127 
-0.100202 -0.011557 0.898749 
-0.098668 -0.011555 0.898621 
-0.097138 -0.011554 0.898516 
-0.095591 -0.011550 0.898253 
-0.094079 -0.011551 0.898320 
-0.092560 -0.011551 0.898310 
-0.091025 -0.011549 0.898148 
-0.089507 -0.011549 0.898154 
-0.087996 -0.011550 0.898232 
-0.086444 -0.011546 0.897879 
-0.084923 -0.011545 0.897849 
-0.083403 -0.011545 0.897826 
