1619
0.067497 -0.070038 0.906357 
0.069208 -0.070220 0.908709 
0.070939 -0.070414 0.911214 
0.072765 -0.070691 0.914798 
-0.155758 -0.083948 1.110733 
-0.152908 -0.083418 1.103720 
-0.150690 -0.083224 1.101144 
-0.148445 -0.083010 1.098311 
-0.146202 -0.082790 1.095411 
-0.143924 -0.082546 1.092181 
-0.141635 -0.082289 1.088775 
-0.139319 -0.082009 1.085073 
-0.136921 -0.081673 1.080627 
-0.134508 -0.081319 1.075937 
-0.132187 -0.081011 1.071871 
-0.129922 -0.080730 1.068143 
-0.127769 -0.080510 1.065244 
-0.125785 -0.080394 1.063699 
-0.123888 -0.080330 1.062853 
-0.100324 -0.073589 0.973666 
-0.098546 -0.073490 0.972360 
-0.096748 -0.073374 0.970819 
-0.094985 -0.073280 0.969575 
-0.093185 -0.073153 0.967902 
-0.091367 -0.073008 0.965980 
-0.089533 -0.072845 0.963815 
-0.087600 -0.072593 0.960483 
-0.085599 -0.072274 0.956271 
-0.083604 -0.071949 0.951961 
-0.081605 -0.071607 0.947444 
-0.079630 -0.071273 0.943019 
-0.077748 -0.071010 0.939539 
-0.075944 -0.070809 0.936880 
-0.073905 -0.070375 0.931145 
-0.071900 -0.069956 0.925599 
-0.069927 -0.069550 0.920229 
-0.068008 -0.069180 0.915333 
-0.066136 -0.068843 0.910873 
-0.064509 -0.068750 0.909635 
-0.062866 -0.068636 0.908126 
-0.061191 -0.068479 0.906055 
-0.059520 -0.068319 0.903938 
-0.057839 -0.068138 0.901547 
-0.056173 -0.067967 0.899281 
-0.054522 -0.067805 0.897138 
-0.052896 -0.067664 0.895275 
-0.051281 -0.067531 0.893511 
-0.049687 -0.067417 0.892008 
-0.048109 -0.067319 0.890709 
-0.046536 -0.067223 0.889434 
-0.044986 -0.067153 0.888510 
-0.043438 -0.067083 0.887586 
-0.041887 -0.067002 0.886511 
-0.040339 -0.066920 0.885424 
-0.038801 -0.066849 0.884487 
-0.037260 -0.066768 0.883410 
-0.035730 -0.066700 0.882514 
-0.034210 -0.066645 0.881792 
-0.032690 -0.066585 0.880993 
-0.031169 -0.066517 0.880095 
-0.029656 -0.066461 0.879352 
-0.028138 -0.066387 0.878369 
-0.026629 -0.066326 0.877566 
-0.025120 -0.066260 0.876690 
-0.023619 -0.066205 0.875969 
-0.022115 -0.066138 0.875084 
-0.020621 -0.066090 0.874446 
-0.019129 -0.066043 0.873819 
-0.017639 -0.065997 0.873218 
-0.016157 -0.065970 0.872859 
-0.014675 -0.065944 0.872513 
-0.013196 -0.065924 0.872249 
-0.011716 -0.065892 0.871831 
-0.010239 -0.065871 0.871550 
-0.008759 -0.065825 0.870936 
-0.007284 -0.065803 0.870641 
-0.005811 -0.065782 0.870377 
-0.004337 -0.065752 0.869975 
-0.002865 -0.065726 0.869633 
-0.001395 -0.065710 0.869414 
0.000075 -0.065683 0.869057 
0.001544 -0.065665 0.868818 
0.003013 -0.065672 0.868916 
0.004481 -0.065668 0.868857 
0.005951 -0.065673 0.868934 
0.007424 -0.065710 0.869411 
0.008898 -0.065745 0.869880 
0.010374 -0.065776 0.870293 
0.011852 -0.065816 0.870815 
0.013328 -0.065832 0.871030 
0.014797 -0.065817 0.870834 
0.016269 -0.065816 0.870818 
0.017739 -0.065811 0.870750 
0.019214 -0.065818 0.870852 
0.020696 -0.065850 0.871264 
0.022182 -0.065889 0.871790 
0.023667 -0.065919 0.872182 
0.025158 -0.065965 0.872789 
0.026652 -0.066009 0.873380 
0.028143 -0.066043 0.873819 
0.029638 -0.066083 0.874359 
0.031141 -0.066137 0.875064 
0.032650 -0.066197 0.875858 
0.034166 -0.066264 0.876754 
0.035688 -0.066339 0.877733 
0.037221 -0.066427 0.878898 
0.038755 -0.066509 0.879986 
0.040300 -0.066604 0.881241 
0.041849 -0.066698 0.882491 
0.043412 -0.066807 0.883930 
0.044971 -0.066904 0.885219 
0.046545 -0.067015 0.886682 
0.048109 -0.067106 0.887890 
0.049671 -0.067189 0.888986 
0.051237 -0.067271 0.890076 
0.052796 -0.067341 0.890999 
0.054359 -0.067411 0.891923 
0.055957 -0.067520 0.893366 
0.057569 -0.067639 0.894946 
0.059191 -0.067764 0.896593 
0.060846 -0.067920 0.898656 
0.062519 -0.068087 0.900872 
0.064183 -0.068237 0.902859 
0.065888 -0.068422 0.905303 
0.067603 -0.068610 0.907787 
0.069323 -0.068794 0.910216 
0.071063 -0.068989 0.912807 
0.072887 -0.069256 0.916331 
-0.155383 -0.081868 1.108063 
-0.152725 -0.081450 1.102394 
-0.150600 -0.081309 1.100488 
-0.148395 -0.081120 1.097937 
-0.146168 -0.080915 1.095163 
-0.143876 -0.080668 1.091813 
-0.141568 -0.080405 1.088262 
-0.139201 -0.080102 1.084154 
-0.136767 -0.079751 1.079410 
-0.134324 -0.079386 1.074464 
-0.132006 -0.079086 1.070402 
-0.129716 -0.078794 1.066447 
-0.127567 -0.078581 1.063567 
-0.125586 -0.078466 1.062016 
-0.123677 -0.078394 1.061041 
-0.098536 -0.071835 0.972261 
-0.096785 -0.071755 0.971183 
-0.095047 -0.071683 0.970208 
-0.093268 -0.071576 0.968762 
-0.091467 -0.071449 0.967035 
-0.089622 -0.071281 0.964771 
-0.087712 -0.071056 0.961720 
-0.085722 -0.070755 0.957644 
-0.083736 -0.070447 0.953473 
-0.081732 -0.070110 0.948916 
-0.079748 -0.069778 0.944419 
-0.077817 -0.069479 0.940379 
-0.075991 -0.069263 0.937457 
-0.073975 -0.068862 0.932024 
-0.071979 -0.068463 0.926620 
-0.070009 -0.068070 0.921313 
-0.068094 -0.067714 0.916491 
-0.066217 -0.067381 0.911984 
-0.064549 -0.067249 0.910200 
-0.062899 -0.067130 0.908590 
-0.061222 -0.066977 0.906516 
-0.059551 -0.066821 0.904407 
-0.057875 -0.066652 0.902110 
-0.056214 -0.066491 0.899932 
-0.054568 -0.066339 0.897885 
-0.052945 -0.066208 0.896110 
-0.051334 -0.066084 0.894431 
-0.049733 -0.065967 0.892842 
-0.048148 -0.065864 0.891442 
-0.046570 -0.065763 0.890084 
-0.045014 -0.065688 0.889068 
-0.043467 -0.065621 0.888163 
-0.041918 -0.065548 0.887173 
-0.040373 -0.065474 0.886173 
-0.038837 -0.065411 0.885319 
-0.037299 -0.065337 0.884320 
-0.035767 -0.065270 0.883415 
-0.034242 -0.065210 0.882600 
-0.032716 -0.065144 0.881699 
-0.031194 -0.065077 0.880799 
-0.029677 -0.065016 0.879973 
-0.028158 -0.064945 0.879008 
-0.026651 -0.064892 0.878287 
-0.025143 -0.064833 0.877495 
-0.023641 -0.064781 0.876785 
-0.022138 -0.064722 0.875991 
-0.020644 -0.064680 0.875427 
-0.019152 -0.064640 0.874889 
-0.017661 -0.064596 0.874285 
-0.016178 -0.064575 0.873996 
-0.014694 -0.064548 0.873634 
-0.013212 -0.064522 0.873283 
-0.011730 -0.064491 0.872861 
-0.010251 -0.064470 0.872581 
-0.008769 -0.064420 0.871898 
-0.007292 -0.064397 0.871592 
-0.005817 -0.064377 0.871318 
-0.004342 -0.064347 0.870915 
-0.002869 -0.064322 0.870583 
-0.001397 -0.064307 0.870379 
0.000075 -0.064281 0.870023 
0.001545 -0.064263 0.869778 
0.003016 -0.064264 0.869792 
0.004486 -0.064259 0.869729 
0.005957 -0.064271 0.869885 
0.007432 -0.064307 0.870377 
0.008909 -0.064347 0.870917 
0.010386 -0.064378 0.871331 
0.011866 -0.064416 0.871847 
0.013342 -0.064427 0.872001 
0.014815 -0.064419 0.871895 
0.016290 -0.064425 0.871975 
0.017766 -0.064432 0.872072 
0.019245 -0.064447 0.872267 
0.020729 -0.064477 0.872677 
0.022215 -0.064508 0.873101 
0.023699 -0.064530 0.873388 
0.025187 -0.064558 0.873767 
0.026679 -0.064595 0.874278 
0.028171 -0.064627 0.874713 
0.029671 -0.064673 0.875328 
0.031174 -0.064721 0.875973 
0.032694 -0.064798 0.877023 
0.034221 -0.064883 0.878170 
0.035753 -0.064970 0.879345 
0.037294 -0.065064 0.880618 
0.038839 -0.065157 0.881885 
0.040387 -0.065251 0.883146 
0.041932 -0.065331 0.884237 
0.043493 -0.065430 0.885579 
0.045047 -0.065513 0.886701 
0.046608 -0.065602 0.887897 
0.048164 -0.065676 0.888906 
0.049723 -0.065750 0.889906 
0.051285 -0.065824 0.890911 
0.052852 -0.065900 0.891931 
0.054428 -0.065982 0.893050 
0.056028 -0.066089 0.894497 
0.057647 -0.066212 0.896164 
0.059276 -0.066339 0.897876 
0.060934 -0.066492 0.899954 
0.062612 -0.066659 0.902210 
0.064286 -0.066814 0.904307 
0.065981 -0.066983 0.906592 
0.067685 -0.067152 0.908882 
0.069391 -0.067317 0.911116 
-0.154534 -0.079553 1.102007 
-0.152643 -0.079538 1.101807 
-0.150563 -0.079424 1.100218 
-0.148377 -0.079250 1.097807 
-0.146170 -0.079060 1.095173 
-0.143860 -0.078808 1.091694 
-0.141533 -0.078541 1.087991 
-0.139128 -0.078223 1.083588 
-0.136660 -0.077861 1.078568 
-0.134184 -0.077484 1.073345 
-0.131843 -0.077175 1.069074 
-0.129473 -0.076842 1.064451 
-0.127343 -0.076643 1.061700 
-0.125330 -0.076510 1.059855 
-0.123379 -0.076411 1.058485 
-0.097067 -0.070314 0.974020 
-0.095200 -0.070151 0.971769 
-0.093350 -0.069996 0.969614 
-0.091535 -0.069861 0.967757 
-0.089669 -0.069683 0.965282 
-0.087791 -0.069488 0.962588 
-0.085819 -0.069210 0.958736 
-0.083844 -0.068919 0.954700 
-0.081838 -0.068591 0.950152 
-0.079843 -0.068258 0.945548 
-0.077870 -0.067931 0.941016 
-0.076001 -0.067684 0.937591 
-0.074006 -0.067310 0.932419 
-0.072033 -0.066942 0.927319 
-0.070087 -0.066583 0.922335 
-0.068179 -0.066243 0.917635 
-0.066315 -0.065933 0.913340 
-0.064608 -0.065767 0.911043 
-0.062936 -0.065629 0.909133 
-0.061247 -0.065467 0.906879 
-0.059580 -0.065320 0.904850 
-0.057910 -0.065162 0.902656 
-0.056254 -0.065012 0.900579 
-0.054613 -0.064871 0.898623 
-0.052994 -0.064750 0.896945 
-0.051377 -0.064622 0.895184 
-0.049770 -0.064502 0.893511 
-0.048184 -0.064400 0.892098 
-0.046604 -0.064301 0.890730 
-0.045043 -0.064222 0.889640 
-0.043498 -0.064162 0.888810 
-0.041953 -0.064097 0.887907 
-0.040414 -0.064037 0.887079 
-0.038878 -0.063977 0.886245 
-0.037341 -0.063911 0.885331 
-0.035804 -0.063839 0.884334 
-0.034277 -0.063779 0.883506 
-0.032743 -0.063702 0.882426 
-0.031219 -0.063636 0.881518 
-0.029701 -0.063576 0.880694 
-0.028184 -0.063513 0.879812 
-0.026675 -0.063461 0.879093 
-0.025171 -0.063415 0.878454 
-0.023669 -0.063369 0.877825 
-0.022167 -0.063319 0.877125 
-0.020673 -0.063286 0.876664 
-0.019179 -0.063247 0.876127 
-0.017686 -0.063203 0.875517 
-0.016199 -0.063176 0.875149 
-0.014713 -0.063149 0.874776 
-0.013229 -0.063124 0.874429 
-0.011745 -0.063093 0.873998 
-0.010263 -0.063067 0.873640 
-0.008779 -0.063017 0.872942 
-0.007300 -0.062984 0.872481 
-0.005822 -0.062957 0.872116 
-0.004346 -0.062929 0.871718 
-0.002871 -0.062905 0.871388 
-0.001398 -0.062890 0.871182 
0.000075 -0.062869 0.870896 
0.001547 -0.062851 0.870638 
0.003019 -0.062851 0.870638 
0.004491 -0.062851 0.870646 
0.005963 -0.062863 0.870808 
0.007440 -0.062899 0.871303 
0.008918 -0.062938 0.871848 
0.010397 -0.062968 0.872260 
0.011878 -0.063000 0.872702 
0.013357 -0.063017 0.872938 
0.014832 -0.063016 0.872932 
0.016310 -0.063023 0.873031 
0.017788 -0.063032 0.873155 
0.019270 -0.063051 0.873422 
0.020755 -0.063075 0.873749 
0.022241 -0.063100 0.874096 
0.023728 -0.063126 0.874459 
0.025219 -0.063158 0.874901 
0.026717 -0.063201 0.875496 
0.028214 -0.063239 0.876024 
0.029722 -0.063297 0.876818 
0.031227 -0.063344 0.877469 
0.032753 -0.063427 0.878619 
0.034288 -0.063517 0.879875 
0.035831 -0.063617 0.881252 
0.037379 -0.063717 0.882635 
0.038935 -0.063820 0.884073 
0.040487 -0.063911 0.885327 
0.042028 -0.063978 0.886263 
0.043584 -0.064063 0.887438 
0.045131 -0.064130 0.888367 
0.046682 -0.064197 0.889291 
0.048229 -0.064256 0.890106 
0.049779 -0.064314 0.890909 
0.051342 -0.064386 0.891902 
0.052917 -0.064467 0.893029 
0.054502 -0.064556 0.894264 
0.056111 -0.064669 0.895828 
0.057743 -0.064801 0.897651 
0.059374 -0.064924 0.899360 
0.061034 -0.065074 0.901434 
0.062722 -0.065244 0.903790 
0.064408 -0.065404 0.906011 
0.066106 -0.065570 0.908308 
0.067806 -0.065729 0.910505 
0.069552 -0.065925 0.913222 
-0.154426 -0.077631 1.101238 
-0.152527 -0.077612 1.100971 
-0.150486 -0.077519 1.099658 
-0.148305 -0.077351 1.097273 
-0.146103 -0.077168 1.094673 
-0.143793 -0.076922 1.091182 
-0.141448 -0.076651 1.087344 
-0.139008 -0.076320 1.082653 
-0.136524 -0.075957 1.077492 
-0.134036 -0.075581 1.072162 
-0.131670 -0.075265 1.067675 
-0.129241 -0.074903 1.062543 
-0.127041 -0.074666 1.059181 
-0.124868 -0.074438 1.055943 
-0.122698 -0.074205 1.052640 
-0.097351 -0.068863 0.976866 
-0.095365 -0.068622 0.973452 
-0.093433 -0.068413 0.970479 
-0.091586 -0.068259 0.968293 
-0.089698 -0.068069 0.965595 
-0.087802 -0.067865 0.962703 
-0.085844 -0.067605 0.959016 
-0.083878 -0.067328 0.955086 
-0.081881 -0.067015 0.950646 
-0.079886 -0.066691 0.946055 
-0.077919 -0.066378 0.941611 
-0.076012 -0.066103 0.937716 
-0.074036 -0.065757 0.932800 
-0.072079 -0.065412 0.927911 
-0.070156 -0.065083 0.923247 
-0.068252 -0.064758 0.918626 
-0.066397 -0.064464 0.914465 
-0.064658 -0.064272 0.911739 
-0.062969 -0.064122 0.909609 
-0.061278 -0.063962 0.907335 
-0.059611 -0.063819 0.905317 
-0.057946 -0.063671 0.903218 
-0.056295 -0.063531 0.901229 
-0.054658 -0.063400 0.899366 
-0.053039 -0.063282 0.897693 
-0.051425 -0.063164 0.896021 
-0.049822 -0.063052 0.894431 
-0.048228 -0.062946 0.892930 
-0.046646 -0.062848 0.891539 
-0.045083 -0.062770 0.890435 
-0.043533 -0.062706 0.889523 
-0.041987 -0.062643 0.888628 
-0.040451 -0.062591 0.887889 
-0.038914 -0.062533 0.887067 
-0.037377 -0.062470 0.886173 
-0.035839 -0.062400 0.885183 
-0.034309 -0.062340 0.884334 
-0.032771 -0.062258 0.883170 
-0.031245 -0.062193 0.882247 
-0.029726 -0.062135 0.881428 
-0.028210 -0.062079 0.880627 
-0.026700 -0.062028 0.879907 
-0.025196 -0.061989 0.879352 
-0.023693 -0.061945 0.878725 
-0.022192 -0.061901 0.878105 
-0.020699 -0.061875 0.877738 
-0.019205 -0.061844 0.877301 
-0.017711 -0.061808 0.876784 
-0.016224 -0.061787 0.876494 
-0.014736 -0.061761 0.876123 
-0.013248 -0.061731 0.875700 
-0.011762 -0.061701 0.875261 
-0.010278 -0.061675 0.874894 
-0.008791 -0.061619 0.874108 
-0.007309 -0.061580 0.873549 
-0.005829 -0.061554 0.873175 
-0.004351 -0.061524 0.872762 
-0.002874 -0.061496 0.872355 
-0.001399 -0.061482 0.872153 
0.000075 -0.061460 0.871853 
0.001548 -0.061436 0.871502 
0.003021 -0.061424 0.871337 
0.004494 -0.061424 0.871337 
0.005968 -0.061430 0.871424 
0.007445 -0.061460 0.871847 
0.008924 -0.061499 0.872400 
0.010405 -0.061533 0.872879 
0.011888 -0.061570 0.873413 
0.013370 -0.061598 0.873809 
0.014850 -0.061610 0.873978 
0.016331 -0.061623 0.874162 
0.017813 -0.061637 0.874364 
0.019297 -0.061656 0.874635 
0.020784 -0.061681 0.874980 
0.022272 -0.061705 0.875326 
0.023764 -0.061737 0.875774 
0.025257 -0.061768 0.876222 
0.026757 -0.061812 0.876835 
0.028257 -0.061849 0.877369 
0.029770 -0.061912 0.878260 
0.031279 -0.061959 0.878921 
0.032811 -0.062046 0.880167 
0.034352 -0.062142 0.881523 
0.035902 -0.062247 0.883008 
0.037455 -0.062346 0.884413 
0.039017 -0.062453 0.885941 
0.040572 -0.062542 0.887199 
0.042116 -0.062607 0.888118 
0.043671 -0.062683 0.889203 
0.045212 -0.062736 0.889946 
0.046758 -0.062792 0.890749 
0.048298 -0.062837 0.891377 
0.049840 -0.062881 0.892004 
0.051410 -0.062957 0.893079 
0.052997 -0.063048 0.894381 
0.054592 -0.063144 0.895738 
0.056212 -0.063263 0.897427 
0.057852 -0.063399 0.899350 
0.059485 -0.063518 0.901047 
0.061149 -0.063665 0.903125 
0.062840 -0.063832 0.905494 
0.064541 -0.064001 0.907895 
0.066244 -0.064164 0.910205 
0.067980 -0.064350 0.912842 
0.069769 -0.064577 0.916069 
-0.155094 -0.076092 1.106002 
-0.152413 -0.075689 1.100147 
-0.150388 -0.075606 1.098941 
-0.148209 -0.075442 1.096560 
-0.146009 -0.075264 1.093966 
-0.143702 -0.075025 1.090498 
-0.141360 -0.074761 1.086663 
-0.138891 -0.074423 1.081745 
-0.136392 -0.074058 1.076450 
-0.133905 -0.073691 1.071114 
-0.131509 -0.073365 1.066372 
-0.129022 -0.072978 1.060743 
-0.126663 -0.072654 1.056030 
-0.124250 -0.072288 1.050720 
-0.099748 -0.067714 0.984227 
-0.097537 -0.067335 0.978731 
-0.095448 -0.067031 0.974302 
-0.093499 -0.066814 0.971158 
-0.091638 -0.066655 0.968841 
-0.089747 -0.066468 0.966123 
-0.087849 -0.066268 0.963222 
-0.085881 -0.066007 0.959427 
-0.083904 -0.065729 0.955384 
-0.081898 -0.065417 0.950842 
-0.079886 -0.065087 0.946051 
-0.077911 -0.064775 0.941516 
-0.075995 -0.064499 0.937506 
-0.074049 -0.064186 0.932956 
-0.072122 -0.063877 0.928457 
-0.070223 -0.063578 0.924121 
-0.068335 -0.063277 0.919735 
-0.066489 -0.063002 0.915738 
-0.064726 -0.062792 0.912694 
-0.063015 -0.062626 0.910278 
-0.061316 -0.062463 0.907906 
-0.059649 -0.062325 0.905899 
-0.057989 -0.062186 0.903887 
-0.056342 -0.062056 0.901994 
-0.054704 -0.061928 0.900127 
-0.053088 -0.061818 0.898528 
-0.051473 -0.061703 0.896862 
-0.049864 -0.061588 0.895184 
-0.048269 -0.061484 0.893674 
-0.046685 -0.061387 0.892273 
-0.045116 -0.061305 0.891079 
-0.043564 -0.061242 0.890161 
-0.042021 -0.061185 0.889339 
-0.040484 -0.061136 0.888614 
-0.038950 -0.061086 0.887889 
-0.037418 -0.061035 0.887160 
-0.035879 -0.060968 0.886173 
-0.034348 -0.060910 0.885331 
-0.032807 -0.060829 0.884154 
-0.031280 -0.060765 0.883229 
-0.029756 -0.060702 0.882319 
-0.028239 -0.060648 0.881523 
-0.026727 -0.060599 0.880816 
-0.025222 -0.060561 0.880261 
-0.023720 -0.060523 0.879714 
-0.022217 -0.060482 0.879109 
-0.020722 -0.060457 0.878749 
-0.019227 -0.060427 0.878314 
-0.017734 -0.060397 0.877881 
-0.016244 -0.060377 0.877595 
-0.014756 -0.060359 0.877324 
-0.013268 -0.060335 0.876980 
-0.011779 -0.060305 0.876548 
-0.010293 -0.060279 0.876165 
-0.008804 -0.060224 0.875364 
-0.007319 -0.060185 0.874797 
-0.005838 -0.060158 0.874411 
-0.004358 -0.060135 0.874070 
-0.002879 -0.060102 0.873586 
-0.001401 -0.060081 0.873293 
0.000075 -0.060055 0.872914 
0.001550 -0.060025 0.872477 
0.003024 -0.060008 0.872230 
0.004499 -0.060008 0.872230 
0.005974 -0.060014 0.872314 
0.007452 -0.060043 0.872735 
0.008933 -0.060080 0.873279 
0.010415 -0.060114 0.873765 
0.011901 -0.060156 0.874379 
0.013387 -0.060191 0.874881 
0.014871 -0.060214 0.875222 
0.016356 -0.060233 0.875495 
0.017842 -0.060252 0.875766 
0.019330 -0.060275 0.876105 
0.020821 -0.060304 0.876535 
0.022310 -0.060325 0.876832 
0.023805 -0.060357 0.877295 
0.025301 -0.060388 0.877744 
0.026804 -0.060430 0.878365 
0.028307 -0.060469 0.878919 
0.029826 -0.060536 0.879906 
0.031340 -0.060588 0.880654 
0.032882 -0.060685 0.882059 
0.034425 -0.060778 0.883411 
0.035979 -0.060880 0.884899 
0.037532 -0.060971 0.886229 
0.039097 -0.061076 0.887753 
0.040652 -0.061157 0.888933 
0.042194 -0.061215 0.889771 
0.043743 -0.061277 0.890676 
0.045285 -0.061327 0.891391 
0.046825 -0.061371 0.892030 
0.048363 -0.061408 0.892579 
0.049912 -0.061457 0.893293 
0.051489 -0.061538 0.894458 
0.053090 -0.061640 0.895949 
0.054704 -0.061753 0.897590 
0.056340 -0.061883 0.899476 
0.057981 -0.062011 0.901342 
0.059617 -0.062128 0.903043 
0.061272 -0.062259 0.904942 
0.062954 -0.062410 0.907134 
0.064665 -0.062582 0.909633 
0.066386 -0.062755 0.912147 
0.068162 -0.062971 0.915297 
0.069999 -0.063232 0.919093 
-0.152353 -0.073795 1.099714 
-0.150269 -0.073684 1.098066 
-0.148072 -0.073515 1.095552 
-0.145878 -0.073343 1.092984 
-0.143590 -0.073119 1.089648 
-0.141266 -0.072871 1.085943 
-0.138817 -0.072550 1.081165 
-0.136321 -0.072196 1.075894 
-0.133836 -0.071839 1.070563 
-0.131340 -0.071465 1.064996 
-0.128721 -0.071014 1.058272 
-0.126177 -0.070591 1.051976 
-0.123569 -0.070121 1.044961 
-0.108571 -0.069093 1.004276 
-0.110793 -0.067711 1.009048 
-0.108622 -0.067422 1.004740 
-0.106611 -0.068923 1.001805 
-0.106614 -0.067227 1.001838 
-0.104535 -0.068672 0.998160 
-0.104536 -0.066981 0.998167 
-0.102054 -0.068142 0.990458 
-0.102196 -0.066555 0.991831 
-0.099930 -0.066166 0.986023 
-0.097694 -0.065783 0.980312 
-0.095563 -0.065457 0.975469 
-0.093551 -0.065205 0.971701 
-0.091681 -0.065043 0.969297 
-0.089791 -0.064862 0.966595 
-0.087899 -0.064673 0.963772 
-0.085929 -0.064417 0.959960 
-0.083941 -0.064138 0.955800 
-0.081925 -0.063826 0.951154 
-0.079895 -0.063490 0.946154 
-0.077901 -0.063171 0.941395 
-0.075961 -0.062882 0.937089 
-0.074048 -0.062604 0.932949 
-0.072146 -0.062324 0.928769 
-0.070278 -0.062061 0.924852 
-0.068419 -0.061794 0.920868 
-0.066591 -0.061543 0.917134 
-0.064800 -0.061316 0.913746 
-0.063074 -0.061140 0.911132 
-0.061368 -0.060975 0.908668 
-0.059694 -0.060835 0.906578 
-0.058039 -0.060706 0.904666 
-0.056396 -0.060585 0.902855 
-0.054761 -0.060465 0.901065 
-0.053143 -0.060357 0.899465 
-0.051526 -0.060244 0.897783 
-0.049915 -0.060132 0.896105 
-0.048319 -0.060031 0.894600 
-0.046733 -0.059937 0.893197 
-0.045162 -0.059856 0.891992 
-0.043605 -0.059789 0.890989 
-0.042060 -0.059733 0.890165 
-0.040521 -0.059684 0.889427 
-0.038986 -0.059635 0.888700 
-0.037453 -0.059587 0.887979 
-0.035918 -0.059531 0.887155 
-0.034386 -0.059476 0.886326 
-0.032847 -0.059402 0.885230 
-0.031318 -0.059340 0.884306 
-0.029792 -0.059279 0.883389 
-0.028273 -0.059225 0.882590 
-0.026760 -0.059178 0.881883 
-0.025251 -0.059136 0.881263 
-0.023747 -0.059099 0.880719 
-0.022244 -0.059063 0.880174 
-0.020747 -0.059039 0.879814 
-0.019251 -0.059010 0.879382 
-0.017757 -0.058986 0.879028 
-0.016266 -0.058967 0.878748 
-0.014776 -0.058950 0.878487 
-0.013285 -0.058927 0.878152 
-0.011796 -0.058904 0.877801 
-0.010308 -0.058878 0.877415 
-0.008818 -0.058835 0.876782 
-0.007331 -0.058798 0.876226 
-0.005847 -0.058772 0.875845 
-0.004365 -0.058749 0.875504 
-0.002883 -0.058716 0.875002 
-0.001403 -0.058691 0.874633 
0.000075 -0.058665 0.874241 
0.001552 -0.058635 0.873801 
0.003029 -0.058618 0.873551 
0.004506 -0.058618 0.873551 
0.005983 -0.058624 0.873629 
0.007463 -0.058652 0.874049 
0.008946 -0.058688 0.874585 
0.010431 -0.058720 0.875072 
0.011919 -0.058762 0.875697 
0.013407 -0.058798 0.876223 
0.014893 -0.058817 0.876507 
0.016379 -0.058830 0.876707 
0.017866 -0.058848 0.876966 
0.019356 -0.058870 0.877301 
0.020850 -0.058900 0.877742 
0.022343 -0.058926 0.878128 
0.023845 -0.058968 0.878760 
0.025346 -0.059004 0.879296 
0.026851 -0.059045 0.879914 
0.028359 -0.059088 0.880547 
0.029881 -0.059154 0.881535 
0.031399 -0.059205 0.882292 
0.032940 -0.059294 0.883621 
0.034486 -0.059384 0.884966 
0.036038 -0.059477 0.886352 
0.037596 -0.059571 0.887740 
0.039160 -0.059667 0.889184 
0.040714 -0.059741 0.890286 
0.042254 -0.059792 0.891040 
0.043801 -0.059847 0.891853 
0.045336 -0.059884 0.892405 
0.046883 -0.059932 0.893125 
0.048433 -0.059982 0.893865 
0.049991 -0.060038 0.894709 
0.051587 -0.060135 0.896154 
0.053211 -0.060259 0.898002 
0.054842 -0.060383 0.899845 
0.056489 -0.060518 0.901858 
0.058139 -0.060649 0.903810 
0.059773 -0.060756 0.905410 
0.061413 -0.060865 0.907033 
0.063080 -0.060994 0.908955 
0.064795 -0.061162 0.911460 
0.066528 -0.061340 0.914108 
-0.152293 -0.071902 1.099282 
-0.150134 -0.071758 1.097081 
-0.147903 -0.071576 1.094300 
-0.145711 -0.071409 1.091735 
-0.143461 -0.071208 1.088669 
-0.141176 -0.070984 1.085246 
-0.138748 -0.070682 1.080627 
-0.136254 -0.070338 1.075364 
-0.133755 -0.069982 1.069915 
-0.131128 -0.069547 1.063276 
-0.128389 -0.069041 1.055539 
-0.125690 -0.068542 1.047914 
-0.122962 -0.068013 1.039826 
-0.120916 -0.069610 1.037353 
-0.120250 -0.067478 1.031641 
-0.118195 -0.069045 1.028937 
-0.117661 -0.066997 1.024286 
-0.115600 -0.068538 1.021371 
-0.115249 -0.066604 1.018272 
-0.113019 -0.068024 1.013712 
-0.112966 -0.066274 1.013235 
-0.110779 -0.065992 1.008924 
-0.108628 -0.065722 1.004800 
-0.106605 -0.065523 1.001752 
-0.104505 -0.065269 0.997873 
-0.102264 -0.064917 0.992492 
-0.100028 -0.064557 0.986986 
-0.097801 -0.064191 0.981380 
-0.095651 -0.063863 0.976369 
-0.093618 -0.063603 0.972402 
-0.091731 -0.063435 0.969829 
-0.089834 -0.063254 0.967057 
-0.087942 -0.063069 0.964239 
-0.085979 -0.062826 0.960515 
-0.083982 -0.062548 0.956266 
-0.081947 -0.062231 0.951417 
-0.079904 -0.061894 0.946267 
-0.077890 -0.061566 0.941260 
-0.075933 -0.061271 0.936742 
-0.074014 -0.060995 0.932527 
-0.072144 -0.060748 0.928742 
-0.070300 -0.060512 0.925143 
-0.068464 -0.060273 0.921482 
-0.066643 -0.060036 0.917856 
-0.064864 -0.059825 0.914640 
-0.063128 -0.059647 0.911912 
-0.061419 -0.059484 0.909431 
-0.059749 -0.059353 0.907421 
-0.058099 -0.059235 0.905611 
-0.056462 -0.059123 0.903902 
-0.054825 -0.059006 0.902113 
-0.053204 -0.058900 0.900491 
-0.051580 -0.058784 0.898717 
-0.049967 -0.058674 0.897043 
-0.048369 -0.058575 0.895534 
-0.046782 -0.058484 0.894133 
-0.045210 -0.058406 0.892938 
-0.043647 -0.058334 0.891843 
-0.042099 -0.058279 0.891004 
-0.040559 -0.058230 0.890258 
-0.039018 -0.058177 0.889443 
-0.037484 -0.058130 0.888716 
-0.035952 -0.058082 0.887986 
-0.034422 -0.058033 0.887248 
-0.032882 -0.057963 0.886173 
-0.031354 -0.057908 0.885332 
-0.029827 -0.057848 0.884409 
-0.028305 -0.057795 0.883597 
-0.026788 -0.057743 0.882804 
-0.025277 -0.057701 0.882167 
-0.023771 -0.057665 0.881619 
-0.022267 -0.057630 0.881078 
-0.020769 -0.057606 0.880711 
-0.019270 -0.057577 0.880267 
-0.017776 -0.057559 0.879987 
-0.016282 -0.057535 0.879631 
-0.014790 -0.057518 0.879365 
-0.013299 -0.057496 0.879027 
-0.011808 -0.057473 0.878680 
-0.010318 -0.057449 0.878317 
-0.008829 -0.057419 0.877859 
-0.007341 -0.057390 0.877411 
-0.005856 -0.057372 0.877136 
-0.004372 -0.057355 0.876879 
-0.002888 -0.057327 0.876452 
-0.001406 -0.057308 0.876157 
0.000075 -0.057288 0.875846 
0.001555 -0.057264 0.875490 
0.003035 -0.057253 0.875318 
0.004515 -0.057253 0.875318 
0.005994 -0.057253 0.875318 
0.007477 -0.057275 0.875653 
0.008961 -0.057299 0.876025 
0.010447 -0.057325 0.876422 
0.011937 -0.057366 0.877046 
0.013429 -0.057406 0.877661 
0.014918 -0.057426 0.877961 
0.016407 -0.057444 0.878240 
0.017897 -0.057461 0.878492 
0.019388 -0.057477 0.878745 
0.020884 -0.057506 0.879190 
0.022383 -0.057538 0.879671 
0.023887 -0.057579 0.880305 
0.025395 -0.057625 0.880999 
0.026906 -0.057670 0.881693 
0.028419 -0.057717 0.882411 
0.029945 -0.057782 0.883404 
0.031471 -0.057842 0.884327 
0.033010 -0.057919 0.885501 
0.034553 -0.057996 0.886679 
0.036100 -0.058075 0.887878 
0.037652 -0.058153 0.889076 
0.039211 -0.058237 0.890353 
0.040763 -0.058303 0.891372 
0.042306 -0.058353 0.892130 
0.043850 -0.058400 0.892850 
0.045391 -0.058441 0.893479 
0.046949 -0.058500 0.894385 
0.048522 -0.058574 0.895512 
0.050105 -0.058655 0.896746 
0.051727 -0.058775 0.898591 
0.053368 -0.058910 0.900652 
0.055004 -0.059032 0.902507 
0.056651 -0.059158 0.904447 
0.058295 -0.059275 0.906232 
0.059920 -0.059367 0.907640 
0.061561 -0.059470 0.909213 
0.063230 -0.059595 0.911115 
0.064956 -0.059765 0.913726 
0.066709 -0.059953 0.916592 
-0.152201 -0.069996 1.098615 
-0.149981 -0.069828 1.095968 
-0.147716 -0.069633 1.092914 
-0.145511 -0.069463 1.090239 
-0.143271 -0.069271 1.087225 
-0.141039 -0.069078 1.084196 
-0.138633 -0.068793 1.079735 
-0.136176 -0.068476 1.074748 
-0.133636 -0.068107 1.068962 
-0.130914 -0.067635 1.061548 
-0.128090 -0.067095 1.053081 
-0.125277 -0.066547 1.044470 
-0.122488 -0.065995 1.035816 
-0.119854 -0.065513 1.028242 
-0.117424 -0.065129 1.022225 
-0.115142 -0.064817 1.017330 
-0.112935 -0.064539 1.012959 
-0.110795 -0.064291 1.009062 
-0.108662 -0.064039 1.005117 
-0.106605 -0.063825 1.001751 
-0.104449 -0.063544 0.997338 
-0.102214 -0.063204 0.992011 
-0.099987 -0.062858 0.986582 
-0.097769 -0.062507 0.981063 
-0.095662 -0.062215 0.976479 
-0.093678 -0.061994 0.973021 
-0.091800 -0.061838 0.970563 
-0.089903 -0.061662 0.967798 
-0.088009 -0.061482 0.964972 
-0.086044 -0.061244 0.961246 
-0.084038 -0.060968 0.956910 
-0.081978 -0.060641 0.951774 
-0.079931 -0.060310 0.946590 
-0.077897 -0.059976 0.941349 
-0.075923 -0.059675 0.936619 
-0.074006 -0.059407 0.932415 
-0.072166 -0.059191 0.929021 
-0.070333 -0.058971 0.925570 
-0.068518 -0.058757 0.922204 
-0.066709 -0.058538 0.918766 
-0.064933 -0.058337 0.915616 
-0.063183 -0.058151 0.912693 
-0.061476 -0.057997 0.910278 
-0.059805 -0.057868 0.908264 
-0.058160 -0.057760 0.906559 
-0.056527 -0.057657 0.904949 
-0.054894 -0.057549 0.903252 
-0.053272 -0.057446 0.901637 
-0.051649 -0.057337 0.899926 
-0.050034 -0.057230 0.898235 
-0.048430 -0.057129 0.896651 
-0.046841 -0.057040 0.895259 
-0.045266 -0.056963 0.894054 
-0.043697 -0.056887 0.892864 
-0.042140 -0.056823 0.891854 
-0.040593 -0.056769 0.891005 
-0.039051 -0.056717 0.890185 
-0.037512 -0.056665 0.889374 
-0.035979 -0.056618 0.888642 
-0.034451 -0.056577 0.887994 
-0.032914 -0.056515 0.887022 
-0.031385 -0.056462 0.886188 
-0.029858 -0.056409 0.885351 
-0.028338 -0.056361 0.884599 
-0.026820 -0.056315 0.883879 
-0.025308 -0.056275 0.883246 
-0.023800 -0.056239 0.882683 
-0.022291 -0.056199 0.882053 
-0.020788 -0.056164 0.881515 
-0.019286 -0.056131 0.880992 
-0.017791 -0.056113 0.880711 
-0.016295 -0.056090 0.880347 
-0.014804 -0.056077 0.880152 
-0.013312 -0.056060 0.879884 
-0.011821 -0.056043 0.879619 
-0.010330 -0.056026 0.879350 
-0.008841 -0.056010 0.879087 
-0.007353 -0.055993 0.878828 
-0.005866 -0.055982 0.878656 
-0.004380 -0.055971 0.878483 
-0.002894 -0.055949 0.878141 
-0.001408 -0.055931 0.877850 
0.000076 -0.055907 0.877485 
0.001558 -0.055885 0.877133 
0.003040 -0.055869 0.876882 
0.004522 -0.055864 0.876796 
0.006004 -0.055859 0.876716 
0.007489 -0.055880 0.877047 
0.008975 -0.055903 0.877411 
0.010463 -0.055927 0.877798 
0.011956 -0.055966 0.878411 
0.013450 -0.056005 0.879016 
0.014941 -0.056023 0.879303 
0.016432 -0.056041 0.879577 
0.017926 -0.056062 0.879907 
0.019419 -0.056078 0.880167 
0.020918 -0.056107 0.880616 
0.022421 -0.056143 0.881177 
0.023928 -0.056183 0.881815 
0.025439 -0.056229 0.882527 
0.026953 -0.056274 0.883241 
0.028472 -0.056326 0.884051 
0.029998 -0.056384 0.884963 
0.031530 -0.056449 0.885976 
0.033065 -0.056513 0.886983 
0.034607 -0.056582 0.888074 
0.036149 -0.056646 0.889082 
0.037699 -0.056717 0.890186 
0.039253 -0.056787 0.891289 
0.040806 -0.056852 0.892310 
0.042350 -0.056900 0.893058 
0.043895 -0.056945 0.893771 
0.045442 -0.056991 0.894487 
0.047017 -0.057066 0.895673 
0.048613 -0.057163 0.897192 
0.050227 -0.057274 0.898934 
0.051871 -0.057412 0.901091 
0.053527 -0.057555 0.903336 
0.055168 -0.057673 0.905201 
0.056814 -0.057790 0.907038 
0.058444 -0.057887 0.908552 
0.060072 -0.057975 0.909938 
0.061716 -0.058075 0.911506 
0.063390 -0.058197 0.913417 
0.065121 -0.058365 0.916053 
0.066880 -0.058549 0.918937 
-0.152016 -0.068051 1.097277 
-0.149778 -0.067878 1.094481 
-0.147530 -0.067695 1.091535 
-0.145344 -0.067537 1.088982 
-0.143123 -0.067358 1.086099 
-0.140932 -0.067189 1.083371 
-0.138548 -0.066922 1.079073 
-0.136141 -0.066637 1.074473 
-0.133474 -0.066215 1.067669 
-0.130643 -0.065699 1.059345 
-0.127717 -0.065120 1.050014 
-0.124821 -0.064541 1.040671 
-0.121957 -0.063961 1.031331 
-0.119385 -0.063520 1.024217 
-0.117074 -0.063208 1.019178 
-0.114881 -0.062950 1.015025 
-0.112769 -0.062730 1.011471 
-0.110708 -0.062531 1.008273 
-0.108660 -0.062334 1.005095 
-0.106591 -0.062119 1.001624 
-0.104405 -0.061827 0.996919 
-0.102169 -0.061495 0.991572 
-0.099942 -0.061159 0.986139 
-0.097752 -0.060833 0.980892 
-0.095680 -0.060571 0.976668 
-0.093735 -0.060382 0.973618 
-0.091883 -0.060247 0.971438 
-0.090000 -0.060086 0.968843 
-0.088103 -0.059910 0.966006 
-0.086135 -0.059678 0.962265 
-0.084128 -0.059410 0.957937 
-0.082065 -0.059090 0.952781 
-0.080008 -0.058762 0.947503 
-0.077949 -0.058419 0.941973 
-0.075957 -0.058113 0.937039 
-0.074043 -0.057856 0.932886 
-0.072203 -0.057646 0.929503 
-0.070386 -0.057445 0.926264 
-0.068599 -0.057261 0.923290 
-0.066807 -0.057063 0.920109 
-0.065027 -0.056867 0.916947 
-0.063267 -0.056679 0.913917 
-0.061552 -0.056524 0.911403 
-0.059879 -0.056399 0.909388 
-0.058233 -0.056293 0.907687 
-0.056604 -0.056200 0.906185 
-0.054975 -0.056101 0.904585 
-0.053355 -0.056005 0.903043 
-0.051725 -0.055894 0.901248 
-0.050107 -0.055789 0.899552 
-0.048500 -0.055690 0.897956 
-0.046904 -0.055597 0.896469 
-0.045323 -0.055517 0.895170 
-0.043750 -0.055442 0.893959 
-0.042187 -0.055373 0.892850 
-0.040631 -0.055310 0.891832 
-0.039086 -0.055258 0.890997 
-0.037546 -0.055207 0.890175 
-0.036011 -0.055162 0.889442 
-0.034482 -0.055122 0.888798 
-0.032950 -0.055072 0.887990 
-0.031423 -0.055026 0.887256 
-0.029897 -0.054980 0.886507 
-0.028375 -0.054934 0.885773 
-0.026856 -0.054889 0.885046 
-0.025341 -0.054849 0.884409 
-0.023831 -0.054815 0.883850 
-0.022319 -0.054770 0.883133 
-0.020813 -0.054736 0.882583 
-0.019309 -0.054703 0.882044 
-0.017810 -0.054680 0.881681 
-0.016312 -0.054653 0.881247 
-0.014819 -0.054641 0.881052 
-0.013326 -0.054629 0.880853 
-0.011835 -0.054618 0.880674 
-0.010344 -0.054607 0.880500 
-0.008855 -0.054602 0.880413 
-0.007365 -0.054596 0.880327 
-0.005877 -0.054591 0.880248 
-0.004388 -0.054586 0.880163 
-0.002900 -0.054575 0.879989 
-0.001412 -0.054559 0.879725 
0.000076 -0.054537 0.879371 
0.001562 -0.054515 0.879018 
0.003047 -0.054499 0.878753 
0.004531 -0.054488 0.878578 
0.006016 -0.054482 0.878492 
0.007503 -0.054498 0.878742 
0.008992 -0.054515 0.879016 
0.010482 -0.054538 0.879383 
0.011976 -0.054570 0.879911 
0.013472 -0.054603 0.880435 
0.014965 -0.054621 0.880722 
0.016459 -0.054637 0.880987 
0.017953 -0.054653 0.881241 
0.019451 -0.054674 0.881582 
0.020952 -0.054702 0.882038 
0.022459 -0.054742 0.882679 
0.023971 -0.054788 0.883415 
0.025490 -0.054843 0.884305 
0.027008 -0.054889 0.885042 
0.028534 -0.054946 0.885960 
0.030062 -0.055002 0.886876 
0.031598 -0.055065 0.887889 
0.033130 -0.055117 0.888722 
0.034668 -0.055174 0.889640 
0.036205 -0.055224 0.890456 
0.037749 -0.055281 0.891373 
0.039301 -0.055345 0.892393 
0.040853 -0.055403 0.893335 
0.042399 -0.055450 0.894089 
0.043950 -0.055499 0.894887 
0.045508 -0.055554 0.895773 
0.047099 -0.055646 0.897247 
0.048721 -0.055765 0.899174 
0.050361 -0.055898 0.901323 
0.052022 -0.056046 0.903705 
0.053682 -0.056185 0.905952 
0.055319 -0.056293 0.907681 
0.056961 -0.056399 0.909392 
0.058585 -0.056482 0.910737 
0.060211 -0.056563 0.912047 
0.061861 -0.056663 0.913644 
0.063535 -0.056778 0.915503 
0.065272 -0.056943 0.918172 
-0.151783 -0.066090 1.095598 
-0.149569 -0.065930 1.092957 
-0.147341 -0.065761 1.090142 
-0.145159 -0.065607 1.087600 
-0.142942 -0.065434 1.084729 
-0.140770 -0.065277 1.082132 
-0.138408 -0.065027 1.077984 
-0.136056 -0.064775 1.073804 
-0.133317 -0.064329 1.066410 
-0.130383 -0.063776 1.057238 
-0.127371 -0.063168 1.047170 
-0.124478 -0.062604 1.037808 
-0.121615 -0.062038 1.028433 
-0.119161 -0.061668 1.022297 
-0.116975 -0.061428 1.018314 
-0.114847 -0.061211 1.014725 
-0.112750 -0.061005 1.011301 
-0.110691 -0.060813 1.008118 
-0.108646 -0.060622 1.004963 
-0.106557 -0.060402 1.001301 
-0.104410 -0.060140 0.996961 
-0.102184 -0.059824 0.991720 
-0.099980 -0.059509 0.986511 
-0.097814 -0.059208 0.981517 
-0.095784 -0.058980 0.977730 
-0.093833 -0.058793 0.974629 
-0.091990 -0.058668 0.972566 
-0.090095 -0.058506 0.969871 
-0.088186 -0.058327 0.966915 
-0.086213 -0.058099 0.963129 
-0.084195 -0.057831 0.958690 
-0.082130 -0.057520 0.953537 
-0.080081 -0.057208 0.948363 
-0.078020 -0.056875 0.942835 
-0.076017 -0.056570 0.937787 
-0.074107 -0.056323 0.933687 
-0.072264 -0.056117 0.930282 
-0.070453 -0.055928 0.927145 
-0.068680 -0.055761 0.924379 
-0.066899 -0.055581 0.921383 
-0.065124 -0.055395 0.918314 
-0.063368 -0.055218 0.915375 
-0.061650 -0.055066 0.912851 
-0.059968 -0.054938 0.910736 
-0.058318 -0.054835 0.909017 
-0.056687 -0.054744 0.907512 
-0.055062 -0.054653 0.906010 
-0.053440 -0.054561 0.904486 
-0.051812 -0.054458 0.902772 
-0.050196 -0.054360 0.901143 
-0.048586 -0.054263 0.899542 
-0.046982 -0.054168 0.897960 
-0.045397 -0.054088 0.896633 
-0.043817 -0.054009 0.895327 
-0.042242 -0.053930 0.894028 
-0.040680 -0.053863 0.892917 
-0.039126 -0.053802 0.891899 
-0.037576 -0.053742 0.890903 
-0.036040 -0.053697 0.890161 
-0.034510 -0.053658 0.889507 
-0.032976 -0.053610 0.888708 
-0.031451 -0.053571 0.888066 
-0.029928 -0.053531 0.887412 
-0.028407 -0.053493 0.886774 
-0.026889 -0.053455 0.886152 
-0.025376 -0.053423 0.885613 
-0.023864 -0.053390 0.885064 
-0.022351 -0.053350 0.884413 
-0.020843 -0.053317 0.883851 
-0.019336 -0.053283 0.883294 
-0.017836 -0.053261 0.882931 
-0.016337 -0.053240 0.882582 
-0.014842 -0.053229 0.882402 
-0.013347 -0.053218 0.882222 
-0.011854 -0.053213 0.882127 
-0.010362 -0.053207 0.882041 
-0.008871 -0.053207 0.882041 
-0.007379 -0.053203 0.881961 
-0.005888 -0.053197 0.881874 
-0.004396 -0.053187 0.881706 
-0.002905 -0.053177 0.881534 
-0.001414 -0.053161 0.881280 
0.000076 -0.053145 0.881011 
0.001565 -0.053128 0.880731 
0.003053 -0.053116 0.880522 
0.004540 -0.053105 0.880336 
0.006028 -0.053094 0.880168 
0.007517 -0.053104 0.880329 
0.009007 -0.053115 0.880512 
0.010499 -0.053133 0.880802 
0.011993 -0.053155 0.881175 
0.013490 -0.053182 0.881617 
0.014983 -0.053194 0.881813 
0.016478 -0.053205 0.881994 
0.017972 -0.053215 0.882168 
0.019473 -0.053241 0.882596 
0.020978 -0.053274 0.883151 
0.022492 -0.053324 0.883973 
0.024011 -0.053379 0.884882 
0.025538 -0.053444 0.885960 
0.027061 -0.053494 0.886796 
0.028593 -0.053555 0.887803 
0.030125 -0.053610 0.888722 
0.031661 -0.053666 0.889652 
0.033192 -0.053711 0.890390 
0.034729 -0.053759 0.891194 
0.036261 -0.053798 0.891828 
0.037804 -0.053847 0.892650 
0.039357 -0.053908 0.893662 
0.040912 -0.053966 0.894618 
0.042464 -0.054017 0.895466 
0.044026 -0.054076 0.896447 
0.045601 -0.054147 0.897613 
0.047216 -0.054259 0.899476 
0.048858 -0.054394 0.901709 
0.050510 -0.054531 0.903987 
0.052179 -0.054680 0.906445 
0.053834 -0.054804 0.908502 
0.055457 -0.054890 0.909937 
0.057085 -0.054977 0.911379 
0.058712 -0.055057 0.912708 
0.060344 -0.055139 0.914057 
0.062000 -0.055238 0.915697 
0.063679 -0.055352 0.917590 
0.065414 -0.055507 0.920165 
-0.151567 -0.064141 1.094039 
-0.149385 -0.063999 1.091612 
-0.147176 -0.063841 1.088922 
-0.144979 -0.063685 1.086250 
-0.142743 -0.063507 1.083221 
-0.140574 -0.063355 1.080622 
-0.138265 -0.063134 1.076863 
-0.135841 -0.062855 1.072105 
-0.133026 -0.062385 1.064087 
-0.130043 -0.061822 1.054478 
-0.126992 -0.061211 1.044056 
-0.124065 -0.060643 1.034369 
-0.121313 -0.060145 1.025878 
-0.118966 -0.059837 1.020623 
-0.116839 -0.059632 1.017133 
-0.114743 -0.059437 1.013806 
-0.112686 -0.059257 1.010728 
-0.110654 -0.059084 1.007777 
-0.108611 -0.058900 1.004645 
-0.106534 -0.058691 1.001084 
-0.104366 -0.058425 0.996542 
-0.102158 -0.058128 0.991467 
-0.099977 -0.057835 0.986484 
-0.097856 -0.057569 0.981932 
-0.095851 -0.057362 0.978416 
-0.093950 -0.057212 0.975846 
-0.092107 -0.057092 0.973800 
-0.090209 -0.056933 0.971099 
-0.088280 -0.056749 0.967948 
-0.086303 -0.056525 0.964138 
-0.084279 -0.056262 0.959650 
-0.082220 -0.055965 0.954584 
-0.080187 -0.055674 0.949612 
-0.078136 -0.055358 0.944226 
-0.076127 -0.055060 0.939137 
-0.074210 -0.054817 0.934991 
-0.072362 -0.054614 0.931543 
-0.070543 -0.054426 0.928331 
-0.068775 -0.054270 0.925665 
-0.067008 -0.054107 0.922882 
-0.065237 -0.053932 0.919912 
-0.063479 -0.053761 0.916979 
-0.061752 -0.053607 0.914356 
-0.060065 -0.053481 0.912208 
-0.058405 -0.053373 0.910377 
-0.056771 -0.053284 0.908859 
-0.055144 -0.053196 0.907359 
-0.053530 -0.053118 0.906014 
-0.051906 -0.053023 0.904394 
-0.050291 -0.052933 0.902856 
-0.048678 -0.052838 0.901249 
-0.047071 -0.052745 0.899658 
-0.045478 -0.052661 0.898232 
-0.043890 -0.052579 0.896822 
-0.042305 -0.052492 0.895347 
-0.040735 -0.052421 0.894125 
-0.039175 -0.052355 0.893007 
-0.037615 -0.052286 0.891821 
-0.036070 -0.052232 0.890901 
-0.034538 -0.052193 0.890243 
-0.033003 -0.052146 0.889436 
-0.031480 -0.052113 0.888885 
-0.029959 -0.052081 0.888340 
-0.028440 -0.052050 0.887796 
-0.026923 -0.052018 0.887260 
-0.025410 -0.051991 0.886804 
-0.023896 -0.051960 0.886272 
-0.022384 -0.051928 0.885721 
-0.020874 -0.051895 0.885161 
-0.019365 -0.051862 0.884596 
-0.017862 -0.051840 0.884223 
-0.016361 -0.051820 0.883881 
-0.014864 -0.051810 0.883714 
-0.013368 -0.051805 0.883626 
-0.011873 -0.051800 0.883540 
-0.010378 -0.051791 0.883380 
-0.008883 -0.051786 0.883294 
-0.007389 -0.051775 0.883118 
-0.005895 -0.051765 0.882936 
-0.004401 -0.051754 0.882754 
-0.002909 -0.051753 0.882739 
-0.001416 -0.051748 0.882650 
0.000076 -0.051742 0.882553 
0.001568 -0.051735 0.882431 
0.003059 -0.051728 0.882311 
0.004549 -0.051712 0.882047 
0.006039 -0.051697 0.881788 
0.007529 -0.051697 0.881775 
0.009021 -0.051702 0.881859 
0.010513 -0.051709 0.881979 
0.012009 -0.051730 0.882346 
0.013508 -0.051757 0.882801 
0.015005 -0.051773 0.883073 
0.016501 -0.051783 0.883254 
0.017999 -0.051798 0.883500 
0.019503 -0.051823 0.883939 
0.021012 -0.051861 0.884581 
0.022531 -0.051916 0.885520 
0.024056 -0.051976 0.886541 
0.025589 -0.052045 0.887721 
0.027118 -0.052099 0.888640 
0.028652 -0.052158 0.889646 
0.030190 -0.052217 0.890648 
0.031726 -0.052266 0.891486 
0.033261 -0.052309 0.892228 
0.034797 -0.052351 0.892938 
0.036328 -0.052382 0.893473 
0.037869 -0.052425 0.894195 
0.039429 -0.052489 0.895295 
0.040991 -0.052551 0.896353 
0.042564 -0.052623 0.897574 
0.044140 -0.052693 0.898769 
0.045734 -0.052779 0.900231 
0.047365 -0.052900 0.902303 
0.049017 -0.053037 0.904640 
0.050669 -0.053166 0.906840 
0.052337 -0.053304 0.909184 
0.053973 -0.053402 0.910859 
0.055588 -0.053474 0.912096 
0.057204 -0.053543 0.913268 
0.058829 -0.053617 0.914536 
0.060466 -0.053698 0.915909 
0.062126 -0.053794 0.917554 
0.063795 -0.053894 0.919251 
0.065504 -0.054022 0.921434 
-0.151373 -0.062207 1.092639 
-0.149199 -0.062071 1.090250 
-0.146996 -0.061919 1.087590 
-0.144783 -0.061759 1.084780 
-0.142556 -0.061590 1.081802 
-0.140438 -0.061463 1.079576 
-0.137987 -0.061186 1.074700 
-0.135396 -0.060838 1.068589 
-0.132449 -0.060318 1.059466 
-0.129420 -0.059747 1.049428 
-0.126470 -0.059197 1.039764 
-0.123680 -0.058706 1.031156 
-0.121069 -0.058289 1.023817 
-0.118822 -0.058037 1.019393 
-0.116705 -0.057841 1.015959 
-0.114640 -0.057667 1.012889 
-0.112600 -0.057499 1.009953 
-0.110582 -0.057338 1.007127 
-0.108541 -0.057160 1.003994 
-0.106464 -0.056957 1.000429 
-0.104308 -0.056704 0.995987 
-0.102125 -0.056429 0.991146 
-0.099968 -0.056158 0.986397 
-0.097892 -0.055924 0.982291 
-0.095919 -0.055743 0.979106 
-0.094036 -0.055609 0.976744 
-0.092210 -0.055503 0.974891 
-0.090331 -0.055362 0.972403 
-0.088381 -0.055171 0.969049 
-0.086391 -0.054947 0.965126 
-0.084363 -0.054690 0.960603 
-0.082302 -0.054401 0.955533 
-0.080267 -0.054118 0.950569 
-0.078239 -0.053828 0.945473 
-0.076237 -0.053545 0.940501 
-0.074318 -0.053309 0.936352 
-0.072458 -0.053106 0.932783 
-0.070634 -0.052921 0.929538 
-0.068865 -0.052769 0.926874 
-0.067116 -0.052627 0.924372 
-0.065358 -0.052470 0.921608 
-0.063604 -0.052308 0.918776 
-0.061872 -0.052158 0.916132 
-0.060179 -0.052034 0.913949 
-0.058504 -0.051918 0.911917 
-0.056861 -0.051825 0.910293 
-0.055236 -0.051745 0.908875 
-0.053620 -0.051668 0.907535 
-0.051999 -0.051582 0.906014 
-0.050391 -0.051505 0.904660 
-0.048781 -0.051419 0.903151 
-0.047171 -0.051329 0.901566 
-0.045578 -0.051252 0.900217 
-0.043987 -0.051171 0.898791 
-0.042389 -0.051076 0.897136 
-0.040812 -0.051001 0.895810 
-0.039243 -0.050931 0.894576 
-0.037673 -0.050852 0.893202 
-0.036118 -0.050789 0.892089 
-0.034577 -0.050741 0.891250 
-0.033038 -0.050690 0.890355 
-0.031510 -0.050655 0.889727 
-0.029990 -0.050628 0.889259 
-0.028472 -0.050602 0.888804 
-0.026959 -0.050581 0.888435 
-0.025449 -0.050565 0.888156 
-0.023935 -0.050540 0.887715 
-0.022421 -0.050510 0.887184 
-0.020908 -0.050478 0.886623 
-0.019397 -0.050446 0.886067 
-0.017890 -0.050420 0.885613 
-0.016388 -0.050405 0.885350 
-0.014890 -0.050400 0.885263 
-0.013393 -0.050400 0.885263 
-0.011895 -0.050396 0.885182 
-0.010397 -0.050386 0.885009 
-0.008899 -0.050375 0.884823 
-0.007401 -0.050360 0.884546 
-0.005903 -0.050344 0.884268 
-0.004408 -0.050332 0.884067 
-0.002913 -0.050336 0.884134 
-0.001419 -0.050337 0.884141 
0.000076 -0.050337 0.884157 
0.001571 -0.050337 0.884154 
0.003065 -0.050336 0.884137 
0.004558 -0.050317 0.883798 
0.006050 -0.050297 0.883447 
0.007543 -0.050295 0.883405 
0.009036 -0.050294 0.883387 
0.010530 -0.050295 0.883420 
0.012028 -0.050312 0.883702 
0.013527 -0.050332 0.884055 
0.015023 -0.050338 0.884161 
0.016521 -0.050348 0.884337 
0.018021 -0.050362 0.884591 
0.019530 -0.050397 0.885200 
0.021045 -0.050439 0.885946 
0.022571 -0.050503 0.887071 
0.024101 -0.050567 0.888196 
0.025639 -0.050640 0.889470 
0.027174 -0.050697 0.890478 
0.028714 -0.050759 0.891558 
0.030259 -0.050822 0.892662 
0.031795 -0.050865 0.893422 
0.033333 -0.050907 0.894167 
0.034869 -0.050943 0.894785 
0.036403 -0.050973 0.895328 
0.037952 -0.051020 0.896145 
0.039527 -0.051098 0.897522 
0.041102 -0.051170 0.898784 
0.042698 -0.051262 0.900396 
0.044294 -0.051347 0.901888 
0.045900 -0.051438 0.903489 
0.047536 -0.051557 0.905575 
0.049185 -0.051680 0.907745 
0.050820 -0.051783 0.909542 
0.052476 -0.051900 0.911594 
0.054099 -0.051978 0.912980 
0.055707 -0.052039 0.914046 
0.057326 -0.052106 0.915214 
0.058955 -0.052178 0.916489 
0.060594 -0.052255 0.917844 
0.062245 -0.052339 0.919310 
0.063895 -0.052418 0.920695 
-0.151126 -0.060256 1.090854 
-0.149058 -0.060166 1.089217 
-0.146897 -0.060035 1.086852 
-0.144678 -0.059877 1.083995 
-0.142467 -0.059719 1.081125 
-0.140351 -0.059596 1.078906 
-0.137863 -0.059311 1.073739 
-0.134985 -0.058847 1.065351 
-0.128794 -0.057688 1.044356 
-0.126002 -0.057221 1.035916 
-0.123341 -0.056802 1.028329 
-0.120873 -0.056462 1.022163 
-0.118681 -0.056242 1.018179 
-0.116566 -0.056052 1.014753 
-0.114496 -0.055879 1.011618 
-0.112460 -0.055718 1.008700 
-0.110434 -0.055557 1.005775 
-0.108382 -0.055377 1.002526 
-0.106319 -0.055186 0.999062 
-0.104188 -0.054953 0.994840 
-0.102056 -0.054711 0.990474 
-0.099948 -0.054475 0.986196 
-0.097928 -0.054279 0.982653 
-0.095985 -0.054120 0.979775 
-0.094112 -0.053996 0.977530 
-0.092282 -0.053893 0.975660 
-0.090401 -0.053755 0.973160 
-0.088431 -0.053558 0.969599 
-0.086432 -0.053336 0.965580 
-0.084417 -0.053096 0.961225 
-0.082379 -0.052831 0.956433 
-0.080370 -0.052575 0.951789 
-0.078374 -0.052316 0.947103 
-0.076372 -0.052043 0.942167 
-0.074441 -0.051807 0.937899 
-0.072555 -0.051594 0.934034 
-0.070719 -0.051407 0.930650 
-0.068947 -0.051259 0.927974 
-0.067217 -0.051137 0.925757 
-0.065470 -0.050995 0.923197 
-0.063732 -0.050853 0.920632 
-0.062002 -0.050711 0.918056 
-0.060305 -0.050590 0.915858 
-0.058620 -0.050472 0.913728 
-0.056968 -0.050377 0.912011 
-0.055333 -0.050293 0.910484 
-0.053715 -0.050219 0.909138 
-0.052091 -0.050135 0.907620 
-0.050492 -0.050071 0.906463 
-0.048889 -0.049998 0.905150 
-0.047281 -0.049916 0.903666 
-0.045689 -0.049846 0.902401 
-0.044093 -0.049767 0.900967 
-0.042487 -0.049670 0.899210 
-0.040898 -0.049587 0.897707 
-0.039322 -0.049513 0.896365 
-0.037740 -0.049426 0.894796 
-0.036178 -0.049359 0.893573 
-0.034628 -0.049302 0.892542 
-0.033085 -0.049251 0.891622 
-0.031555 -0.049216 0.890983 
-0.030030 -0.049186 0.890442 
-0.028510 -0.049161 0.889986 
-0.026994 -0.049140 0.889612 
-0.025482 -0.049125 0.889335 
-0.023967 -0.049101 0.888899 
-0.022455 -0.049081 0.888538 
-0.020940 -0.049051 0.887996 
-0.019429 -0.049025 0.887525 
-0.017919 -0.048999 0.887058 
-0.016414 -0.048984 0.886789 
-0.014912 -0.048975 0.886618 
-0.013414 -0.048975 0.886618 
-0.011914 -0.048970 0.886531 
-0.010413 -0.048960 0.886346 
-0.008912 -0.048948 0.886143 
-0.007412 -0.048932 0.885846 
-0.005912 -0.048916 0.885562 
-0.004414 -0.048906 0.885372 
-0.002918 -0.048910 0.885452 
-0.001421 -0.048912 0.885483 
0.000076 -0.048919 0.885613 
0.001574 -0.048925 0.885721 
0.003071 -0.048930 0.885811 
0.004567 -0.048916 0.885555 
0.006063 -0.048900 0.885272 
0.007559 -0.048897 0.885215 
0.009055 -0.048896 0.885198 
0.010552 -0.048897 0.885214 
0.012051 -0.048908 0.885413 
0.013551 -0.048922 0.885660 
0.015050 -0.048927 0.885753 
0.016551 -0.048937 0.885932 
0.018053 -0.048947 0.886126 
0.019566 -0.048986 0.886828 
0.021085 -0.049032 0.887660 
0.022615 -0.049094 0.888787 
0.024148 -0.049157 0.889928 
0.025692 -0.049232 0.891282 
0.027232 -0.049294 0.892392 
0.028776 -0.049354 0.893493 
0.030325 -0.049416 0.894610 
0.031865 -0.049459 0.895383 
0.033409 -0.049505 0.896212 
0.034945 -0.049535 0.896757 
0.036484 -0.049565 0.897314 
0.038044 -0.049621 0.898323 
0.039636 -0.049714 0.899995 
0.041230 -0.049801 0.901575 
0.042853 -0.049917 0.903673 
0.044474 -0.050021 0.905560 
0.046096 -0.050120 0.907362 
0.047734 -0.050230 0.909342 
0.049373 -0.050333 0.911207 
0.050986 -0.050405 0.912520 
0.052630 -0.050502 0.914277 
0.054237 -0.050559 0.915307 
0.055844 -0.050614 0.916290 
0.057456 -0.050669 0.917288 
0.059087 -0.050738 0.918546 
0.060717 -0.050803 0.919713 
0.062358 -0.050873 0.920977 
-0.144574 -0.057998 1.083218 
-0.142367 -0.057845 1.080362 
-0.140255 -0.057728 1.078168 
-0.137441 -0.057314 1.070449 
-0.131086 -0.056143 1.048566 
-0.128172 -0.055647 1.039313 
-0.125632 -0.055302 1.032871 
