1612
-0.015498 -0.029031 0.921451 
-0.013951 -0.029053 0.922171 
-0.012402 -0.029076 0.922899 
-0.010850 -0.029098 0.923582 
-0.009294 -0.029115 0.924132 
-0.007734 -0.029121 0.924328 
-0.006173 -0.029131 0.924617 
-0.004611 -0.029137 0.924822 
-0.003048 -0.029140 0.924920 
-0.001485 -0.029151 0.925283 
0.000080 -0.029164 0.925676 
0.001645 -0.029177 0.926109 
0.003214 -0.029205 0.926991 
0.004786 -0.029236 0.927972 
0.006362 -0.029268 0.928982 
0.007940 -0.029297 0.929912 
0.009522 -0.029326 0.930824 
0.011101 -0.029342 0.931332 
0.012687 -0.029369 0.932186 
0.014274 -0.029391 0.932885 
0.015870 -0.029426 0.934006 
0.017472 -0.029465 0.935235 
0.019082 -0.029510 0.936656 
0.020693 -0.029548 0.937877 
0.022310 -0.029590 0.939203 
0.023934 -0.029635 0.940631 
0.025569 -0.029687 0.942276 
0.027207 -0.029736 0.943851 
0.028856 -0.029791 0.945595 
0.030511 -0.029846 0.947342 
0.032169 -0.029899 0.949006 
0.033829 -0.029949 0.950586 
0.035505 -0.030007 0.952448 
0.037182 -0.030061 0.954140 
0.038864 -0.030115 0.955856 
0.040566 -0.030178 0.957874 
0.042279 -0.030245 0.960005 
0.044019 -0.030326 0.962569 
0.045803 -0.030430 0.965869 
0.047592 -0.030530 0.969052 
0.049377 -0.030622 0.971945 
0.051151 -0.030700 0.974432 
0.052880 -0.030748 0.975948 
0.054569 -0.030769 0.976637 
0.056284 -0.030805 0.977751 
0.057980 -0.030827 0.978477 
0.059686 -0.030854 0.979322 
-0.199614 -0.027087 0.908635 
-0.197955 -0.027070 0.908073 
-0.196159 -0.027034 0.906868 
-0.194255 -0.026982 0.905137 
-0.192286 -0.026921 0.903078 
-0.190216 -0.026844 0.900504 
-0.188122 -0.026763 0.897776 
-0.186117 -0.026693 0.895434 
-0.184218 -0.026637 0.893563 
-0.182405 -0.026593 0.892087 
-0.180676 -0.026561 0.890997 
-0.179005 -0.026536 0.890175 
-0.177370 -0.026517 0.889523 
-0.175757 -0.026501 0.888972 
-0.174065 -0.026472 0.888007 
-0.172303 -0.026432 0.886665 
-0.170529 -0.026389 0.885239 
-0.168714 -0.026339 0.883566 
-0.166912 -0.026291 0.881939 
-0.165202 -0.026256 0.880770 
-0.163579 -0.026235 0.880052 
-0.161949 -0.026212 0.879277 
-0.160379 -0.026198 0.878824 
-0.158796 -0.026182 0.878282 
-0.157185 -0.026161 0.877578 
-0.155573 -0.026139 0.876855 
-0.153976 -0.026120 0.876204 
-0.152372 -0.026099 0.875499 
-0.150803 -0.026084 0.874982 
-0.149280 -0.026076 0.874726 
-0.147731 -0.026063 0.874307 
-0.146179 -0.026050 0.873864 
-0.144636 -0.026038 0.873471 
-0.143098 -0.026027 0.873099 
-0.141555 -0.026015 0.872681 
-0.140053 -0.026010 0.872518 
-0.138551 -0.026005 0.872348 
-0.137035 -0.025997 0.872084 
-0.135532 -0.025992 0.871897 
-0.134041 -0.025988 0.871790 
-0.132543 -0.025984 0.871633 
-0.131070 -0.025984 0.871633 
-0.129620 -0.025988 0.871790 
-0.128173 -0.025994 0.871975 
-0.126727 -0.026000 0.872168 
-0.125302 -0.026010 0.872513 
-0.123875 -0.026020 0.872849 
-0.122460 -0.026033 0.873279 
-0.121046 -0.026046 0.873733 
-0.119633 -0.026060 0.874199 
-0.118271 -0.026086 0.875056 
-0.116887 -0.026107 0.875775 
-0.115492 -0.026126 0.876420 
-0.114080 -0.026142 0.876960 
-0.112705 -0.026167 0.877793 
-0.111269 -0.026179 0.878173 
-0.109844 -0.026193 0.878652 
-0.108405 -0.026204 0.879026 
-0.106960 -0.026214 0.879364 
-0.105504 -0.026222 0.879617 
-0.104070 -0.026235 0.880063 
-0.102638 -0.026249 0.880546 
-0.101203 -0.026263 0.881014 
-0.099763 -0.026276 0.881449 
-0.098310 -0.026286 0.881780 
-0.096848 -0.026294 0.882041 
-0.095432 -0.026315 0.882742 
-0.094055 -0.026347 0.883823 
-0.092698 -0.026386 0.885128 
-0.091327 -0.026422 0.886347 
-0.089948 -0.026458 0.887529 
-0.088537 -0.026484 0.888424 
-0.087090 -0.026501 0.888980 
-0.085641 -0.026518 0.889541 
-0.084189 -0.026534 0.890087 
-0.082719 -0.026545 0.890463 
-0.081246 -0.026556 0.890819 
-0.079787 -0.026571 0.891343 
-0.078313 -0.026582 0.891721 
-0.076869 -0.026605 0.892461 
-0.075423 -0.026627 0.893204 
-0.073983 -0.026652 0.894040 
-0.072540 -0.026677 0.894884 
-0.071095 -0.026702 0.895739 
-0.069639 -0.026725 0.896493 
-0.068200 -0.026755 0.897506 
-0.066759 -0.026785 0.898526 
-0.065329 -0.026822 0.899749 
-0.063913 -0.026866 0.901232 
-0.062469 -0.026901 0.902390 
-0.061019 -0.026934 0.903510 
-0.059553 -0.026962 0.904436 
-0.058078 -0.026987 0.905281 
-0.056608 -0.027015 0.906240 
-0.055141 -0.027047 0.907320 
-0.053661 -0.027075 0.908225 
-0.052185 -0.027105 0.909258 
-0.050695 -0.027130 0.910101 
-0.049193 -0.027151 0.910786 
-0.047699 -0.027177 0.911653 
-0.046210 -0.027208 0.912697 
-0.044715 -0.027237 0.913676 
-0.043217 -0.027266 0.914650 
-0.041710 -0.027292 0.915529 
-0.040188 -0.027310 0.916117 
-0.038656 -0.027321 0.916503 
-0.037118 -0.027330 0.916781 
-0.035579 -0.027338 0.917066 
-0.034047 -0.027352 0.917548 
-0.032514 -0.027368 0.918064 
-0.030979 -0.027383 0.918565 
-0.029438 -0.027394 0.918950 
-0.027893 -0.027402 0.919216 
-0.026344 -0.027408 0.919396 
-0.024797 -0.027416 0.919689 
-0.023251 -0.027426 0.920004 
-0.021698 -0.027430 0.920135 
-0.020147 -0.027435 0.920305 
-0.018590 -0.027434 0.920272 
-0.017036 -0.027436 0.920358 
-0.015490 -0.027454 0.920944 
-0.013944 -0.027476 0.921682 
-0.012396 -0.027498 0.922421 
-0.010844 -0.027518 0.923110 
-0.009289 -0.027535 0.923662 
-0.007730 -0.027540 0.923854 
-0.006170 -0.027549 0.924139 
-0.004608 -0.027555 0.924331 
-0.003046 -0.027557 0.924425 
-0.001484 -0.027568 0.924792 
0.000080 -0.027578 0.925109 
0.001644 -0.027591 0.925545 
0.003212 -0.027617 0.926430 
0.004784 -0.027652 0.927597 
0.006360 -0.027685 0.928718 
0.007940 -0.027719 0.929840 
0.009523 -0.027751 0.930931 
0.011105 -0.027772 0.931619 
0.012690 -0.027795 0.932391 
0.014277 -0.027816 0.933100 
0.015872 -0.027846 0.934122 
0.017472 -0.027880 0.935241 
0.019080 -0.027919 0.936556 
0.020688 -0.027952 0.937676 
0.022305 -0.027992 0.938994 
0.023931 -0.028037 0.940510 
0.025566 -0.028087 0.942178 
0.027207 -0.028137 0.943862 
0.028863 -0.028195 0.945823 
0.030524 -0.028253 0.947766 
0.032190 -0.028309 0.949642 
0.033863 -0.028366 0.951533 
0.035545 -0.028425 0.953520 
0.037235 -0.028484 0.955518 
0.038929 -0.028541 0.957435 
0.040633 -0.028602 0.959459 
0.042344 -0.028662 0.961485 
0.044091 -0.028741 0.964134 
0.045874 -0.028838 0.967379 
0.047669 -0.028934 0.970610 
0.049474 -0.029031 0.973847 
0.051263 -0.029112 0.976567 
0.053008 -0.029164 0.978311 
0.054699 -0.029183 0.978973 
0.056406 -0.029210 0.979862 
0.058075 -0.029216 0.980075 
-0.198029 -0.025540 0.908410 
-0.196301 -0.025515 0.907524 
-0.194472 -0.025476 0.906147 
-0.192545 -0.025424 0.904294 
-0.190507 -0.025357 0.901881 
-0.188445 -0.025284 0.899319 
-0.186437 -0.025219 0.896972 
-0.184518 -0.025164 0.895018 
-0.182717 -0.025124 0.893611 
-0.180947 -0.025088 0.892331 
-0.179221 -0.025058 0.891252 
-0.177549 -0.025034 0.890422 
-0.175912 -0.025016 0.889758 
-0.174203 -0.024986 0.888712 
-0.172442 -0.024949 0.887382 
-0.170673 -0.024910 0.885986 
-0.168870 -0.024865 0.884388 
-0.167050 -0.024816 0.882671 
-0.165322 -0.024781 0.881411 
-0.163679 -0.024758 0.880589 
-0.162045 -0.024736 0.879802 
-0.160461 -0.024721 0.879271 
-0.158878 -0.024706 0.878739 
-0.157268 -0.024686 0.878042 
-0.155654 -0.024666 0.877314 
-0.154071 -0.024650 0.876741 
-0.152464 -0.024630 0.876025 
-0.150893 -0.024615 0.875502 
-0.149366 -0.024607 0.875230 
-0.147815 -0.024595 0.874805 
-0.146236 -0.024579 0.874208 
-0.144692 -0.024567 0.873811 
-0.143140 -0.024555 0.873355 
-0.141595 -0.024543 0.872930 
-0.140105 -0.024540 0.872843 
-0.138617 -0.024538 0.872765 
-0.137104 -0.024531 0.872521 
-0.135613 -0.024528 0.872423 
-0.134124 -0.024526 0.872328 
-0.132613 -0.024519 0.872093 
-0.131139 -0.024519 0.872093 
-0.129688 -0.024523 0.872250 
-0.128227 -0.024526 0.872339 
-0.126766 -0.024529 0.872434 
-0.125338 -0.024538 0.872765 
-0.123912 -0.024548 0.873108 
-0.122498 -0.024560 0.873555 
-0.121097 -0.024575 0.874101 
-0.119692 -0.024590 0.874633 
-0.118307 -0.024610 0.875321 
-0.116909 -0.024627 0.875940 
-0.115491 -0.024641 0.876417 
-0.114058 -0.024651 0.876788 
-0.112673 -0.024672 0.877541 
-0.111247 -0.024685 0.878000 
-0.109824 -0.024699 0.878488 
-0.108395 -0.024712 0.878947 
-0.106960 -0.024723 0.879364 
-0.105514 -0.024733 0.879703 
-0.104081 -0.024746 0.880158 
-0.102650 -0.024760 0.880646 
-0.101223 -0.024775 0.881189 
-0.099792 -0.024789 0.881700 
-0.098339 -0.024799 0.882043 
-0.096878 -0.024806 0.882317 
-0.095453 -0.024824 0.882936 
-0.094055 -0.024849 0.883820 
-0.092676 -0.024880 0.884921 
-0.091297 -0.024912 0.886056 
-0.089911 -0.024943 0.887163 
-0.088502 -0.024968 0.888068 
-0.087054 -0.024984 0.888615 
-0.085611 -0.025001 0.889236 
-0.084153 -0.025014 0.889707 
-0.082693 -0.025028 0.890183 
-0.081221 -0.025038 0.890551 
-0.079755 -0.025050 0.890985 
-0.078265 -0.025055 0.891173 
-0.076804 -0.025070 0.891706 
-0.075343 -0.025086 0.892254 
-0.073896 -0.025107 0.892996 
-0.072446 -0.025127 0.893729 
-0.071008 -0.025153 0.894648 
-0.069568 -0.025179 0.895575 
-0.068146 -0.025214 0.896795 
-0.066716 -0.025246 0.897947 
-0.065301 -0.025286 0.899364 
-0.063886 -0.025328 0.900858 
-0.062444 -0.025361 0.902026 
-0.060991 -0.025390 0.903083 
-0.059525 -0.025416 0.904007 
-0.058050 -0.025440 0.904837 
-0.056579 -0.025466 0.905781 
-0.055113 -0.025496 0.906857 
-0.053638 -0.025524 0.907847 
-0.052163 -0.025553 0.908884 
-0.050673 -0.025577 0.909720 
-0.049171 -0.025596 0.910388 
-0.047668 -0.025615 0.911072 
-0.046171 -0.025639 0.911931 
-0.044677 -0.025666 0.912891 
-0.043180 -0.025694 0.913876 
-0.041680 -0.025721 0.914854 
-0.040171 -0.025746 0.915730 
-0.038648 -0.025762 0.916305 
-0.037114 -0.025773 0.916682 
-0.035578 -0.025783 0.917046 
-0.034046 -0.025796 0.917520 
-0.032512 -0.025810 0.918026 
-0.030978 -0.025825 0.918543 
-0.029438 -0.025836 0.918941 
-0.027893 -0.025844 0.919216 
-0.026341 -0.025846 0.919303 
-0.024792 -0.025852 0.919490 
-0.023243 -0.025857 0.919689 
-0.021688 -0.025858 0.919712 
-0.020135 -0.025860 0.919792 
-0.018580 -0.025860 0.919774 
-0.017027 -0.025862 0.919862 
-0.015481 -0.025879 0.920447 
-0.013936 -0.025899 0.921174 
-0.012389 -0.025920 0.921910 
-0.010838 -0.025939 0.922590 
-0.009284 -0.025955 0.923157 
-0.007725 -0.025960 0.923362 
-0.006166 -0.025966 0.923575 
-0.004605 -0.025969 0.923682 
-0.003044 -0.025977 0.923948 
-0.001483 -0.025987 0.924322 
0.000080 -0.025999 0.924731 
0.001644 -0.026016 0.925344 
0.003212 -0.026046 0.926400 
0.004784 -0.026079 0.927590 
0.006361 -0.026114 0.928823 
0.007941 -0.026146 0.929966 
0.009525 -0.026179 0.931138 
0.011108 -0.026201 0.931923 
0.012695 -0.026223 0.932705 
0.014284 -0.026246 0.933529 
0.015879 -0.026275 0.934542 
0.017478 -0.026304 0.935570 
0.019084 -0.026337 0.936768 
0.020689 -0.026364 0.937698 
0.022303 -0.026398 0.938907 
0.023931 -0.026443 0.940508 
0.025571 -0.026495 0.942370 
0.027216 -0.026546 0.944180 
0.028882 -0.026609 0.946440 
0.030551 -0.026670 0.948591 
0.032225 -0.026729 0.950681 
0.033905 -0.026786 0.952710 
0.035598 -0.026848 0.954928 
0.037291 -0.026905 0.956951 
0.038986 -0.026958 0.958855 
0.040684 -0.027009 0.960660 
0.042392 -0.027063 0.962578 
0.044146 -0.027141 0.965334 
0.045942 -0.027238 0.968808 
0.047751 -0.027336 0.972291 
0.049586 -0.027442 0.976063 
0.051397 -0.027528 0.979117 
0.053141 -0.027574 0.980759 
0.054833 -0.027591 0.981367 
0.056534 -0.027612 0.982086 
-0.196386 -0.023987 0.907915 
-0.194608 -0.023957 0.906780 
-0.192744 -0.023916 0.905226 
-0.190775 -0.023861 0.903152 
-0.188731 -0.023796 0.900681 
-0.186702 -0.023732 0.898248 
-0.184777 -0.023680 0.896276 
-0.182955 -0.023640 0.894774 
-0.181164 -0.023604 0.893404 
-0.179415 -0.023572 0.892214 
-0.177719 -0.023547 0.891272 
-0.176045 -0.023525 0.890428 
-0.174330 -0.023497 0.889360 
-0.172569 -0.023462 0.888031 
-0.170815 -0.023427 0.886719 
-0.169045 -0.023390 0.885304 
-0.167242 -0.023347 0.883681 
-0.165495 -0.023311 0.882332 
-0.163832 -0.023287 0.881412 
-0.162176 -0.023263 0.880511 
-0.160558 -0.023244 0.879802 
-0.158960 -0.023228 0.879189 
-0.157363 -0.023212 0.878575 
-0.155751 -0.023193 0.877860 
-0.154182 -0.023180 0.877377 
-0.152590 -0.023164 0.876748 
-0.151029 -0.023152 0.876292 
-0.149499 -0.023144 0.876010 
-0.147972 -0.023137 0.875735 
-0.146391 -0.023121 0.875137 
-0.144849 -0.023111 0.874758 
-0.143268 -0.023095 0.874134 
-0.141705 -0.023081 0.873608 
-0.140186 -0.023074 0.873347 
-0.138684 -0.023070 0.873187 
-0.137159 -0.023061 0.872872 
-0.135680 -0.023061 0.872853 
-0.134190 -0.023058 0.872756 
-0.132678 -0.023052 0.872518 
-0.131203 -0.023052 0.872518 
-0.129739 -0.023054 0.872594 
-0.128264 -0.023054 0.872596 
-0.126802 -0.023056 0.872681 
-0.125374 -0.023065 0.873014 
-0.123950 -0.023075 0.873378 
-0.122539 -0.023087 0.873844 
-0.121147 -0.023103 0.874461 
-0.119741 -0.023117 0.874992 
-0.118344 -0.023133 0.875598 
-0.116935 -0.023147 0.876133 
-0.115515 -0.023160 0.876595 
-0.114069 -0.023167 0.876873 
-0.112673 -0.023185 0.877541 
-0.111247 -0.023197 0.878000 
-0.109824 -0.023210 0.878488 
-0.108395 -0.023222 0.878947 
-0.106960 -0.023233 0.879364 
-0.105524 -0.023244 0.879783 
-0.104091 -0.023256 0.880244 
-0.102660 -0.023269 0.880734 
-0.101234 -0.023283 0.881281 
-0.099802 -0.023297 0.881795 
-0.098351 -0.023306 0.882151 
-0.096892 -0.023314 0.882442 
-0.095459 -0.023328 0.882985 
-0.094042 -0.023347 0.883700 
-0.092652 -0.023374 0.884690 
-0.091261 -0.023400 0.885709 
-0.089876 -0.023430 0.886820 
-0.088468 -0.023454 0.887728 
-0.087028 -0.023470 0.888346 
-0.085592 -0.023488 0.889037 
-0.084134 -0.023501 0.889508 
-0.082676 -0.023514 0.889999 
-0.081206 -0.023524 0.890382 
-0.079739 -0.023535 0.890810 
-0.078241 -0.023538 0.890897 
-0.076758 -0.023545 0.891166 
-0.075283 -0.023554 0.891536 
-0.073828 -0.023571 0.892176 
-0.072366 -0.023586 0.892741 
-0.070935 -0.023612 0.893725 
-0.069509 -0.023641 0.894826 
-0.068103 -0.023678 0.896228 
-0.066682 -0.023712 0.897497 
-0.065286 -0.023756 0.899164 
-0.063867 -0.023794 0.900593 
-0.062426 -0.023825 0.901760 
-0.060973 -0.023852 0.902816 
-0.059507 -0.023877 0.903740 
-0.058027 -0.023896 0.904482 
-0.056556 -0.023921 0.905410 
-0.055089 -0.023949 0.906463 
-0.053614 -0.023975 0.907441 
-0.052141 -0.024002 0.908490 
-0.050652 -0.024025 0.909330 
-0.049145 -0.024040 0.909906 
-0.047641 -0.024057 0.910557 
-0.046141 -0.024077 0.911327 
-0.044647 -0.024103 0.912289 
-0.043152 -0.024129 0.913282 
-0.041661 -0.024159 0.914437 
-0.040158 -0.024185 0.915413 
-0.038639 -0.024204 0.916105 
-0.037106 -0.024214 0.916500 
-0.035571 -0.024223 0.916860 
-0.034038 -0.024236 0.917321 
-0.032505 -0.024249 0.917825 
-0.030971 -0.024263 0.918354 
-0.029432 -0.024274 0.918761 
-0.027890 -0.024283 0.919123 
-0.026333 -0.024281 0.919034 
-0.024780 -0.024281 0.919030 
-0.023228 -0.024283 0.919121 
-0.021677 -0.024286 0.919217 
-0.020123 -0.024286 0.919226 
-0.018569 -0.024286 0.919223 
-0.017018 -0.024290 0.919390 
-0.015472 -0.024303 0.919868 
-0.013925 -0.024317 0.920393 
-0.012377 -0.024334 0.921026 
-0.010829 -0.024354 0.921785 
-0.009276 -0.024369 0.922352 
-0.007720 -0.024377 0.922662 
-0.006162 -0.024385 0.922984 
-0.004603 -0.024391 0.923186 
-0.003043 -0.024403 0.923641 
-0.001483 -0.024415 0.924116 
0.000080 -0.024429 0.924625 
0.001644 -0.024447 0.925321 
0.003212 -0.024477 0.926464 
0.004785 -0.024509 0.927671 
0.006362 -0.024542 0.928926 
0.007942 -0.024573 0.930077 
0.009527 -0.024606 0.931343 
0.011112 -0.024629 0.932227 
0.012698 -0.024648 0.932945 
0.014289 -0.024673 0.933860 
0.015885 -0.024699 0.934867 
0.017484 -0.024726 0.935889 
0.019089 -0.024755 0.936995 
0.020696 -0.024782 0.938014 
0.022310 -0.024814 0.939209 
0.023941 -0.024859 0.940905 
0.025585 -0.024911 0.942868 
0.027234 -0.024962 0.944795 
0.028904 -0.025024 0.947169 
0.030581 -0.025087 0.949535 
0.032265 -0.025148 0.951845 
0.033954 -0.025207 0.954101 
0.035661 -0.025274 0.956633 
0.037362 -0.025331 0.958763 
0.039060 -0.025381 0.960661 
0.040755 -0.025425 0.962353 
0.042461 -0.025473 0.964148 
0.044222 -0.025548 0.967012 
0.046028 -0.025644 0.970622 
0.047852 -0.025742 0.974354 
0.049704 -0.025849 0.978373 
0.051514 -0.025927 0.981349 
0.053253 -0.025966 0.982826 
0.054949 -0.025983 0.983445 
0.056637 -0.025994 0.983885 
-0.196505 -0.022462 0.908465 
-0.194772 -0.022439 0.907548 
-0.192935 -0.022404 0.906126 
-0.191005 -0.022357 0.904242 
-0.189018 -0.022303 0.902054 
-0.187041 -0.022249 0.899879 
-0.185093 -0.022198 0.897806 
-0.183249 -0.022159 0.896213 
-0.181453 -0.022124 0.894825 
-0.179682 -0.022093 0.893543 
-0.177945 -0.022065 0.892407 
-0.176228 -0.022039 0.891355 
-0.174491 -0.022010 0.890180 
-0.172727 -0.021977 0.888846 
-0.170975 -0.021945 0.887551 
-0.169238 -0.021914 0.886311 
-0.167464 -0.021878 0.884855 
-0.165718 -0.021845 0.883522 
-0.164021 -0.021818 0.882428 
-0.162358 -0.021795 0.881499 
-0.160716 -0.021774 0.880670 
-0.159086 -0.021755 0.879887 
-0.157488 -0.021740 0.879271 
-0.155891 -0.021724 0.878646 
-0.154323 -0.021713 0.878177 
-0.152733 -0.021698 0.877571 
-0.151189 -0.021689 0.877219 
-0.149656 -0.021682 0.876930 
-0.148142 -0.021677 0.876741 
-0.146573 -0.021665 0.876225 
-0.145032 -0.021656 0.875859 
-0.143434 -0.021638 0.875143 
-0.141852 -0.021622 0.874515 
-0.140300 -0.021611 0.874056 
-0.138769 -0.021603 0.873718 
-0.137229 -0.021593 0.873318 
-0.135735 -0.021590 0.873206 
-0.134229 -0.021585 0.873014 
-0.132715 -0.021579 0.872759 
-0.131227 -0.021577 0.872680 
-0.129752 -0.021577 0.872680 
-0.128277 -0.021577 0.872680 
-0.126825 -0.021581 0.872843 
-0.125400 -0.021590 0.873192 
-0.123988 -0.021601 0.873648 
-0.122589 -0.021614 0.874200 
-0.121208 -0.021632 0.874898 
-0.119802 -0.021645 0.875435 
-0.118395 -0.021658 0.875973 
-0.116974 -0.021669 0.876423 
-0.115539 -0.021678 0.876782 
-0.114081 -0.021683 0.876961 
-0.112673 -0.021697 0.877541 
-0.111247 -0.021708 0.878000 
-0.109824 -0.021721 0.878488 
-0.108395 -0.021732 0.878947 
-0.106960 -0.021742 0.879364 
-0.105524 -0.021753 0.879783 
-0.104091 -0.021764 0.880244 
-0.102660 -0.021776 0.880734 
-0.101234 -0.021790 0.881284 
-0.099803 -0.021802 0.881803 
-0.098362 -0.021814 0.882249 
-0.096913 -0.021823 0.882633 
-0.095471 -0.021835 0.883100 
-0.094044 -0.021850 0.883720 
-0.092642 -0.021871 0.884595 
-0.091242 -0.021894 0.885520 
-0.089848 -0.021920 0.886544 
-0.088442 -0.021943 0.887468 
-0.087003 -0.021958 0.888094 
-0.085575 -0.021977 0.888859 
-0.084117 -0.021989 0.889330 
-0.082660 -0.022001 0.889830 
-0.081199 -0.022013 0.890301 
-0.079732 -0.022023 0.890728 
-0.078226 -0.022023 0.890728 
-0.076742 -0.022029 0.890979 
-0.075267 -0.022039 0.891349 
-0.073799 -0.022050 0.891826 
-0.072338 -0.022064 0.892398 
-0.070914 -0.022091 0.893461 
-0.069490 -0.022118 0.894573 
-0.068085 -0.022153 0.895990 
-0.066677 -0.022189 0.897430 
-0.065282 -0.022230 0.899101 
-0.063861 -0.022265 0.900500 
-0.062418 -0.022293 0.901646 
-0.060964 -0.022319 0.902685 
-0.059499 -0.022342 0.903615 
-0.058025 -0.022362 0.904449 
-0.056549 -0.022383 0.905294 
-0.055076 -0.022407 0.906242 
-0.053601 -0.022431 0.907213 
-0.052122 -0.022454 0.908174 
-0.050630 -0.022474 0.908949 
-0.049125 -0.022488 0.909522 
-0.047621 -0.022504 0.910164 
-0.046116 -0.022520 0.910827 
-0.044619 -0.022542 0.911703 
-0.043124 -0.022566 0.912691 
-0.041634 -0.022595 0.913863 
-0.040137 -0.022622 0.914933 
-0.038624 -0.022641 0.915735 
-0.037099 -0.022656 0.916315 
-0.035564 -0.022665 0.916688 
-0.034031 -0.022676 0.917142 
-0.032499 -0.022688 0.917636 
-0.030962 -0.022699 0.918078 
-0.029420 -0.022707 0.918396 
-0.027878 -0.022716 0.918751 
-0.026322 -0.022713 0.918646 
-0.024764 -0.022709 0.918462 
-0.023214 -0.022711 0.918543 
-0.021663 -0.022713 0.918643 
-0.020111 -0.022714 0.918661 
-0.018558 -0.022714 0.918668 
-0.017008 -0.022718 0.918831 
-0.015460 -0.022727 0.919196 
-0.013913 -0.022737 0.919611 
-0.012365 -0.022750 0.920133 
-0.010817 -0.022767 0.920803 
-0.009266 -0.022781 0.921367 
-0.007712 -0.022791 0.921770 
-0.006157 -0.022801 0.922177 
-0.004599 -0.022808 0.922486 
-0.003041 -0.022822 0.923041 
-0.001482 -0.022836 0.923622 
0.000080 -0.022850 0.924170 
0.001643 -0.022870 0.924960 
0.003211 -0.022900 0.926209 
0.004784 -0.022932 0.927494 
0.006361 -0.022965 0.928841 
0.007942 -0.022996 0.930077 
0.009528 -0.023030 0.931439 
0.011114 -0.023054 0.932422 
0.012701 -0.023072 0.933156 
0.014294 -0.023097 0.934160 
0.015890 -0.023122 0.935171 
0.017490 -0.023147 0.936181 
0.019093 -0.023172 0.937202 
0.020702 -0.023200 0.938314 
0.022317 -0.023230 0.939523 
0.023951 -0.023274 0.941326 
0.025597 -0.023323 0.943308 
0.027253 -0.023376 0.945439 
0.028927 -0.023437 0.947923 
0.030612 -0.023501 0.950487 
0.032307 -0.023565 0.953106 
0.034007 -0.023627 0.955582 
0.035722 -0.023692 0.958244 
0.037424 -0.023745 0.960369 
0.039125 -0.023792 0.962268 
0.040823 -0.023834 0.963948 
0.042537 -0.023881 0.965853 
0.044319 -0.023962 0.969135 
0.046150 -0.024062 0.973192 
0.047997 -0.024164 0.977301 
0.049860 -0.024266 0.981452 
0.051687 -0.024345 0.984640 
0.053412 -0.024373 0.985751 
0.055111 -0.024387 0.986348 
-0.194942 -0.020919 0.908339 
-0.193147 -0.020891 0.907119 
-0.191280 -0.020854 0.905542 
-0.189382 -0.020814 0.903789 
-0.187463 -0.020771 0.901907 
-0.185506 -0.020722 0.899812 
-0.183639 -0.020683 0.898120 
-0.181791 -0.020646 0.896493 
-0.179962 -0.020610 0.894936 
-0.178184 -0.020579 0.893604 
-0.176411 -0.020549 0.892281 
-0.174636 -0.020518 0.890918 
-0.172868 -0.020487 0.889573 
-0.171131 -0.020459 0.888361 
-0.169413 -0.020433 0.887228 
-0.167674 -0.020404 0.885966 
-0.165944 -0.020375 0.884728 
-0.164228 -0.020348 0.883543 
-0.162528 -0.020322 0.882423 
-0.160851 -0.020299 0.881409 
-0.159200 -0.020278 0.880519 
-0.157587 -0.020262 0.879822 
-0.156003 -0.020250 0.879278 
-0.154465 -0.020243 0.878984 
-0.152890 -0.020231 0.878472 
-0.151349 -0.020223 0.878146 
-0.149833 -0.020219 0.877967 
-0.148332 -0.020217 0.877866 
-0.146764 -0.020205 0.877366 
-0.145222 -0.020197 0.877008 
-0.143620 -0.020181 0.876280 
-0.142031 -0.020165 0.875616 
-0.140458 -0.020152 0.875040 
-0.138910 -0.020142 0.874609 
-0.137353 -0.020130 0.874107 
-0.135843 -0.020126 0.873899 
-0.134320 -0.020119 0.873606 
-0.132778 -0.020109 0.873178 
-0.131277 -0.020105 0.873008 
-0.129801 -0.020105 0.873006 
-0.128325 -0.020105 0.873008 
-0.126875 -0.020109 0.873186 
-0.125472 -0.020121 0.873698 
-0.124062 -0.020132 0.874171 
-0.122662 -0.020145 0.874720 
-0.121291 -0.020163 0.875500 
-0.119885 -0.020175 0.876040 
-0.118456 -0.020184 0.876426 
-0.117022 -0.020192 0.876786 
-0.115574 -0.020198 0.877040 
-0.114092 -0.020198 0.877046 
-0.112662 -0.020208 0.877462 
-0.111226 -0.020216 0.877836 
-0.109802 -0.020227 0.878315 
-0.108374 -0.020238 0.878774 
-0.106940 -0.020248 0.879199 
-0.105514 -0.020259 0.879703 
-0.104091 -0.020272 0.880244 
-0.102660 -0.020283 0.880734 
-0.101234 -0.020296 0.881281 
-0.099802 -0.020308 0.881795 
-0.098360 -0.020318 0.882231 
-0.096920 -0.020328 0.882694 
-0.095496 -0.020343 0.883333 
-0.094070 -0.020357 0.883961 
-0.092666 -0.020377 0.884826 
-0.091263 -0.020398 0.885729 
-0.089861 -0.020420 0.886672 
-0.088440 -0.020438 0.887450 
-0.087002 -0.020452 0.888088 
-0.085575 -0.020470 0.888859 
-0.084117 -0.020481 0.889330 
-0.082660 -0.020493 0.889830 
-0.081199 -0.020503 0.890301 
-0.079732 -0.020513 0.890728 
-0.078226 -0.020513 0.890728 
-0.076742 -0.020519 0.890979 
-0.075274 -0.020529 0.891431 
-0.073813 -0.020542 0.891996 
-0.072360 -0.020558 0.892665 
-0.070943 -0.020585 0.893829 
-0.069519 -0.020610 0.894950 
-0.068108 -0.020641 0.896294 
-0.066692 -0.020672 0.897631 
-0.065289 -0.020708 0.899199 
-0.063854 -0.020736 0.900410 
-0.062404 -0.020760 0.901450 
-0.060949 -0.020784 0.902470 
-0.059485 -0.020805 0.903404 
-0.058013 -0.020825 0.904259 
-0.056538 -0.020845 0.905119 
-0.055070 -0.020868 0.906144 
-0.053595 -0.020890 0.907109 
-0.052117 -0.020913 0.908070 
-0.050620 -0.020929 0.908770 
-0.049114 -0.020942 0.909332 
-0.047606 -0.020954 0.909885 
-0.046096 -0.020967 0.910450 
-0.044596 -0.020986 0.911242 
-0.043098 -0.021006 0.912133 
-0.041609 -0.021033 0.913294 
-0.040115 -0.021059 0.914447 
-0.038607 -0.021080 0.915351 
-0.037088 -0.021096 0.916041 
-0.035561 -0.021109 0.916595 
-0.034028 -0.021119 0.917049 
-0.032492 -0.021129 0.917447 
-0.030952 -0.021136 0.917784 
-0.029408 -0.021141 0.917998 
-0.027863 -0.021147 0.918255 
-0.026308 -0.021144 0.918135 
-0.024750 -0.021140 0.917948 
-0.023203 -0.021144 0.918113 
-0.021653 -0.021146 0.918225 
-0.020102 -0.021147 0.918261 
-0.018549 -0.021147 0.918265 
-0.016998 -0.021149 0.918331 
-0.015449 -0.021153 0.918497 
-0.013902 -0.021162 0.918905 
-0.012354 -0.021172 0.919327 
-0.010807 -0.021185 0.919913 
-0.009257 -0.021198 0.920469 
-0.007705 -0.021207 0.920874 
-0.006151 -0.021217 0.921280 
-0.004595 -0.021226 0.921679 
-0.003039 -0.021241 0.922343 
-0.001481 -0.021257 0.923035 
0.000079 -0.021272 0.923685 
0.001643 -0.021293 0.924585 
0.003210 -0.021324 0.925929 
0.004782 -0.021354 0.927219 
0.006360 -0.021386 0.928647 
0.007941 -0.021417 0.929966 
0.009528 -0.021450 0.931422 
0.011114 -0.021473 0.932423 
0.012702 -0.021493 0.933252 
0.014295 -0.021516 0.934251 
0.015893 -0.021541 0.935335 
0.017493 -0.021564 0.936362 
0.019097 -0.021588 0.937396 
0.020709 -0.021616 0.938612 
0.022329 -0.021648 0.940016 
0.023967 -0.021693 0.941949 
0.025617 -0.021741 0.944053 
0.027282 -0.021797 0.946464 
0.028964 -0.021858 0.949141 
0.030655 -0.021920 0.951825 
0.032357 -0.021984 0.954573 
0.034063 -0.022043 0.957158 
0.035781 -0.022105 0.959830 
0.037487 -0.022154 0.961968 
0.039190 -0.022198 0.963877 
0.040904 -0.022244 0.965869 
0.042641 -0.022298 0.968219 
0.044450 -0.022385 0.971989 
0.046304 -0.022487 0.976441 
0.048174 -0.022590 0.980897 
0.050033 -0.022681 0.984854 
0.051844 -0.022745 0.987628 
0.053580 -0.022773 0.988854 
-0.191532 -0.019345 0.906733 
-0.189710 -0.019315 0.905356 
-0.187871 -0.019284 0.903871 
-0.185930 -0.019241 0.901868 
-0.184073 -0.019206 0.900244 
-0.182198 -0.019169 0.898503 
-0.180312 -0.019130 0.896674 
-0.178490 -0.019097 0.895141 
-0.176661 -0.019063 0.893542 
-0.174846 -0.019030 0.891991 
-0.173074 -0.019001 0.890634 
-0.171336 -0.018976 0.889428 
-0.169620 -0.018952 0.888315 
-0.167897 -0.018927 0.887147 
-0.166182 -0.018902 0.885995 
-0.164465 -0.018877 0.884819 
-0.162761 -0.018853 0.883687 
-0.161063 -0.018829 0.882570 
-0.159394 -0.018808 0.881588 
-0.157762 -0.018792 0.880801 
-0.156147 -0.018776 0.880088 
-0.154619 -0.018772 0.879864 
-0.153045 -0.018761 0.879365 
-0.151503 -0.018754 0.879045 
-0.149989 -0.018750 0.878877 
-0.148499 -0.018750 0.878856 
-0.146932 -0.018740 0.878369 
-0.145389 -0.018732 0.878016 
-0.143787 -0.018717 0.877299 
-0.142194 -0.018702 0.876621 
-0.140618 -0.018690 0.876037 
-0.139054 -0.018679 0.875513 
-0.137494 -0.018668 0.875008 
-0.135970 -0.018662 0.874720 
-0.134431 -0.018653 0.874325 
-0.132873 -0.018642 0.873798 
-0.131367 -0.018638 0.873611 
-0.129891 -0.018638 0.873612 
-0.128427 -0.018640 0.873705 
-0.126989 -0.018646 0.873970 
-0.125586 -0.018657 0.874488 
-0.124163 -0.018665 0.874877 
-0.122760 -0.018677 0.875422 
-0.121389 -0.018693 0.876205 
-0.119972 -0.018704 0.876677 
-0.118529 -0.018710 0.876967 
-0.117070 -0.018713 0.877141 
-0.115585 -0.018713 0.877125 
-0.114069 -0.018708 0.876873 
-0.112618 -0.018713 0.877120 
-0.111172 -0.018719 0.877405 
-0.109748 -0.018729 0.877878 
-0.108330 -0.018741 0.878416 
-0.106908 -0.018752 0.878932 
-0.105494 -0.018764 0.879533 
-0.104082 -0.018778 0.880165 
-0.102660 -0.018790 0.880734 
-0.101233 -0.018802 0.881275 
-0.099801 -0.018812 0.881780 
-0.098358 -0.018822 0.882210 
-0.096917 -0.018831 0.882673 
-0.095495 -0.018845 0.883324 
-0.094070 -0.018859 0.883964 
-0.092659 -0.018876 0.884757 
-0.091255 -0.018895 0.885651 
-0.089853 -0.018915 0.886588 
-0.088431 -0.018932 0.887363 
-0.087002 -0.018947 0.888088 
-0.085584 -0.018965 0.888947 
-0.084126 -0.018975 0.889420 
-0.082668 -0.018986 0.889917 
-0.081206 -0.018996 0.890382 
-0.079739 -0.019005 0.890810 
-0.078241 -0.019007 0.890897 
-0.076758 -0.019013 0.891166 
-0.075297 -0.019024 0.891706 
-0.073844 -0.019038 0.892368 
-0.072397 -0.019054 0.893123 
-0.070981 -0.019080 0.894310 
-0.069557 -0.019104 0.895437 
-0.068144 -0.019132 0.896760 
-0.066719 -0.019158 0.897992 
-0.065295 -0.019186 0.899293 
-0.063848 -0.019208 0.900320 
-0.062391 -0.019228 0.901252 
-0.060925 -0.019246 0.902109 
-0.059461 -0.019266 0.903045 
-0.057991 -0.019285 0.903917 
-0.056522 -0.019305 0.904870 
-0.055056 -0.019327 0.905915 
-0.053581 -0.019348 0.906868 
-0.052102 -0.019368 0.907823 
-0.050611 -0.019384 0.908594 
-0.049101 -0.019395 0.909078 
-0.047592 -0.019406 0.909624 
-0.046083 -0.019418 0.910179 
-0.044574 -0.019431 0.910784 
-0.043071 -0.019448 0.911570 
-0.041582 -0.019472 0.912704 
-0.040089 -0.019497 0.913861 
-0.038586 -0.019518 0.914854 
-0.037076 -0.019537 0.915746 
-0.035553 -0.019551 0.916408 
-0.034021 -0.019561 0.916867 
-0.032485 -0.019569 0.917245 
-0.030941 -0.019574 0.917462 
-0.029394 -0.019576 0.917580 
-0.027848 -0.019579 0.917734 
-0.026293 -0.019577 0.917623 
-0.024736 -0.019573 0.917430 
-0.023190 -0.019577 0.917613 
-0.021642 -0.019579 0.917729 
-0.020091 -0.019580 0.917764 
-0.018539 -0.019580 0.917755 
-0.016989 -0.019581 0.917815 
-0.015440 -0.019585 0.917982 
-0.013893 -0.019592 0.918300 
-0.012345 -0.019599 0.918640 
-0.010798 -0.019609 0.919129 
-0.009249 -0.019619 0.919588 
-0.007696 -0.019625 0.919887 
-0.006145 -0.019636 0.920383 
-0.004591 -0.019647 0.920893 
-0.003037 -0.019663 0.921654 
-0.001480 -0.019682 0.922529 
0.000079 -0.019699 0.923337 
0.001642 -0.019720 0.924341 
0.003210 -0.019751 0.925789 
0.004782 -0.019779 0.927102 
0.006359 -0.019810 0.928526 
0.007940 -0.019838 0.929840 
0.009526 -0.019867 0.931221 
0.011112 -0.019889 0.932228 
0.012701 -0.019908 0.933146 
0.014295 -0.019932 0.934234 
0.015894 -0.019957 0.935427 
0.017497 -0.019981 0.936559 
0.019103 -0.020005 0.937690 
0.020717 -0.020033 0.939004 
0.022339 -0.020064 0.940427 
0.023978 -0.020105 0.942378 
0.025634 -0.020154 0.944681 
0.027304 -0.020208 0.947208 
0.028990 -0.020268 0.950002 
0.030690 -0.020330 0.952904 
0.032401 -0.020393 0.955853 
0.034113 -0.020451 0.958563 
0.035844 -0.020514 0.961529 
0.037561 -0.020564 0.963870 
0.039284 -0.020613 0.966186 
0.041026 -0.020668 0.968742 
0.042794 -0.020731 0.971690 
0.044624 -0.020818 0.975799 
0.046498 -0.020919 0.980525 
0.048366 -0.021011 0.984815 
0.050210 -0.021086 0.988328 
0.052007 -0.021137 0.990749 
0.053749 -0.021164 0.991981 
0.055466 -0.021179 0.992699 
-0.191734 -0.017827 0.907692 
-0.189956 -0.017804 0.906529 
-0.188171 -0.017780 0.905313 
-0.186313 -0.017749 0.903726 
-0.184421 -0.017714 0.901942 
-0.182535 -0.017679 0.900161 
-0.180634 -0.017642 0.898275 
-0.178786 -0.017609 0.896626 
-0.176918 -0.017574 0.894845 
-0.175084 -0.017542 0.893203 
-0.173289 -0.017513 0.891740 
-0.171548 -0.017489 0.890526 
-0.169828 -0.017467 0.889405 
-0.168122 -0.017446 0.888335 
-0.166421 -0.017425 0.887271 
-0.164716 -0.017404 0.886167 
-0.163010 -0.017382 0.885037 
-0.161295 -0.017358 0.883840 
-0.159607 -0.017337 0.882767 
-0.157970 -0.017321 0.881962 
-0.156338 -0.017306 0.881164 
-0.154778 -0.017298 0.880767 
-0.153212 -0.017289 0.880325 
-0.151667 -0.017283 0.879997 
-0.150135 -0.017277 0.879733 
-0.148642 -0.017277 0.879703 
-0.147099 -0.017270 0.879364 
-0.145542 -0.017262 0.878941 
-0.143955 -0.017250 0.878323 
-0.142363 -0.017237 0.877661 
-0.140776 -0.017224 0.877019 
-0.139198 -0.017212 0.876418 
-0.137638 -0.017203 0.875919 
-0.136088 -0.017194 0.875475 
-0.134535 -0.017185 0.875001 
-0.132973 -0.017174 0.874457 
-0.131465 -0.017170 0.874258 
-0.129987 -0.017170 0.874261 
-0.128538 -0.017174 0.874460 
-0.127123 -0.017182 0.874892 
-0.125730 -0.017194 0.875494 
-0.124292 -0.017200 0.875787 
-0.122887 -0.017211 0.876326 
-0.121501 -0.017224 0.877020 
-0.120049 -0.017228 0.877240 
-0.118582 -0.017231 0.877356 
-0.117105 -0.017232 0.877405 
-0.115605 -0.017229 0.877277 
-0.114087 -0.017224 0.877011 
-0.112625 -0.017227 0.877175 
-0.111167 -0.017231 0.877364 
-0.109729 -0.017238 0.877729 
-0.108301 -0.017247 0.878182 
-0.106873 -0.017256 0.878645 
-0.105462 -0.017268 0.879271 
-0.104061 -0.017283 0.879994 
-0.102650 -0.017295 0.880646 
-0.101214 -0.017304 0.881109 
-0.099773 -0.017313 0.881534 
-0.098338 -0.017323 0.882035 
-0.096898 -0.017332 0.882498 
-0.095487 -0.017346 0.883247 
-0.094073 -0.017361 0.883994 
-0.092672 -0.017379 0.884886 
-0.091268 -0.017396 0.885777 
-0.089864 -0.017414 0.886692 
-0.088432 -0.017427 0.887372 
-0.087003 -0.017442 0.888094 
-0.085585 -0.017459 0.888956 
-0.084127 -0.017468 0.889432 
-0.082669 -0.017478 0.889927 
-0.081207 -0.017487 0.890388 
-0.079747 -0.017497 0.890897 
-0.078257 -0.017500 0.891083 
-0.076790 -0.017509 0.891536 
-0.075337 -0.017522 0.892180 
-0.073891 -0.017537 0.892936 
-0.072450 -0.017553 0.893780 
-0.071034 -0.017577 0.894973 
-0.069601 -0.017597 0.896006 
-0.068179 -0.017621 0.897228 
-0.066746 -0.017643 0.898350 
-0.065308 -0.017665 0.899461 
-0.063854 -0.017683 0.900399 
-0.062396 -0.017702 0.901338 
-0.060924 -0.017717 0.902104 
-0.059461 -0.017735 0.903034 
-0.057990 -0.017752 0.903902 
-0.056521 -0.017771 0.904854 
-0.055051 -0.017790 0.905828 
-0.053576 -0.017809 0.906782 
-0.052097 -0.017827 0.907736 
-0.050605 -0.017842 0.908494 
-0.049095 -0.017852 0.908980 
-0.047587 -0.017863 0.909524 
-0.046082 -0.017875 0.910164 
-0.044563 -0.017883 0.910574 
-0.043056 -0.017897 0.911257 
-0.041558 -0.017915 0.912195 
-0.040063 -0.017936 0.913248 
-0.038561 -0.017956 0.914258 
-0.037056 -0.017975 0.915263 
-0.035539 -0.017990 0.916035 
-0.034011 -0.018001 0.916586 
-0.032474 -0.018008 0.916954 
-0.030928 -0.018011 0.917066 
-0.029381 -0.018013 0.917164 
-0.027833 -0.018014 0.917238 
-0.026279 -0.018012 0.917139 
-0.024724 -0.018008 0.916956 
-0.023178 -0.018012 0.917142 
-0.021630 -0.018014 0.917251 
-0.020080 -0.018015 0.917280 
-0.018529 -0.018015 0.917267 
-0.016980 -0.018016 0.917324 
-0.015430 -0.018017 0.917414 
-0.013883 -0.018022 0.917639 
-0.012335 -0.018027 0.917882 
-0.010788 -0.018034 0.918262 
-0.009240 -0.018043 0.918713 
-0.007689 -0.018049 0.919006 
-0.006139 -0.018060 0.919597 
-0.004588 -0.018074 0.920289 
-0.003035 -0.018089 0.921073 
-0.001479 -0.018107 0.921949 
0.000079 -0.018124 0.922831 
0.001641 -0.018145 0.923918 
0.003208 -0.018174 0.925386 
0.004780 -0.018202 0.926808 
0.006357 -0.018230 0.928237 
0.007938 -0.018257 0.929633 
0.009524 -0.018285 0.931010 
0.011110 -0.018304 0.932027 
0.012698 -0.018323 0.932955 
0.014293 -0.018346 0.934134 
0.015894 -0.018371 0.935431 
0.017497 -0.018394 0.936589 
0.019106 -0.018419 0.937837 
0.020724 -0.018448 0.939323 
0.022348 -0.018477 0.940832 
0.023989 -0.018516 0.942786 
0.025650 -0.018565 0.945293 
0.027330 -0.018621 0.948127 
0.029025 -0.018680 0.951157 
0.030744 -0.018747 0.954575 
0.032472 -0.018814 0.957946 
0.034198 -0.018873 0.960964 
0.035942 -0.018936 0.964160 
0.037680 -0.018990 0.966930 
0.039416 -0.019039 0.969411 
0.041179 -0.019096 0.972348 
0.042970 -0.019162 0.975694 
0.044807 -0.019243 0.979793 
0.046679 -0.019332 0.984344 
0.048535 -0.019409 0.988253 
0.050350 -0.019465 0.991098 
0.052132 -0.019504 0.993119 
0.053870 -0.019526 0.994210 
0.066083 -0.021356 1.000993 
0.064374 -0.019654 1.000730 
0.066076 -0.019657 1.000889 
0.067809 -0.019669 1.001497 
-0.192023 -0.016312 0.909058 
-0.190296 -0.016296 0.908149 
-0.188581 -0.016281 0.907289 
-0.186786 -0.016258 0.906018 
-0.184889 -0.016226 0.904234 
-0.182978 -0.016192 0.902349 
-0.181048 -0.016156 0.900336 
-0.179144 -0.016121 0.898418 
-0.177236 -0.016086 0.896453 
-0.175379 -0.016055 0.894708 
-0.173561 -0.016027 0.893137 
-0.171782 -0.016002 0.891741 
-0.170043 -0.015980 0.890530 
-0.168346 -0.015962 0.889517 
-0.166642 -0.015943 0.888452 
-0.164940 -0.015923 0.887371 
-0.163263 -0.015906 0.886416 
-0.161563 -0.015886 0.885311 
-0.159871 -0.015867 0.884229 
-0.158216 -0.015851 0.883332 
-0.156575 -0.015836 0.882502 
-0.154984 -0.015826 0.881938 
-0.153385 -0.015815 0.881316 
-0.151806 -0.015805 0.880801 
-0.150239 -0.015797 0.880345 
-0.148701 -0.015792 0.880052 
-0.147141 -0.015784 0.879615 
-0.145583 -0.015776 0.879191 
-0.144025 -0.015769 0.878753 
-0.142463 -0.015760 0.878283 
-0.140905 -0.015752 0.877822 
-0.139351 -0.015744 0.877385 
-0.137803 -0.015737 0.876969 
-0.136251 -0.015729 0.876527 
-0.134687 -0.015719 0.875988 
-0.133120 -0.015709 0.875425 
-0.131598 -0.015704 0.875148 
-0.130133 -0.015706 0.875239 
-0.128675 -0.015708 0.875388 
-0.127271 -0.015718 0.875915 
-0.125877 -0.015728 0.876518 
-0.124435 -0.015733 0.876795 
-0.123014 -0.015741 0.877236 
-0.121615 -0.015752 0.877838 
-0.120148 -0.015754 0.877964 
-0.118654 -0.015753 0.877889 
-0.117151 -0.015751 0.877751 
-0.115637 -0.015747 0.877525 
-0.114118 -0.015742 0.877249 
-0.112647 -0.015743 0.877340 
-0.111187 -0.015747 0.877522 
-0.109747 -0.015753 0.877872 
-0.108307 -0.015759 0.878230 
-0.106868 -0.015766 0.878605 
-0.105450 -0.015776 0.879165 
-0.104049 -0.015789 0.879890 
-0.102638 -0.015801 0.880546 
-0.101212 -0.015811 0.881094 
-0.099782 -0.015820 0.881615 
-0.098367 -0.015832 0.882290 
-0.096936 -0.015842 0.882840 
-0.095533 -0.015857 0.883675 
-0.094120 -0.015871 0.884432 
-0.092719 -0.015887 0.885331 
-0.091306 -0.015901 0.886142 
-0.089891 -0.015916 0.886964 
-0.088450 -0.015926 0.887545 
-0.087011 -0.015938 0.888178 
-0.085585 -0.015952 0.888961 
-0.084128 -0.015960 0.889446 
-0.082669 -0.015969 0.889932 
-0.081214 -0.015979 0.890472 
-0.079763 -0.015990 0.891076 
-0.078282 -0.015995 0.891366 
-0.076831 -0.016007 0.892013 
-0.075386 -0.016020 0.892757 
-0.073946 -0.016035 0.893596 
-0.072511 -0.016052 0.894534 
-0.071093 -0.016073 0.895716 
-0.069653 -0.016090 0.896671 
-0.068221 -0.016110 0.897782 
-0.066773 -0.016127 0.898717 
-0.065315 -0.016142 0.899563 
-0.063854 -0.016157 0.900403 
-0.062390 -0.016172 0.901250 
-0.060913 -0.016185 0.901936 
-0.059444 -0.016200 0.902778 
-0.057976 -0.016216 0.903693 
-0.056508 -0.016233 0.904647 
-0.055038 -0.016251 0.905616 
-0.053569 -0.016270 0.906669 
-0.052095 -0.016288 0.907698 
-0.050603 -0.016302 0.908462 
-0.049094 -0.016311 0.908962 
-0.047582 -0.016319 0.909423 
-0.046077 -0.016330 0.910062 
-0.044549 -0.016334 0.910287 
-0.043038 -0.016345 0.910864 
-0.041532 -0.016358 0.911607 
-0.040033 -0.016375 0.912567 
-0.038529 -0.016392 0.913487 
-0.037028 -0.016411 0.914574 
-0.035513 -0.016426 0.915373 
-0.033987 -0.016436 0.915940 
-0.032454 -0.016444 0.916391 
-0.030906 -0.016444 0.916415 
-0.029363 -0.016448 0.916599 
-0.027816 -0.016449 0.916686 
-0.026268 -0.016451 0.916768 
-0.024716 -0.016449 0.916688 
-0.023173 -0.016454 0.916953 
-0.021624 -0.016454 0.916970 
-0.020074 -0.016455 0.916978 
-0.018523 -0.016454 0.916970 
-0.016973 -0.016454 0.916953 
-0.015424 -0.016456 0.917049 
-0.013877 -0.016460 0.917258 
-0.012329 -0.016463 0.917477 
-0.010780 -0.016467 0.917658 
-0.009233 -0.016473 0.918014 
-0.007683 -0.016478 0.918303 
-0.006135 -0.016489 0.918910 
-0.004585 -0.016502 0.919620 
-0.003033 -0.016516 0.920419 
-0.001478 -0.016532 0.921285 
0.000079 -0.016548 0.922164 
0.001640 -0.016567 0.923254 
0.003206 -0.016595 0.924821 
0.004778 -0.016623 0.926346 
0.006355 -0.016651 0.927953 
0.007936 -0.016678 0.929437 
0.009522 -0.016704 0.930899 
0.011108 -0.016723 0.931922 
0.012699 -0.016742 0.933023 
0.014296 -0.016766 0.934318 
0.015899 -0.016791 0.935727 
0.017503 -0.016812 0.936908 
0.019113 -0.016834 0.938152 
0.020729 -0.016859 0.939540 
0.022351 -0.016885 0.940955 
0.023991 -0.016920 0.942892 
0.025664 -0.016971 0.945779 
0.027365 -0.017035 0.949325 
0.029079 -0.017100 0.952928 
0.030825 -0.017174 0.957100 
0.032575 -0.017245 0.961007 
0.034316 -0.017303 0.964272 
0.036064 -0.017360 0.967429 
0.037813 -0.017412 0.970345 
0.039553 -0.017456 0.972791 
0.041328 -0.017511 0.975869 
0.043131 -0.017574 0.979362 
0.044964 -0.017643 0.983225 
0.046829 -0.017720 0.987497 
0.048670 -0.017783 0.990997 
0.050466 -0.017825 0.993375 
0.052222 -0.017852 0.994832 
0.053943 -0.017865 0.995568 
0.055638 -0.017868 0.995776 
0.057337 -0.019562 0.996045 
0.057365 -0.017882 0.996523 
0.059087 -0.017893 0.997159 
0.062582 -0.017929 0.999124 
0.064318 -0.017942 0.999858 
0.066029 -0.017947 1.000171 
0.067763 -0.017959 1.000809 
0.069580 -0.019691 1.002610 
0.069518 -0.017975 1.001723 
0.071318 -0.019703 1.003226 
0.071241 -0.017983 1.002139 
0.073076 -0.019719 1.004069 
0.072999 -0.017998 1.003013 
-0.190688 -0.014787 0.910025 
-0.188989 -0.014775 0.909249 
-0.187234 -0.014757 0.908195 
-0.185316 -0.014727 0.906322 
-0.183364 -0.014693 0.904250 
-0.181396 -0.014658 0.902065 
-0.179468 -0.014625 0.900046 
-0.177540 -0.014592 0.897992 
-0.175677 -0.014563 0.896231 
-0.173853 -0.014537 0.894641 
-0.172067 -0.014514 0.893219 
-0.170290 -0.014491 0.891823 
-0.168573 -0.014473 0.890719 
-0.166866 -0.014456 0.889642 
-0.165161 -0.014438 0.888561 
-0.163488 -0.014423 0.887636 
-0.161802 -0.014407 0.886619 
-0.160138 -0.014392 0.885705 
-0.158478 -0.014377 0.884800 
-0.156822 -0.014362 0.883892 
-0.155210 -0.014352 0.883225 
-0.153576 -0.014339 0.882417 
-0.151948 -0.014326 0.881625 
-0.150335 -0.014314 0.880909 
-0.148777 -0.014307 0.880497 
-0.147185 -0.014297 0.879884 
-0.145627 -0.014290 0.879453 
-0.144083 -0.014285 0.879105 
-0.142551 -0.014280 0.878824 
-0.141008 -0.014274 0.878465 
-0.139479 -0.014270 0.878188 
-0.137953 -0.014266 0.877924 
-0.136413 -0.014260 0.877570 
-0.134848 -0.014251 0.877035 
-0.133292 -0.014243 0.876556 
-0.131780 -0.014240 0.876353 
-0.130313 -0.014242 0.876454 
-0.128854 -0.014244 0.876607 
-0.127451 -0.014253 0.877149 
-0.126042 -0.014261 0.877667 
-0.124587 -0.014265 0.877867 
-0.123141 -0.014269 0.878137 
-0.121714 -0.014276 0.878555 
-0.120232 -0.014276 0.878580 
-0.118724 -0.014273 0.878409 
-0.117209 -0.014270 0.878188 
-0.115696 -0.014266 0.877968 
-0.114179 -0.014262 0.877716 
-0.112699 -0.014263 0.877746 
-0.111228 -0.014264 0.877850 
-0.109774 -0.014268 0.878088 
-0.108321 -0.014272 0.878341 
-0.106870 -0.014277 0.878620 
-0.105440 -0.014284 0.879083 
-0.104028 -0.014295 0.879711 
-0.102606 -0.014304 0.880267 
-0.101182 -0.014313 0.880827 
-0.099754 -0.014321 0.881368 
-0.098360 -0.014336 0.882232 
-0.096949 -0.014347 0.882964 
-0.095565 -0.014364 0.883968 
-0.094159 -0.014377 0.884802 
-0.092766 -0.014393 0.885776 
-0.091343 -0.014405 0.886500 
-0.089918 -0.014417 0.887232 
-0.088467 -0.014425 0.887722 
-0.087019 -0.014433 0.888262 
-0.085585 -0.014445 0.888956 
-0.084127 -0.014453 0.889432 
-0.082677 -0.014462 0.890008 
-0.081230 -0.014472 0.890645 
-0.079788 -0.014484 0.891352 
-0.078322 -0.014491 0.891824 
-0.076879 -0.014504 0.892571 
-0.075441 -0.014517 0.893410 
-0.074008 -0.014532 0.894344 
-0.072571 -0.014547 0.895277 
-0.071145 -0.014565 0.896376 
-0.069703 -0.014581 0.897323 
-0.068258 -0.014596 0.898259 
-0.066802 -0.014610 0.899106 
-0.065341 -0.014623 0.899926 
-0.063873 -0.014635 0.900672 
-0.062403 -0.014648 0.901437 
-0.060919 -0.014657 0.902020 
-0.059437 -0.014668 0.902681 
-0.057958 -0.014680 0.903403 
-0.056484 -0.014693 0.904260 
-0.055014 -0.014709 0.905223 
-0.053552 -0.014728 0.906375 
-0.052084 -0.014746 0.907504 
-0.050598 -0.014760 0.908368 
-0.049094 -0.014770 0.908955 
-0.047577 -0.014776 0.909338 
-0.046072 -0.014786 0.909971 
-0.044540 -0.014788 0.910101 
-0.043021 -0.014795 0.910501 
-0.041506 -0.014804 0.911052 
-0.040003 -0.014817 0.911893 
-0.038496 -0.014831 0.912699 
-0.036997 -0.014848 0.913791 
-0.035483 -0.014861 0.914595 
-0.033961 -0.014872 0.915244 
-0.032430 -0.014880 0.915713 
-0.030883 -0.014880 0.915739 
-0.029342 -0.014883 0.915939 
-0.027799 -0.014886 0.916121 
-0.026255 -0.014889 0.916305 
-0.024709 -0.014891 0.916408 
-0.023167 -0.014895 0.916682 
-0.021619 -0.014897 0.916781 
-0.020071 -0.014898 0.916870 
-0.018521 -0.014898 0.916867 
-0.016971 -0.014898 0.916860 
-0.015423 -0.014900 0.916953 
-0.013874 -0.014901 0.917056 
-0.012325 -0.014903 0.917157 
-0.010776 -0.014904 0.917245 
-0.009228 -0.014909 0.917510 
-0.007679 -0.014914 0.917808 
-0.006132 -0.014923 0.918416 
-0.004583 -0.014936 0.919212 
-0.003032 -0.014951 0.920098 
-0.001478 -0.014965 0.920980 
0.000079 -0.014979 0.921861 
0.001640 -0.014997 0.922934 
0.003205 -0.015022 0.924510 
0.004776 -0.015047 0.926045 
0.006353 -0.015074 0.927669 
0.007935 -0.015099 0.929241 
0.009521 -0.015125 0.930789 
0.011108 -0.015143 0.931916 
0.012700 -0.015163 0.933139 
0.014301 -0.015187 0.934624 
0.015906 -0.015211 0.936131 
0.017511 -0.015230 0.937300 
0.019119 -0.015249 0.938451 
0.020731 -0.015268 0.939640 
0.022349 -0.015288 0.940849 
0.023991 -0.015321 0.942871 
0.025690 -0.015384 0.946745 
0.027422 -0.015458 0.951305 
0.029171 -0.015533 0.955928 
0.030950 -0.015615 0.960997 
0.032722 -0.015686 0.965322 
0.034461 -0.015735 0.968340 
0.036205 -0.015781 0.971218 
0.037957 -0.015827 0.974046 
0.039700 -0.015866 0.976397 
0.041480 -0.015915 0.979460 
0.043278 -0.015968 0.982696 
0.045090 -0.016021 0.985976 
0.046921 -0.016078 0.989454 
0.048732 -0.016123 0.992260 
0.050497 -0.016151 0.993985 
0.052228 -0.016167 0.994943 
0.053939 -0.016176 0.995493 
0.055628 -0.016178 0.995602 
0.057342 -0.016186 0.996129 
0.059046 -0.016192 0.996470 
0.060826 -0.017909 0.998038 
0.060769 -0.016202 0.997106 
0.062508 -0.016216 0.997949 
0.064245 -0.016228 0.998721 
0.065961 -0.016235 0.999145 
0.067703 -0.016248 0.999925 
0.069454 -0.016262 1.000793 
0.071178 -0.016270 1.001253 
0.072937 -0.016284 1.002155 
0.074780 -0.018019 1.004166 
0.074715 -0.016303 1.003286 
0.076562 -0.018039 1.005270 
0.076500 -0.016322 1.004456 
0.078815 -0.018166 1.012377 
0.078310 -0.016345 1.005896 
-0.191253 -0.013284 0.912721 
-0.189504 -0.013269 0.911730 
-0.187666 -0.013248 0.910290 
-0.185703 -0.013218 0.908215 
-0.183744 -0.013188 0.906124 
-0.181754 -0.013155 0.903849 
-0.179805 -0.013124 0.901733 
-0.177855 -0.013092 0.899581 
-0.175968 -0.013065 0.897714 
-0.174124 -0.013041 0.896036 
-0.172336 -0.013020 0.894619 
-0.170540 -0.012999 0.893132 
-0.168816 -0.012982 0.892001 
-0.167103 -0.012966 0.890909 
-0.165411 -0.012952 0.889910 
-0.163753 -0.012940 0.889074 
-0.162098 -0.012927 0.888243 
-0.160435 -0.012914 0.887350 
-0.158787 -0.012902 0.886523 
-0.157113 -0.012888 0.885536 
-0.155453 -0.012875 0.884605 
-0.153784 -0.012860 0.883612 
-0.152134 -0.012847 0.882704 
-0.150474 -0.012833 0.881718 
-0.148885 -0.012824 0.881140 
-0.147288 -0.012815 0.880498 
-0.145727 -0.012808 0.880057 
-0.144170 -0.012802 0.879634 
-0.142639 -0.012798 0.879365 
-0.141096 -0.012793 0.879012 
-0.139568 -0.012789 0.878747 
-0.138041 -0.012785 0.878485 
-0.136515 -0.012782 0.878225 
-0.134961 -0.012775 0.877772 
-0.133432 -0.012771 0.877479 
-0.131929 -0.012769 0.877344 
-0.130462 -0.012770 0.877454 
-0.128998 -0.012772 0.877585 
-0.127592 -0.012780 0.878123 
-0.126157 -0.012785 0.878467 
-0.124700 -0.012788 0.878662 
-0.123240 -0.012791 0.878844 
-0.121790 -0.012794 0.879100 
-0.120293 -0.012793 0.879026 
-0.118783 -0.012791 0.878847 
-0.117260 -0.012787 0.878566 
-0.115748 -0.012784 0.878362 
-0.114242 -0.012781 0.878204 
-0.112762 -0.012782 0.878237 
-0.111291 -0.012783 0.878343 
-0.109826 -0.012786 0.878504 
-0.108360 -0.012788 0.878659 
-0.106895 -0.012791 0.878832 
-0.105451 -0.012796 0.879179 
-0.104027 -0.012803 0.879704 
-0.102602 -0.012811 0.880240 
-0.101179 -0.012819 0.880799 
-0.099752 -0.012827 0.881348 
-0.098371 -0.012841 0.882325 
-0.096971 -0.012854 0.883167 
-0.095598 -0.012870 0.884272 
-0.094200 -0.012883 0.885188 
-0.092813 -0.012898 0.886232 
-0.091381 -0.012907 0.886868 
-0.089947 -0.012917 0.887515 
-0.088485 -0.012923 0.887904 
-0.087027 -0.012929 0.888345 
-0.085584 -0.012938 0.888947 
-0.084126 -0.012945 0.889420 
-0.082684 -0.012954 0.890087 
-0.081247 -0.012965 0.890827 
-0.079821 -0.012978 0.891720 
-0.078371 -0.012988 0.892384 
-0.076942 -0.013001 0.893300 
-0.075510 -0.013015 0.894228 
-0.074076 -0.013028 0.895167 
-0.072638 -0.013042 0.896097 
-0.071204 -0.013057 0.897120 
-0.069754 -0.013069 0.897974 
-0.068295 -0.013080 0.898746 
-0.066836 -0.013092 0.899569 
-0.065363 -0.013102 0.900220 
