1636
0.159544 -0.106463 0.972418 
0.161283 -0.106526 0.972994 
0.163016 -0.106583 0.973517 
0.164680 -0.106595 0.973625 
0.166326 -0.106595 0.973625 
0.167972 -0.106595 0.973625 
0.169618 -0.106595 0.973625 
0.171264 -0.106595 0.973625 
0.172910 -0.106595 0.973625 
0.174556 -0.106595 0.973625 
0.176219 -0.106605 0.973722 
0.177884 -0.106617 0.973827 
0.179533 -0.106618 0.973837 
0.181197 -0.106629 0.973934 
0.182861 -0.106639 0.974028 
0.184528 -0.106651 0.974136 
0.186199 -0.106664 0.974260 
0.187888 -0.106688 0.974479 
0.189538 -0.106689 0.974490 
0.191183 -0.106688 0.974479 
0.192827 -0.106686 0.974462 
0.194453 -0.106675 0.974357 
0.196061 -0.106653 0.974161 
0.197685 -0.106641 0.974050 
0.199308 -0.106628 0.973931 
0.200847 -0.106572 0.973414 
0.202424 -0.106535 0.973083 
0.204040 -0.106520 0.972942 
0.205707 -0.106532 0.973048 
0.207383 -0.106547 0.973192 
0.209122 -0.106595 0.973629 
0.210836 -0.106629 0.973942 
0.212524 -0.106651 0.974136 
0.214171 -0.106651 0.974136 
0.215818 -0.106651 0.974136 
0.217443 -0.106640 0.974039 
0.219044 -0.106618 0.973838 
0.220665 -0.106605 0.973722 
0.222286 -0.106594 0.973615 
0.223910 -0.106583 0.973520 
0.225558 -0.106584 0.973528 
0.227299 -0.106629 0.973934 
0.229050 -0.106678 0.974382 
0.231056 -0.106844 0.975897 
0.233212 -0.107076 0.978018 
0.235520 -0.107374 0.980745 
-0.114554 -0.105930 0.982773 
-0.112885 -0.105924 0.982712 
-0.111185 -0.105887 0.982369 
-0.109475 -0.105838 0.981921 
-0.107751 -0.105776 0.981338 
-0.105940 -0.105625 0.979938 
-0.104110 -0.105449 0.978306 
-0.102256 -0.105243 0.976397 
-0.100364 -0.104991 0.974057 
-0.098451 -0.104707 0.971422 
-0.096578 -0.104457 0.969107 
-0.094717 -0.104213 0.966838 
-0.092876 -0.103982 0.964693 
-0.091082 -0.103795 0.962965 
-0.089332 -0.103653 0.961650 
-0.087620 -0.103551 0.960703 
-0.085950 -0.103497 0.960198 
-0.084310 -0.103477 0.960009 
-0.082670 -0.103455 0.959807 
-0.081004 -0.103399 0.959291 
-0.079336 -0.103340 0.958739 
-0.077663 -0.103269 0.958083 
-0.075961 -0.103158 0.957057 
-0.074246 -0.103024 0.955808 
-0.072524 -0.102873 0.954405 
-0.070797 -0.102708 0.952877 
-0.069078 -0.102548 0.951390 
-0.067403 -0.102446 0.950443 
-0.065754 -0.102381 0.949842 
-0.064128 -0.102349 0.949544 
-0.062510 -0.102328 0.949349 
-0.060892 -0.102306 0.949144 
-0.059275 -0.102283 0.948938 
-0.057664 -0.102271 0.948826 
-0.056054 -0.102261 0.948730 
-0.054428 -0.102219 0.948341 
-0.052806 -0.102184 0.948013 
-0.051184 -0.102145 0.947657 
-0.049561 -0.102100 0.947240 
-0.047944 -0.102069 0.946947 
-0.046343 -0.102069 0.946947 
-0.044743 -0.102069 0.946947 
-0.043142 -0.102069 0.946947 
-0.041541 -0.102069 0.946947 
-0.039940 -0.102069 0.946947 
-0.038339 -0.102069 0.946947 
-0.036738 -0.102069 0.946947 
-0.035137 -0.102069 0.946947 
-0.033537 -0.102069 0.946947 
-0.031933 -0.102059 0.946855 
-0.030322 -0.102027 0.946557 
-0.028710 -0.101982 0.946140 
-0.027103 -0.101955 0.945890 
-0.025493 -0.101912 0.945494 
-0.023883 -0.101861 0.945017 
-0.022275 -0.101816 0.944600 
-0.020666 -0.101757 0.944051 
-0.019050 -0.101646 0.943024 
-0.017437 -0.101542 0.942058 
-0.015831 -0.101451 0.941218 
-0.014226 -0.101354 0.940312 
-0.012627 -0.101279 0.939624 
-0.011033 -0.101226 0.939128 
-0.009442 -0.101194 0.938828 
-0.007851 -0.101141 0.938341 
-0.006262 -0.101097 0.937928 
-0.004674 -0.101049 0.937487 
-0.003088 -0.101013 0.937156 
-0.001504 -0.101013 0.937149 
0.000081 -0.101028 0.937287 
0.001666 -0.101053 0.937521 
0.003251 -0.101073 0.937705 
0.004837 -0.101080 0.937771 
0.006420 -0.101047 0.937467 
0.008001 -0.101004 0.937068 
0.009583 -0.100979 0.936840 
0.011163 -0.100946 0.936526 
0.012742 -0.100905 0.936154 
0.014320 -0.100874 0.935865 
0.015895 -0.100831 0.935465 
0.017472 -0.100808 0.935249 
0.019046 -0.100766 0.934861 
0.020624 -0.100755 0.934760 
0.022197 -0.100723 0.934465 
0.023776 -0.100720 0.934430 
0.025350 -0.100697 0.934221 
0.026937 -0.100726 0.934491 
0.028521 -0.100740 0.934620 
0.030102 -0.100744 0.934657 
0.031685 -0.100753 0.934743 
0.033258 -0.100730 0.934531 
0.034826 -0.100698 0.934231 
0.036398 -0.100678 0.934042 
0.037978 -0.100678 0.934045 
0.039557 -0.100679 0.934052 
0.041157 -0.100730 0.934523 
0.042760 -0.100785 0.935036 
0.044389 -0.100895 0.936059 
0.046023 -0.101008 0.937103 
0.047660 -0.101119 0.938136 
0.049278 -0.101185 0.938748 
0.050890 -0.101236 0.939222 
0.052478 -0.101236 0.939222 
0.054050 -0.101205 0.938935 
0.055613 -0.101161 0.938528 
0.057167 -0.101104 0.937992 
0.058738 -0.101078 0.937754 
0.060311 -0.101059 0.937574 
0.061906 -0.101074 0.937718 
0.063499 -0.101087 0.937839 
0.065096 -0.101105 0.938006 
0.066693 -0.101122 0.938161 
0.068294 -0.101143 0.938363 
0.069919 -0.101200 0.938886 
0.071554 -0.101267 0.939510 
0.073197 -0.101344 0.940219 
0.074828 -0.101399 0.940734 
0.076484 -0.101487 0.941547 
0.078146 -0.101577 0.942387 
0.079804 -0.101661 0.943161 
0.081454 -0.101729 0.943798 
0.083109 -0.101802 0.944476 
0.084739 -0.101843 0.944855 
0.086348 -0.101856 0.944973 
0.087964 -0.101878 0.945181 
0.089608 -0.101930 0.945662 
0.091238 -0.101965 0.945985 
0.092871 -0.102002 0.946332 
0.094503 -0.102037 0.946655 
0.096142 -0.102079 0.947039 
0.097794 -0.102132 0.947531 
0.099452 -0.102190 0.948067 
0.101115 -0.102250 0.948631 
0.102776 -0.102307 0.949158 
0.104445 -0.102370 0.949746 
0.106108 -0.102425 0.950254 
0.107777 -0.102485 0.950809 
0.109504 -0.102597 0.951849 
0.111247 -0.102721 0.952998 
0.113020 -0.102868 0.954362 
0.114800 -0.103017 0.955747 
0.116598 -0.103178 0.957242 
0.118351 -0.103297 0.958340 
0.120090 -0.103399 0.959291 
0.121778 -0.103455 0.959807 
0.123452 -0.103498 0.960206 
0.125102 -0.103520 0.960413 
0.126781 -0.103565 0.960832 
0.128489 -0.103633 0.961462 
0.130204 -0.103704 0.962123 
0.131921 -0.103776 0.962784 
0.133623 -0.103834 0.963322 
0.135325 -0.103890 0.963844 
0.137001 -0.103925 0.964168 
0.138708 -0.103983 0.964708 
0.140420 -0.104043 0.965261 
0.142132 -0.104102 0.965809 
0.143799 -0.104126 0.966036 
0.145519 -0.104188 0.966613 
0.147295 -0.104289 0.967545 
0.149058 -0.104378 0.968376 
0.150873 -0.104501 0.969516 
0.152665 -0.104606 0.970489 
0.154386 -0.104661 0.970998 
0.156092 -0.104704 0.971399 
0.157823 -0.104763 0.971941 
0.159547 -0.104816 0.972434 
0.161284 -0.104877 0.973000 
0.163016 -0.104933 0.973520 
0.164680 -0.104944 0.973625 
0.166326 -0.104944 0.973625 
0.167972 -0.104944 0.973625 
0.169618 -0.104944 0.973625 
0.171247 -0.104934 0.973528 
0.172874 -0.104923 0.973424 
0.174500 -0.104911 0.973317 
0.176144 -0.104910 0.973309 
0.177791 -0.104911 0.973317 
0.179439 -0.104912 0.973327 
0.181102 -0.104923 0.973424 
0.182765 -0.104933 0.973517 
0.184430 -0.104944 0.973618 
0.186097 -0.104956 0.973730 
0.187783 -0.104978 0.973934 
0.189431 -0.104978 0.973942 
0.191076 -0.104978 0.973934 
0.192720 -0.104976 0.973924 
0.194347 -0.104966 0.973827 
0.195955 -0.104945 0.973636 
0.197580 -0.104934 0.973529 
0.199202 -0.104922 0.973414 
0.200741 -0.104866 0.972897 
0.202314 -0.104829 0.972552 
0.203925 -0.104812 0.972394 
0.205588 -0.104821 0.972486 
0.207266 -0.104838 0.972643 
0.209007 -0.104887 0.973097 
0.210723 -0.104923 0.973424 
0.212413 -0.104944 0.973625 
0.214059 -0.104944 0.973625 
0.215705 -0.104944 0.973625 
0.217351 -0.104944 0.973625 
0.218951 -0.104923 0.973424 
0.220593 -0.104921 0.973405 
0.222236 -0.104920 0.973396 
0.223884 -0.104921 0.973405 
0.225534 -0.104923 0.973424 
0.227323 -0.104989 0.974039 
0.229123 -0.105059 0.974693 
0.231182 -0.105246 0.976427 
0.233389 -0.105498 0.978761 
0.235747 -0.105814 0.981691 
-0.114505 -0.104220 0.982354 
-0.112884 -0.104257 0.982701 
-0.111210 -0.104245 0.982591 
-0.109532 -0.104229 0.982438 
-0.107840 -0.104199 0.982154 
-0.106061 -0.104083 0.981060 
-0.104242 -0.103922 0.979545 
-0.102387 -0.103721 0.977651 
-0.100493 -0.103472 0.975305 
-0.098574 -0.103189 0.972640 
-0.096686 -0.102930 0.970195 
-0.094802 -0.102666 0.967705 
-0.092948 -0.102426 0.965444 
-0.091132 -0.102219 0.963494 
-0.089361 -0.102057 0.961969 
-0.087639 -0.101945 0.960911 
-0.085959 -0.101880 0.960300 
-0.084319 -0.101859 0.960104 
-0.082688 -0.101849 0.960009 
-0.081022 -0.101796 0.959507 
-0.079355 -0.101738 0.958959 
-0.077687 -0.101677 0.958383 
-0.075992 -0.101577 0.957446 
-0.074278 -0.101447 0.956213 
-0.072564 -0.101310 0.954927 
-0.070844 -0.101159 0.953505 
-0.069117 -0.100992 0.951929 
-0.067426 -0.100870 0.950776 
-0.065769 -0.100793 0.950055 
-0.064136 -0.100750 0.949651 
-0.062517 -0.100729 0.949451 
-0.060906 -0.100719 0.949356 
-0.059295 -0.100709 0.949260 
-0.057684 -0.100699 0.949165 
-0.056079 -0.100698 0.949158 
-0.054452 -0.100656 0.948766 
-0.052830 -0.100621 0.948430 
-0.051207 -0.100582 0.948067 
-0.049581 -0.100537 0.947640 
-0.047959 -0.100495 0.947240 
-0.046353 -0.100484 0.947138 
-0.044747 -0.100473 0.947039 
-0.043142 -0.100464 0.946947 
-0.041541 -0.100464 0.946947 
-0.039940 -0.100464 0.946947 
-0.038339 -0.100464 0.946947 
-0.036738 -0.100464 0.946947 
-0.035137 -0.100464 0.946947 
-0.033537 -0.100464 0.946947 
-0.031936 -0.100464 0.946947 
-0.030329 -0.100443 0.946757 
-0.028722 -0.100421 0.946549 
-0.027118 -0.100409 0.946431 
-0.025513 -0.100388 0.946234 
-0.023904 -0.100348 0.945857 
-0.022300 -0.100325 0.945638 
-0.020691 -0.100278 0.945200 
-0.019077 -0.100190 0.944372 
-0.017465 -0.100100 0.943523 
-0.015852 -0.099988 0.942466 
-0.014241 -0.099868 0.941335 
-0.012638 -0.099771 0.940422 
-0.011040 -0.099696 0.939715 
-0.009446 -0.099644 0.939226 
-0.007855 -0.099603 0.938835 
-0.006265 -0.099559 0.938424 
-0.004676 -0.099512 0.937982 
-0.003089 -0.099467 0.937551 
-0.001504 -0.099465 0.937533 
0.000081 -0.099488 0.937752 
0.001666 -0.099514 0.937996 
0.003253 -0.099534 0.938190 
0.004840 -0.099551 0.938350 
0.006424 -0.099520 0.938049 
0.008006 -0.099469 0.937575 
0.009589 -0.099456 0.937451 
0.011172 -0.099435 0.937257 
0.012753 -0.099406 0.936981 
0.014332 -0.099377 0.936701 
0.015909 -0.099333 0.936290 
0.017486 -0.099298 0.935958 
0.019056 -0.099235 0.935363 
0.020633 -0.099213 0.935162 
0.022206 -0.099181 0.934857 
0.023786 -0.099178 0.934832 
0.025361 -0.099157 0.934631 
0.026949 -0.099187 0.934913 
0.028534 -0.099201 0.935045 
0.030116 -0.099206 0.935090 
0.031699 -0.099214 0.935169 
0.033275 -0.099199 0.935028 
0.034848 -0.099176 0.934809 
0.036421 -0.099155 0.934613 
0.038001 -0.099155 0.934613 
0.039581 -0.099155 0.934613 
0.041173 -0.099185 0.934898 
0.042777 -0.099239 0.935401 
0.044402 -0.099337 0.936329 
0.046032 -0.099438 0.937282 
0.047664 -0.099538 0.938227 
0.049283 -0.099603 0.938838 
0.050890 -0.099644 0.939222 
0.052478 -0.099644 0.939222 
0.054050 -0.099614 0.938938 
0.055613 -0.099571 0.938536 
0.057168 -0.099516 0.938013 
0.058733 -0.099480 0.937675 
0.060298 -0.099447 0.937370 
0.061883 -0.099449 0.937380 
0.063469 -0.099449 0.937387 
0.065066 -0.099468 0.937564 
0.066671 -0.099498 0.937845 
0.068280 -0.099532 0.938169 
0.069913 -0.099599 0.938799 
0.071554 -0.099675 0.939517 
0.073198 -0.099751 0.940226 
0.074829 -0.099806 0.940745 
0.076492 -0.099901 0.941644 
0.078154 -0.099990 0.942488 
0.079813 -0.100073 0.943261 
0.081462 -0.100140 0.943901 
0.083108 -0.100200 0.944467 
0.084721 -0.100220 0.944650 
0.086318 -0.100220 0.944650 
0.087933 -0.100240 0.944840 
0.089576 -0.100292 0.945329 
0.091216 -0.100338 0.945764 
0.092869 -0.100396 0.946315 
0.094512 -0.100442 0.946747 
0.096163 -0.100495 0.947240 
0.097816 -0.100548 0.947740 
0.099474 -0.100604 0.948275 
0.101127 -0.100654 0.948741 
0.102787 -0.100709 0.949257 
0.104456 -0.100771 0.949842 
0.106119 -0.100825 0.950358 
0.107788 -0.100884 0.950909 
0.109516 -0.100995 0.951954 
0.111259 -0.101117 0.953102 
0.113021 -0.101251 0.954373 
0.114789 -0.101388 0.955656 
0.116572 -0.101534 0.957034 
0.118322 -0.101647 0.958101 
0.120061 -0.101748 0.959054 
0.121750 -0.101805 0.959590 
0.123425 -0.101849 0.960003 
0.125075 -0.101870 0.960205 
0.126738 -0.101902 0.960510 
0.128420 -0.101948 0.960942 
0.130107 -0.101998 0.961406 
0.131821 -0.102066 0.962056 
0.133522 -0.102123 0.962591 
0.135222 -0.102178 0.963109 
0.136911 -0.102224 0.963538 
0.138631 -0.102291 0.964172 
0.140342 -0.102350 0.964724 
0.142067 -0.102418 0.965366 
0.143748 -0.102452 0.965694 
0.145501 -0.102537 0.966493 
0.147294 -0.102649 0.967542 
0.149075 -0.102748 0.968483 
0.150874 -0.102859 0.969523 
0.152664 -0.102960 0.970481 
0.154369 -0.103004 0.970891 
0.156077 -0.103047 0.971303 
0.157809 -0.103106 0.971856 
0.159549 -0.103169 0.972448 
0.161270 -0.103219 0.972915 
0.162984 -0.103262 0.973327 
0.164644 -0.103271 0.973413 
0.166273 -0.103261 0.973317 
0.167902 -0.103251 0.973223 
0.169547 -0.103251 0.973220 
0.171173 -0.103239 0.973108 
0.172780 -0.103217 0.972896 
0.174403 -0.103204 0.972775 
0.176046 -0.103202 0.972763 
0.177692 -0.103204 0.972775 
0.179340 -0.103205 0.972792 
0.181004 -0.103217 0.972896 
0.182667 -0.103227 0.972994 
0.184331 -0.103238 0.973097 
0.185980 -0.103240 0.973116 
0.187664 -0.103261 0.973320 
0.189311 -0.103262 0.973324 
0.190955 -0.103261 0.973320 
0.192581 -0.103251 0.973220 
0.194225 -0.103250 0.973212 
0.195830 -0.103229 0.973012 
0.197451 -0.103217 0.972896 
0.199071 -0.103204 0.972775 
0.200628 -0.103159 0.972351 
0.202200 -0.103122 0.972003 
0.203810 -0.103105 0.971845 
0.205493 -0.103125 0.972034 
0.207170 -0.103142 0.972196 
0.208916 -0.103193 0.972671 
0.210633 -0.103228 0.973009 
0.212344 -0.103260 0.973309 
0.213991 -0.103261 0.973317 
0.215639 -0.103262 0.973327 
0.217284 -0.103262 0.973327 
0.218880 -0.103239 0.973105 
0.220517 -0.103235 0.973072 
0.222159 -0.103234 0.973057 
0.223834 -0.103247 0.973187 
0.225509 -0.103261 0.973317 
0.227346 -0.103348 0.974136 
0.229173 -0.103429 0.974903 
0.231237 -0.103616 0.976659 
0.233471 -0.103875 0.979107 
0.235832 -0.104187 0.982046 
0.238119 -0.106131 0.984636 
-0.114522 -0.102570 0.982500 
-0.112916 -0.102620 0.982976 
-0.111264 -0.102629 0.983065 
-0.109607 -0.102634 0.983112 
-0.107929 -0.102618 0.982965 
-0.106172 -0.102526 0.982080 
-0.104381 -0.102398 0.980856 
-0.102527 -0.102203 0.978982 
-0.100632 -0.101960 0.976654 
-0.098711 -0.101681 0.973986 
-0.096800 -0.101405 0.971340 
-0.094892 -0.101121 0.968622 
-0.093025 -0.100872 0.966236 
-0.091195 -0.100655 0.964159 
-0.089404 -0.100475 0.962430 
-0.087668 -0.100350 0.961237 
-0.085978 -0.100274 0.960507 
-0.084327 -0.100242 0.960198 
-0.082696 -0.100232 0.960104 
-0.081031 -0.100180 0.959608 
-0.079363 -0.100123 0.959063 
-0.077695 -0.100063 0.958484 
-0.076000 -0.099965 0.957547 
-0.074287 -0.099838 0.956327 
-0.072581 -0.099715 0.955157 
-0.070870 -0.099580 0.953861 
-0.069143 -0.099416 0.952286 
-0.067451 -0.099294 0.951122 
-0.065784 -0.099205 0.950271 
-0.064149 -0.099161 0.949845 
-0.062523 -0.099130 0.949551 
-0.060918 -0.099130 0.949551 
-0.059313 -0.099130 0.949551 
-0.057708 -0.099130 0.949551 
-0.056102 -0.099130 0.949551 
-0.054480 -0.099099 0.949257 
-0.052858 -0.099066 0.948932 
-0.051229 -0.099020 0.948491 
-0.049599 -0.098965 0.947968 
-0.047970 -0.098912 0.947463 
-0.046358 -0.098890 0.947248 
-0.044747 -0.098869 0.947046 
-0.043142 -0.098858 0.946947 
-0.041541 -0.098858 0.946947 
-0.039940 -0.098858 0.946947 
-0.038339 -0.098858 0.946947 
-0.036738 -0.098858 0.946947 
-0.035137 -0.098858 0.946947 
-0.033537 -0.098858 0.946947 
-0.031936 -0.098858 0.946947 
-0.030332 -0.098849 0.946855 
-0.028728 -0.098838 0.946757 
-0.027127 -0.098837 0.946747 
-0.025524 -0.098828 0.946655 
-0.023919 -0.098808 0.946468 
-0.022317 -0.098797 0.946356 
-0.020710 -0.098765 0.946052 
-0.019097 -0.098692 0.945359 
-0.017487 -0.098627 0.944727 
-0.015871 -0.098508 0.943592 
-0.014257 -0.098377 0.942338 
-0.012648 -0.098253 0.941151 
-0.011046 -0.098164 0.940297 
-0.009449 -0.098082 0.939508 
-0.007857 -0.098042 0.939126 
-0.006267 -0.098001 0.938731 
-0.004679 -0.097967 0.938405 
-0.003091 -0.097922 0.937975 
-0.001505 -0.097929 0.938041 
0.000081 -0.097952 0.938262 
0.001667 -0.097978 0.938515 
0.003255 -0.098001 0.938734 
0.004843 -0.098028 0.938998 
0.006429 -0.097998 0.938710 
0.008012 -0.097958 0.938325 
0.009598 -0.097955 0.938295 
0.011183 -0.097944 0.938186 
0.012766 -0.097917 0.937927 
0.014348 -0.097896 0.937727 
0.015924 -0.097841 0.937199 
0.017500 -0.097793 0.936747 
0.019069 -0.097719 0.936035 
0.020645 -0.097688 0.935733 
0.022218 -0.097648 0.935352 
0.023802 -0.097657 0.935438 
0.025378 -0.097637 0.935248 
0.026967 -0.097667 0.935540 
0.028556 -0.097691 0.935765 
0.030139 -0.097695 0.935802 
0.031721 -0.097694 0.935791 
0.033297 -0.097678 0.935645 
0.034871 -0.097655 0.935418 
0.036444 -0.097634 0.935222 
0.038029 -0.097644 0.935319 
0.039615 -0.097655 0.935419 
0.041209 -0.097684 0.935702 
0.042813 -0.097736 0.936192 
0.044430 -0.097811 0.936912 
0.046051 -0.097890 0.937674 
0.047674 -0.097968 0.938421 
0.049288 -0.098022 0.938935 
0.050890 -0.098052 0.939222 
0.052478 -0.098052 0.939222 
0.054055 -0.098032 0.939032 
0.055619 -0.097991 0.938635 
0.057174 -0.097935 0.938105 
0.058732 -0.097889 0.937665 
0.060291 -0.097846 0.937254 
0.061862 -0.097826 0.937059 
0.063440 -0.097817 0.936969 
0.065038 -0.097836 0.937159 
0.066650 -0.097878 0.937557 
0.068268 -0.097925 0.938003 
0.069908 -0.098001 0.938735 
0.071557 -0.098086 0.939553 
0.073208 -0.098171 0.940362 
0.074847 -0.098235 0.940978 
0.076510 -0.098328 0.941866 
0.078170 -0.098414 0.942688 
0.079827 -0.098491 0.943429 
0.081469 -0.098548 0.943971 
0.083099 -0.098589 0.944367 
0.084704 -0.098598 0.944457 
0.086291 -0.098588 0.944358 
0.087897 -0.098598 0.944457 
0.089540 -0.098650 0.944949 
0.091190 -0.098706 0.945486 
0.092853 -0.098774 0.946143 
0.094505 -0.098830 0.946674 
0.096175 -0.098901 0.947356 
0.097829 -0.098954 0.947866 
0.099489 -0.099011 0.948413 
0.101139 -0.099058 0.948857 
0.102798 -0.099110 0.949359 
0.104466 -0.099171 0.949938 
0.106131 -0.099225 0.950464 
0.107802 -0.099284 0.951028 
0.109528 -0.099392 0.952060 
0.111271 -0.099511 0.953201 
0.113022 -0.099634 0.954379 
0.114778 -0.099759 0.955571 
0.116546 -0.099889 0.956823 
0.118281 -0.099989 0.957774 
0.120006 -0.100076 0.958613 
0.121696 -0.100134 0.959165 
0.123373 -0.100179 0.959598 
0.125036 -0.100211 0.959908 
0.126698 -0.100243 0.960206 
0.128377 -0.100286 0.960620 
0.130047 -0.100321 0.960962 
0.131759 -0.100388 0.961603 
0.133460 -0.100444 0.962141 
0.135160 -0.100500 0.962670 
0.136849 -0.100544 0.963097 
0.138580 -0.100619 0.963814 
0.140290 -0.100677 0.964366 
0.142032 -0.100757 0.965130 
0.143747 -0.100815 0.965686 
0.145534 -0.100922 0.966717 
0.147332 -0.101034 0.967788 
0.149127 -0.101142 0.968821 
0.150908 -0.101238 0.969741 
0.152680 -0.101326 0.970584 
0.154369 -0.101358 0.970891 
0.156092 -0.101411 0.971399 
0.157826 -0.101470 0.971960 
0.159551 -0.101522 0.972459 
0.161253 -0.101558 0.972811 
0.162962 -0.101598 0.973194 
0.164604 -0.101597 0.973176 
0.166217 -0.101577 0.972986 
0.167845 -0.101566 0.972888 
0.169486 -0.101565 0.972871 
0.171092 -0.101541 0.972649 
0.172679 -0.101508 0.972326 
0.174298 -0.101493 0.972189 
0.175939 -0.101492 0.972174 
0.177585 -0.101493 0.972189 
0.179234 -0.101497 0.972219 
0.180898 -0.101508 0.972326 
0.182559 -0.101517 0.972418 
0.184225 -0.101530 0.972538 
0.185874 -0.101533 0.972563 
0.187579 -0.101565 0.972878 
0.189226 -0.101567 0.972890 
0.190871 -0.101566 0.972888 
0.192493 -0.101555 0.972775 
0.194134 -0.101553 0.972756 
0.195716 -0.101521 0.972448 
0.197336 -0.101508 0.972326 
0.198951 -0.101493 0.972189 
0.200528 -0.101460 0.971866 
0.202103 -0.101426 0.971540 
0.203718 -0.101412 0.971408 
0.205402 -0.101433 0.971608 
0.207078 -0.101449 0.971762 
0.208800 -0.101488 0.972132 
0.210514 -0.101522 0.972459 
0.212225 -0.101553 0.972763 
0.213872 -0.101555 0.972775 
0.215520 -0.101556 0.972792 
0.217165 -0.101556 0.972792 
0.218758 -0.101533 0.972563 
0.220416 -0.101539 0.972623 
0.222081 -0.101549 0.972716 
0.223783 -0.101575 0.972967 
0.225485 -0.101600 0.973212 
0.227346 -0.101697 0.974136 
0.229198 -0.101788 0.975011 
0.231266 -0.101973 0.976785 
0.233509 -0.102232 0.979263 
0.235871 -0.102539 0.982206 
-0.109681 -0.101035 0.983772 
-0.108013 -0.101031 0.983730 
-0.106258 -0.100943 0.982880 
-0.104487 -0.100838 0.981851 
-0.102663 -0.100677 0.980283 
-0.100768 -0.100440 0.977975 
-0.098846 -0.100167 0.975324 
-0.096942 -0.099905 0.972764 
-0.095011 -0.099604 0.969842 
-0.093130 -0.099347 0.967335 
-0.091287 -0.099122 0.965140 
-0.089474 -0.098921 0.963184 
-0.087708 -0.098766 0.961677 
-0.086006 -0.098678 0.960817 
-0.084336 -0.098624 0.960300 
-0.082696 -0.098604 0.960104 
-0.081039 -0.098563 0.959703 
-0.079372 -0.098508 0.959164 
-0.077703 -0.098449 0.958588 
-0.076016 -0.098362 0.957745 
-0.074310 -0.098247 0.956628 
-0.072613 -0.098139 0.955573 
-0.070909 -0.098017 0.954384 
-0.069181 -0.097855 0.952810 
-0.067480 -0.097725 0.951538 
-0.065804 -0.097625 0.950567 
-0.064155 -0.097561 0.949945 
-0.062523 -0.097520 0.949551 
-0.060918 -0.097520 0.949551 
-0.059313 -0.097520 0.949551 
-0.057708 -0.097520 0.949551 
-0.056102 -0.097520 0.949551 
-0.054486 -0.097501 0.949359 
-0.052870 -0.097479 0.949150 
-0.051248 -0.097447 0.948833 
-0.049617 -0.097394 0.948320 
-0.047987 -0.097341 0.947798 
-0.046368 -0.097305 0.947455 
-0.044752 -0.097273 0.947141 
-0.043146 -0.097263 0.947039 
-0.041545 -0.097263 0.947046 
-0.039944 -0.097264 0.947049 
-0.038347 -0.097273 0.947138 
-0.036749 -0.097282 0.947230 
-0.035148 -0.097283 0.947240 
-0.033547 -0.097284 0.947247 
-0.031946 -0.097283 0.947240 
-0.030341 -0.097273 0.947138 
-0.028737 -0.097263 0.947039 
-0.027133 -0.097253 0.946947 
-0.025532 -0.097253 0.946947 
-0.023929 -0.097244 0.946855 
-0.022326 -0.097234 0.946757 
-0.020723 -0.097223 0.946655 
-0.019115 -0.097184 0.946276 
-0.017508 -0.097144 0.945880 
-0.015892 -0.097040 0.944867 
-0.014277 -0.096919 0.943693 
-0.012661 -0.096764 0.942188 
-0.011055 -0.096643 0.941005 
-0.009453 -0.096529 0.939896 
-0.007860 -0.096479 0.939411 
-0.006269 -0.096431 0.938938 
-0.004680 -0.096409 0.938731 
-0.003092 -0.096377 0.938421 
-0.001506 -0.096394 0.938585 
0.000081 -0.096426 0.938893 
0.001669 -0.096463 0.939252 
0.003258 -0.096498 0.939591 
0.004848 -0.096535 0.939954 
0.006435 -0.096505 0.939662 
0.008021 -0.096473 0.939350 
0.009609 -0.096470 0.939320 
0.011194 -0.096450 0.939129 
0.012778 -0.096422 0.938856 
0.014362 -0.096400 0.938643 
0.015937 -0.096327 0.937933 
0.017510 -0.096260 0.937274 
0.019080 -0.096184 0.936541 
0.020654 -0.096143 0.936140 
0.022228 -0.096105 0.935767 
0.023813 -0.096115 0.935870 
0.025392 -0.096107 0.935788 
0.026985 -0.096146 0.936164 
0.028577 -0.096177 0.936470 
0.030165 -0.096191 0.936601 
0.031751 -0.096200 0.936693 
0.033333 -0.096196 0.936655 
0.034909 -0.096174 0.936441 
0.036485 -0.096155 0.936255 
0.038072 -0.096166 0.936363 
0.039660 -0.096178 0.936476 
0.041251 -0.096198 0.936673 
0.042853 -0.096238 0.937063 
0.044461 -0.096290 0.937569 
0.046073 -0.096346 0.938111 
0.047685 -0.096399 0.938634 
0.049293 -0.096441 0.939035 
0.050890 -0.096460 0.939222 
0.052478 -0.096460 0.939222 
0.054060 -0.096450 0.939125 
0.055630 -0.096419 0.938821 
0.057191 -0.096375 0.938397 
0.058750 -0.096329 0.937951 
0.060309 -0.096286 0.937533 
0.061874 -0.096256 0.937239 
0.063453 -0.096247 0.937149 
0.065051 -0.096267 0.937346 
0.066664 -0.096309 0.937754 
0.068288 -0.096364 0.938291 
0.069936 -0.096449 0.939117 
0.071587 -0.096534 0.939949 
0.073240 -0.096619 0.940772 
0.074888 -0.096692 0.941487 
0.076544 -0.096774 0.942284 
0.078196 -0.096847 0.942996 
0.079844 -0.096913 0.943633 
0.081484 -0.096966 0.944153 
0.083107 -0.096997 0.944457 
0.084704 -0.096998 0.944460 
0.086291 -0.096987 0.944359 
0.087896 -0.096997 0.944450 
0.089532 -0.097038 0.944857 
0.091182 -0.097095 0.945410 
0.092853 -0.097171 0.946152 
0.094506 -0.097226 0.946682 
0.096177 -0.097297 0.947379 
0.097831 -0.097349 0.947883 
0.099490 -0.097405 0.948430 
0.101140 -0.097450 0.948868 
0.102799 -0.097502 0.949366 
0.104467 -0.097561 0.949945 
0.106132 -0.097615 0.950474 
0.107803 -0.097674 0.951041 
0.109529 -0.097779 0.952070 
0.111271 -0.097896 0.953205 
0.113010 -0.098006 0.954280 
0.114742 -0.098108 0.955267 
0.116496 -0.098225 0.956410 
0.118217 -0.098311 0.957249 
0.119927 -0.098387 0.957985 
0.121617 -0.098444 0.958541 
0.123318 -0.098508 0.959165 
0.124995 -0.098552 0.959590 
0.126658 -0.098584 0.959901 
0.128335 -0.098625 0.960308 
0.130001 -0.098657 0.960620 
0.131696 -0.098711 0.961142 
0.133396 -0.098766 0.961683 
0.135100 -0.098824 0.962238 
0.136802 -0.098878 0.962769 
0.138547 -0.098962 0.963589 
0.140257 -0.099019 0.964143 
0.142016 -0.099109 0.965020 
0.143778 -0.099199 0.965895 
0.145589 -0.099321 0.967080 
0.147391 -0.099433 0.968177 
0.149199 -0.099547 0.969287 
0.150958 -0.099627 0.970064 
0.152697 -0.099692 0.970691 
0.154385 -0.099722 0.970987 
0.156109 -0.099775 0.971504 
0.157843 -0.099833 0.972067 
0.159566 -0.099883 0.972555 
0.161265 -0.099917 0.972886 
0.162956 -0.099945 0.973159 
0.164596 -0.099942 0.973128 
0.166191 -0.099912 0.972838 
0.167802 -0.099892 0.972643 
0.169422 -0.099878 0.972502 
0.171007 -0.099843 0.972164 
0.172575 -0.099799 0.971740 
0.174196 -0.099787 0.971619 
0.175837 -0.099786 0.971608 
0.177481 -0.099787 0.971619 
0.179127 -0.099789 0.971636 
0.180789 -0.099799 0.971740 
0.182450 -0.099809 0.971838 
0.184115 -0.099821 0.971952 
0.185763 -0.099824 0.971977 
0.187470 -0.099858 0.972309 
0.189115 -0.099859 0.972318 
0.190761 -0.099860 0.972326 
0.192379 -0.099846 0.972197 
0.194017 -0.099844 0.972171 
0.195597 -0.099811 0.971856 
0.197217 -0.099799 0.971740 
0.198835 -0.099787 0.971619 
0.200433 -0.099765 0.971407 
0.202032 -0.099744 0.971199 
0.203652 -0.099733 0.971091 
0.205336 -0.099754 0.971295 
0.207008 -0.099768 0.971432 
0.208703 -0.099793 0.971677 
0.210389 -0.099814 0.971881 
0.212117 -0.099854 0.972271 
0.213787 -0.099866 0.972390 
0.215440 -0.099870 0.972431 
0.217106 -0.099880 0.972527 
0.218719 -0.099866 0.972390 
0.220379 -0.099874 0.972464 
0.222053 -0.099887 0.972592 
0.223781 -0.099924 0.972957 
0.225485 -0.099951 0.973212 
0.227346 -0.100045 0.974136 
0.229223 -0.100146 0.975117 
0.231293 -0.100329 0.976898 
0.233560 -0.100594 0.979479 
0.235920 -0.100895 0.982410 
-0.108123 -0.099464 0.984731 
-0.106372 -0.099384 0.983932 
-0.104604 -0.099284 0.982946 
-0.102801 -0.099148 0.981599 
-0.100913 -0.098924 0.979378 
-0.098989 -0.098657 0.976736 
-0.097083 -0.098398 0.974174 
-0.095148 -0.098101 0.971233 
-0.093253 -0.097835 0.968604 
-0.091380 -0.097584 0.966115 
-0.089554 -0.097375 0.964045 
-0.087776 -0.097211 0.962421 
-0.086052 -0.097102 0.961339 
-0.084363 -0.097028 0.960612 
-0.082713 -0.096997 0.960300 
-0.081055 -0.096956 0.959898 
-0.079381 -0.096893 0.959277 
-0.077713 -0.096836 0.958707 
-0.076033 -0.096760 0.957955 
-0.074333 -0.096656 0.956928 
-0.072636 -0.096550 0.955876 
-0.070940 -0.096441 0.954797 
-0.069218 -0.096291 0.953317 
-0.067516 -0.096162 0.952037 
-0.065832 -0.096054 0.950970 
-0.064175 -0.095980 0.950240 
-0.062536 -0.095930 0.949743 
-0.060924 -0.095920 0.949643 
-0.059313 -0.095911 0.949551 
-0.057708 -0.095911 0.949551 
-0.056102 -0.095911 0.949551 
-0.054492 -0.095902 0.949458 
-0.052881 -0.095892 0.949359 
-0.051265 -0.095871 0.949155 
-0.049639 -0.095829 0.948742 
-0.048008 -0.095775 0.948207 
-0.046388 -0.095739 0.947853 
-0.044770 -0.095707 0.947528 
-0.043164 -0.095697 0.947432 
-0.041563 -0.095699 0.947449 
-0.039965 -0.095709 0.947547 
-0.038367 -0.095718 0.947641 
-0.036769 -0.095728 0.947740 
-0.035167 -0.095730 0.947756 
-0.033562 -0.095721 0.947675 
-0.031960 -0.095720 0.947657 
-0.030351 -0.095698 0.947446 
-0.028743 -0.095678 0.947240 
-0.027136 -0.095658 0.947046 
-0.025535 -0.095657 0.947039 
-0.023931 -0.095648 0.946947 
-0.022331 -0.095648 0.946947 
-0.020730 -0.095648 0.946947 
-0.019127 -0.095639 0.946855 
-0.017524 -0.095629 0.946757 
-0.015908 -0.095531 0.945787 
-0.014293 -0.095424 0.944729 
-0.012677 -0.095282 0.943320 
-0.011065 -0.095133 0.941849 
-0.009458 -0.094989 0.940428 
-0.007864 -0.094936 0.939896 
-0.006271 -0.094877 0.939314 
-0.004682 -0.094849 0.939035 
-0.003094 -0.094829 0.938838 
-0.001507 -0.094856 0.939110 
0.000081 -0.094898 0.939528 
0.001670 -0.094945 0.939987 
0.003261 -0.094989 0.940420 
0.004853 -0.095036 0.940890 
0.006442 -0.095015 0.940681 
0.008030 -0.094983 0.940369 
0.009619 -0.094979 0.940328 
0.011205 -0.094950 0.940042 
0.012789 -0.094913 0.939675 
0.014373 -0.094881 0.939356 
0.015949 -0.094808 0.938636 
0.017522 -0.094734 0.937900 
0.019095 -0.094670 0.937266 
0.020672 -0.094637 0.936939 
0.022249 -0.094609 0.936661 
0.023835 -0.094619 0.936760 
0.025419 -0.094620 0.936767 
0.027011 -0.094648 0.937050 
0.028602 -0.094670 0.937267 
0.030190 -0.094684 0.937401 
0.031782 -0.094705 0.937607 
0.033370 -0.094713 0.937687 
0.034955 -0.094712 0.937678 
0.036540 -0.094712 0.937686 
0.038134 -0.094733 0.937890 
0.039721 -0.094737 0.937927 
0.041307 -0.094738 0.937943 
0.042901 -0.094757 0.938129 
0.044497 -0.094777 0.938326 
0.046094 -0.094799 0.938545 
0.047696 -0.094830 0.938849 
0.049298 -0.094859 0.939132 
0.050890 -0.094868 0.939222 
0.052478 -0.094868 0.939222 
0.054061 -0.094859 0.939132 
0.055631 -0.094829 0.938838 
0.057199 -0.094796 0.938518 
0.058764 -0.094762 0.938179 
0.060330 -0.094731 0.937868 
0.061903 -0.094711 0.937671 
0.063488 -0.094711 0.937671 
0.065086 -0.094730 0.937859 
0.066693 -0.094761 0.938163 
0.068317 -0.094813 0.938677 
0.069965 -0.094896 0.939504 
0.071617 -0.094980 0.940339 
0.073265 -0.095056 0.941085 
0.074920 -0.095137 0.941894 
0.076570 -0.095210 0.942607 
0.078208 -0.095264 0.943146 
0.079847 -0.095317 0.943669 
0.081494 -0.095377 0.944261 
0.083109 -0.095398 0.944475 
0.084706 -0.095398 0.944477 
0.086300 -0.095396 0.944457 
0.087913 -0.095413 0.944624 
0.089539 -0.095445 0.944939 
0.091190 -0.095501 0.945489 
0.092862 -0.095577 0.946241 
0.094514 -0.095630 0.946765 
0.096184 -0.095698 0.947448 
0.097839 -0.095751 0.947965 
0.099499 -0.095806 0.948516 
0.101150 -0.095851 0.948956 
0.102808 -0.095901 0.949451 
0.104477 -0.095960 0.950038 
0.106143 -0.096014 0.950574 
0.107815 -0.096072 0.951144 
0.109530 -0.096166 0.952077 
0.111270 -0.096278 0.953190 
0.112985 -0.096367 0.954065 
0.114703 -0.096455 0.954940 
0.116433 -0.096551 0.955889 
0.118149 -0.096634 0.956706 
0.119847 -0.096698 0.957342 
0.121534 -0.096753 0.957884 
0.123247 -0.096826 0.958613 
0.124950 -0.096891 0.959249 
0.126617 -0.096925 0.959590 
0.128294 -0.096967 0.960003 
0.129957 -0.096997 0.960300 
0.131650 -0.097048 0.960808 
0.133351 -0.097103 0.961356 
0.135056 -0.097161 0.961928 
0.136774 -0.097226 0.962572 
0.138534 -0.097319 0.963494 
0.140244 -0.097376 0.964055 
0.142019 -0.097475 0.965039 
0.143812 -0.097585 0.966127 
0.145642 -0.097717 0.967429 
0.147446 -0.097829 0.968540 
0.149252 -0.097940 0.969637 
0.150993 -0.098006 0.970289 
0.152713 -0.098057 0.970794 
0.154386 -0.098077 0.970995 
0.156095 -0.098120 0.971418 
0.157813 -0.098166 0.971881 
0.159517 -0.098204 0.972255 
0.161197 -0.098226 0.972475 
0.162868 -0.098243 0.972637 
0.164510 -0.098241 0.972620 
0.166105 -0.098212 0.972335 
0.167712 -0.098191 0.972121 
0.169328 -0.098175 0.971963 
0.170911 -0.098140 0.971618 
0.172462 -0.098088 0.971103 
0.174066 -0.098066 0.970892 
0.175704 -0.098065 0.970874 
0.177346 -0.098065 0.970881 
0.178992 -0.098068 0.970902 
0.180670 -0.098088 0.971103 
0.182348 -0.098107 0.971292 
0.184010 -0.098118 0.971399 
0.185656 -0.098120 0.971418 
0.187358 -0.098151 0.971732 
0.189005 -0.098153 0.971752 
0.190650 -0.098154 0.971763 
0.192268 -0.098142 0.971636 
0.193905 -0.098139 0.971611 
0.195486 -0.098108 0.971303 
0.197107 -0.098097 0.971199 
0.198727 -0.098087 0.971091 
0.200347 -0.098076 0.970987 
0.201968 -0.098066 0.970891 
0.203610 -0.098066 0.970891 
0.205293 -0.098087 0.971091 
0.206960 -0.098098 0.971207 
0.208626 -0.098110 0.971320 
0.210289 -0.098120 0.971418 
0.212017 -0.098159 0.971809 
0.213710 -0.098182 0.972039 
0.215385 -0.098197 0.972181 
0.217075 -0.098218 0.972390 
0.218737 -0.098226 0.972470 
0.220402 -0.098235 0.972565 
0.222079 -0.098250 0.972706 
0.223807 -0.098287 0.973072 
0.225532 -0.098321 0.973414 
0.227370 -0.098405 0.974241 
0.229271 -0.098514 0.975322 
0.231341 -0.098694 0.977101 
0.233606 -0.098953 0.979670 
0.235938 -0.099238 0.982487 
-0.106465 -0.097801 0.984795 
-0.104702 -0.097710 0.983870 
-0.102912 -0.097589 0.982659 
-0.101051 -0.097396 0.980717 
-0.099134 -0.097143 0.978169 
-0.097234 -0.096897 0.975690 
-0.095304 -0.096613 0.972832 
-0.093397 -0.096343 0.970106 
-0.091510 -0.096083 0.967492 
-0.089664 -0.095858 0.965223 
-0.087863 -0.095674 0.963377 
-0.086119 -0.095546 0.962082 
-0.084410 -0.095452 0.961142 
-0.082740 -0.095401 0.960620 
-0.081081 -0.095359 0.960206 
-0.079399 -0.095288 0.959489 
-0.077724 -0.095224 0.958841 
-0.076050 -0.095157 0.958170 
-0.074350 -0.095055 0.957139 
-0.072653 -0.094951 0.956098 
-0.070963 -0.094854 0.955114 
-0.069249 -0.094718 0.953746 
-0.067546 -0.094591 0.952467 
-0.065868 -0.094494 0.951492 
-0.064204 -0.094411 0.950659 
-0.062557 -0.094351 0.950055 
-0.060937 -0.094330 0.949842 
-0.059319 -0.094310 0.949643 
-0.057708 -0.094301 0.949551 
-0.056102 -0.094301 0.949551 
-0.054497 -0.094301 0.949551 
-0.052892 -0.094301 0.949551 
-0.051281 -0.094291 0.949451 
-0.049660 -0.094261 0.949147 
-0.048034 -0.094219 0.948718 
-0.046413 -0.094183 0.948364 
-0.044794 -0.094152 0.948044 
-0.043188 -0.094143 0.947958 
-0.041586 -0.094145 0.947982 
-0.039989 -0.094157 0.948097 
-0.038389 -0.094165 0.948183 
-0.036790 -0.094176 0.948285 
-0.035188 -0.094178 0.948314 
-0.033582 -0.094170 0.948229 
-0.031978 -0.094168 0.948204 
-0.030365 -0.094135 0.947876 
-0.028753 -0.094103 0.947557 
-0.027142 -0.094073 0.947248 
-0.025537 -0.094062 0.947138 
-0.023931 -0.094043 0.946947 
-0.022331 -0.094043 0.946947 
-0.020730 -0.094043 0.946947 
-0.019129 -0.094043 0.946947 
-0.017528 -0.094043 0.946947 
-0.015914 -0.093967 0.946185 
-0.014302 -0.093884 0.945350 
-0.012688 -0.093767 0.944172 
-0.011075 -0.093622 0.942714 
-0.009467 -0.093478 0.941265 
-0.007870 -0.093412 0.940600 
-0.006275 -0.093342 0.939895 
-0.004684 -0.093304 0.939511 
-0.003095 -0.093285 0.939320 
-0.001508 -0.093313 0.939602 
0.000081 -0.093355 0.940027 
0.001671 -0.093402 0.940494 
0.003262 -0.093445 0.940931 
0.004855 -0.093492 0.941404 
0.006446 -0.093472 0.941199 
0.008035 -0.093451 0.940987 
0.009625 -0.093448 0.940956 
0.011213 -0.093420 0.940675 
0.012798 -0.093381 0.940285 
0.014382 -0.093348 0.939949 
0.015959 -0.093277 0.939232 
0.017533 -0.093205 0.938512 
0.019109 -0.093153 0.937990 
0.020688 -0.093122 0.937675 
0.022269 -0.093103 0.937482 
0.023856 -0.093112 0.937575 
0.025441 -0.093113 0.937582 
0.027034 -0.093140 0.937862 
0.028629 -0.093171 0.938170 
0.030223 -0.093195 0.938409 
0.031817 -0.093217 0.938632 
0.033414 -0.093245 0.938918 
0.035005 -0.093255 0.939019 
0.036597 -0.093266 0.939130 
0.038193 -0.093287 0.939342 
0.039782 -0.093289 0.939357 
0.041365 -0.093279 0.939259 
0.042952 -0.093276 0.939232 
0.044535 -0.093266 0.939124 
0.046118 -0.093257 0.939035 
0.047710 -0.093267 0.939132 
0.049303 -0.093276 0.939222 
0.050890 -0.093276 0.939222 
0.052478 -0.093276 0.939222 
0.054066 -0.093276 0.939222 
0.055643 -0.093257 0.939035 
0.057218 -0.093237 0.938831 
0.058792 -0.093215 0.938618 
0.060365 -0.093195 0.938413 
0.061939 -0.093177 0.938226 
0.063525 -0.093177 0.938226 
0.065118 -0.093186 0.938316 
0.066724 -0.093214 0.938601 
0.068348 -0.093264 0.939104 
0.069989 -0.093335 0.939824 
0.071634 -0.093409 0.940568 
0.073281 -0.093481 0.941293 
0.074936 -0.093561 0.942098 
0.076588 -0.093633 0.942822 
0.078227 -0.093687 0.943365 
0.079865 -0.093738 0.943882 
0.081519 -0.093806 0.944559 
0.083127 -0.093818 0.944681 
0.084717 -0.093810 0.944604 
0.086310 -0.093806 0.944567 
0.087929 -0.093830 0.944802 
0.089548 -0.093852 0.945032 
0.091199 -0.093908 0.945588 
0.092871 -0.093982 0.946333 
0.094522 -0.094033 0.946846 
0.096173 -0.094082 0.947339 
0.097827 -0.094132 0.947850 
0.099486 -0.094186 0.948391 
0.101139 -0.094232 0.948851 
0.102797 -0.094282 0.949356 
0.104477 -0.094350 0.950038 
0.106143 -0.094403 0.950574 
0.107815 -0.094459 0.951144 
0.109519 -0.094542 0.951977 
0.111246 -0.094642 0.952985 
0.112947 -0.094718 0.953743 
0.114650 -0.094793 0.954504 
0.116365 -0.094876 0.955337 
0.118081 -0.094956 0.956149 
0.119777 -0.095020 0.956790 
0.121464 -0.095074 0.957334 
0.123189 -0.095157 0.958164 
0.124905 -0.095230 0.958902 
0.126588 -0.095276 0.959371 
0.128268 -0.095320 0.959804 
0.129931 -0.095349 0.960104 
0.131622 -0.095399 0.960601 
0.133322 -0.095453 0.961150 
0.135042 -0.095520 0.961827 
0.136790 -0.095606 0.962686 
0.138566 -0.095708 0.963719 
0.140293 -0.095775 0.964388 
0.142080 -0.095880 0.965452 
0.143888 -0.095998 0.966636 
0.145720 -0.096128 0.967947 
0.147527 -0.096240 0.969071 
0.149316 -0.096337 0.970052 
0.151040 -0.096390 0.970587 
0.152728 -0.096421 0.970891 
0.154402 -0.096441 0.971095 
0.156112 -0.096483 0.971521 
0.157830 -0.096529 0.971985 
0.159515 -0.096554 0.972239 
0.161176 -0.096565 0.972346 
0.162815 -0.096562 0.972318 
0.164439 -0.096551 0.972204 
0.166017 -0.096512 0.971816 
0.167623 -0.096491 0.971601 
0.169221 -0.096466 0.971347 
0.170802 -0.096431 0.970999 
0.172351 -0.096380 0.970481 
0.173953 -0.096358 0.970262 
0.175590 -0.096356 0.970245 
0.177249 -0.096367 0.970349 
0.178912 -0.096379 0.970473 
0.180594 -0.096401 0.970691 
0.182272 -0.096421 0.970891 
0.183932 -0.096430 0.970987 
0.185575 -0.096431 0.970995 
0.187256 -0.096451 0.971199 
0.188900 -0.096453 0.971214 
0.190543 -0.096453 0.971216 
0.192164 -0.096442 0.971110 
0.193802 -0.096440 0.971091 
0.195403 -0.096421 0.970891 
0.197044 -0.096421 0.970891 
0.198685 -0.096421 0.970891 
0.200327 -0.096421 0.970891 
0.201968 -0.096421 0.970891 
0.203610 -0.096421 0.970891 
0.205271 -0.096430 0.970987 
0.206914 -0.096431 0.970995 
0.208557 -0.096431 0.970998 
0.210197 -0.096431 0.970995 
0.211926 -0.096470 0.971392 
0.213644 -0.096505 0.971740 
0.215347 -0.096532 0.972010 
0.217063 -0.096564 0.972337 
0.218770 -0.096592 0.972618 
0.220440 -0.096603 0.972731 
0.222116 -0.096617 0.972868 
0.223838 -0.096650 0.973204 
0.225558 -0.096683 0.973529 
0.227373 -0.096754 0.974252 
0.229275 -0.096862 0.975337 
0.231321 -0.097029 0.977013 
0.233557 -0.097272 0.979467 
0.235861 -0.097540 0.982165 
-0.106539 -0.096198 0.985476 
-0.104790 -0.096123 0.984700 
-0.103009 -0.096014 0.983583 
-0.101178 -0.095855 0.981953 
-0.099271 -0.095617 0.979519 
-0.097372 -0.095378 0.977074 
-0.095439 -0.095098 0.974202 
-0.093535 -0.094838 0.971542 
-0.091644 -0.094582 0.968913 
-0.089794 -0.094358 0.966626 
-0.087991 -0.094178 0.964773 
-0.086243 -0.094050 0.963466 
-0.084512 -0.093937 0.962309 
-0.082813 -0.093854 0.961463 
-0.081134 -0.093792 0.960828 
-0.079440 -0.093711 0.959995 
-0.077749 -0.093629 0.959155 
-0.076067 -0.093555 0.958394 
-0.074374 -0.093462 0.957446 
-0.072676 -0.093361 0.956407 
-0.070987 -0.093266 0.955439 
-0.069288 -0.093153 0.954278 
-0.067592 -0.093039 0.953108 
-0.065914 -0.092946 0.952155 
-0.064248 -0.092863 0.951311 
-0.062592 -0.092792 0.950583 
-0.060963 -0.092760 0.950251 
-0.059337 -0.092730 0.949942 
-0.057720 -0.092711 0.949746 
-0.056108 -0.092701 0.949650 
-0.054503 -0.092701 0.949643 
-0.052892 -0.092692 0.949551 
-0.051282 -0.092683 0.949458 
-0.049666 -0.092663 0.949260 
-0.048046 -0.092633 0.948946 
-0.046430 -0.092610 0.948718 
-0.044816 -0.092589 0.948500 
-0.043213 -0.092591 0.948516 
-0.041611 -0.092593 0.948540 
-0.040012 -0.092603 0.948648 
-0.038412 -0.092613 0.948741 
-0.036812 -0.092622 0.948840 
-0.035208 -0.092624 0.948857 
-0.033601 -0.092615 0.948766 
-0.031996 -0.092613 0.948741 
-0.030379 -0.092571 0.948317 
-0.028763 -0.092530 0.947897 
-0.027148 -0.092488 0.947463 
-0.025540 -0.092466 0.947240 
-0.023931 -0.092437 0.946947 
-0.022331 -0.092437 0.946947 
-0.020730 -0.092437 0.946947 
-0.019129 -0.092437 0.946947 
-0.017528 -0.092437 0.946947 
-0.015919 -0.092390 0.946466 
-0.014311 -0.092339 0.945935 
-0.012700 -0.092256 0.945086 
-0.011087 -0.092126 0.943760 
-0.009478 -0.091995 0.942416 
-0.007877 -0.091908 0.941526 
-0.006279 -0.091810 0.940518 
-0.004686 -0.091743 0.939830 
-0.003096 -0.091722 0.939616 
-0.001508 -0.091748 0.939887 
0.000081 -0.091781 0.940224 
0.001671 -0.091836 0.940782 
0.003264 -0.091887 0.941307 
0.004857 -0.091933 0.941783 
0.006448 -0.091915 0.941595 
0.008039 -0.091904 0.941487 
0.009631 -0.091903 0.941472 
0.011219 -0.091875 0.941189 
0.012805 -0.091837 0.940792 
0.014391 -0.091812 0.940536 
0.015971 -0.091751 0.939916 
0.017547 -0.091683 0.939217 
0.019126 -0.091643 0.938806 
0.020706 -0.091613 0.938504 
0.022286 -0.091586 0.938226 
0.023873 -0.091586 0.938226 
0.025459 -0.091586 0.938226 
0.027053 -0.091614 0.938511 
0.028652 -0.091653 0.938914 
0.030250 -0.091686 0.939249 
0.031849 -0.091717 0.939568 
0.033451 -0.091755 0.939953 
0.035044 -0.091766 0.940070 
0.036638 -0.091778 0.940189 
0.038236 -0.091798 0.940397 
0.039822 -0.091789 0.940306 
0.041406 -0.091776 0.940174 
0.042984 -0.091752 0.939928 
0.044558 -0.091721 0.939611 
0.046132 -0.091693 0.939320 
0.047719 -0.091692 0.939313 
0.049303 -0.091683 0.939222 
0.050890 -0.091683 0.939222 
0.052478 -0.091683 0.939222 
0.054066 -0.091683 0.939222 
0.055649 -0.091675 0.939132 
0.057230 -0.091665 0.939035 
0.058811 -0.091655 0.938935 
0.060393 -0.091646 0.938838 
0.061974 -0.091637 0.938748 
0.063567 -0.091646 0.938839 
0.065161 -0.091655 0.938936 
0.066769 -0.091684 0.939224 
0.068393 -0.091732 0.939725 
0.070027 -0.091793 0.940342 
0.071659 -0.091846 0.940887 
0.073297 -0.091905 0.941495 
0.074944 -0.091973 0.942190 
0.076579 -0.092024 0.942716 
0.078210 -0.092069 0.943170 
0.079848 -0.092119 0.943680 
0.081511 -0.092195 0.944458 
0.083120 -0.092208 0.944601 
0.084719 -0.092211 0.944631 
0.086329 -0.092225 0.944773 
0.087950 -0.092250 0.945024 
0.089560 -0.092263 0.945156 
0.091212 -0.092318 0.945718 
0.092873 -0.092379 0.946349 
0.094513 -0.092419 0.946757 
0.096153 -0.092456 0.947141 
0.097806 -0.092506 0.947646 
0.099466 -0.092560 0.948199 
0.101128 -0.092613 0.948747 
0.102787 -0.092663 0.949260 
0.104477 -0.092739 0.950038 
0.106143 -0.092792 0.950574 
0.107815 -0.092847 0.951144 
0.109517 -0.092927 0.951967 
0.111244 -0.093025 0.952968 
0.112931 -0.093088 0.953613 
0.114634 -0.093162 0.954369 
0.116347 -0.093242 0.955188 
0.118051 -0.093313 0.955912 
0.119735 -0.093365 0.956453 
0.121434 -0.093428 0.957097 
0.123160 -0.093510 0.957937 
0.124878 -0.093584 0.958693 
0.126574 -0.093640 0.959266 
0.128267 -0.093692 0.959797 
0.129931 -0.093722 0.960104 
0.131622 -0.093770 0.960601 
0.133322 -0.093824 0.961150 
0.135056 -0.093900 0.961929 
0.136834 -0.094004 0.962997 
0.138615 -0.094108 0.964055 
0.140357 -0.094183 0.964830 
0.142158 -0.094296 0.965981 
0.143966 -0.094410 0.967159 
0.145769 -0.094520 0.968277 
0.147574 -0.094628 0.969382 
0.149348 -0.094713 0.970256 
0.151055 -0.094755 0.970688 
0.152728 -0.094775 0.970891 
0.154402 -0.094795 0.971099 
0.156097 -0.094827 0.971426 
0.157795 -0.094861 0.971774 
0.159461 -0.094874 0.971911 
0.161119 -0.094883 0.972004 
0.162757 -0.094880 0.971968 
0.164380 -0.094869 0.971853 
0.165973 -0.094840 0.971558 
0.167595 -0.094829 0.971443 
0.169180 -0.094796 0.971111 
0.170745 -0.094754 0.970673 
0.172291 -0.094701 0.970138 
0.173870 -0.094668 0.969799 
0.175486 -0.094656 0.969673 
0.177147 -0.094667 0.969788 
0.178814 -0.094682 0.969939 
0.180498 -0.094705 0.970174 
0.182177 -0.094725 0.970385 
0.183836 -0.094735 0.970481 
0.185496 -0.094745 0.970584 
0.187176 -0.094765 0.970788 
0.188839 -0.094776 0.970899 
0.190500 -0.094785 0.970998 
0.192141 -0.094785 0.970995 
0.193781 -0.094784 0.970987 
0.195403 -0.094775 0.970891 
0.197044 -0.094775 0.970891 
0.198685 -0.094775 0.970891 
0.200327 -0.094775 0.970891 
0.201968 -0.094775 0.970891 
0.203610 -0.094775 0.970891 
0.205251 -0.094775 0.970891 
0.206892 -0.094775 0.970891 
0.208534 -0.094775 0.970891 
0.210175 -0.094775 0.970891 
0.211885 -0.094806 0.971206 
0.213626 -0.094849 0.971655 
0.215353 -0.094887 0.972036 
0.217096 -0.094930 0.972484 
0.218833 -0.094971 0.972898 
0.220523 -0.094990 0.973097 
0.222194 -0.095001 0.973212 
0.223888 -0.095022 0.973424 
0.225605 -0.095052 0.973733 
0.227399 -0.095114 0.974363 
0.229304 -0.095221 0.975461 
0.231370 -0.095393 0.977223 
0.233582 -0.095622 0.979571 
0.235860 -0.095875 0.982161 
-0.104892 -0.094545 0.985651 
-0.103109 -0.094438 0.984537 
-0.101304 -0.094308 0.983179 
-0.099408 -0.094086 0.980871 
-0.097517 -0.093862 0.978534 
-0.095593 -0.093598 0.975778 
-0.093696 -0.093351 0.973208 
-0.091801 -0.093098 0.970567 
-0.089947 -0.092878 0.968272 
-0.088141 -0.092700 0.966419 
-0.086380 -0.092564 0.965004 
-0.084637 -0.092442 0.963728 
-0.082916 -0.092340 0.962663 
-0.081222 -0.092264 0.961875 
-0.079509 -0.092164 0.960827 
-0.077807 -0.092072 0.959869 
-0.076116 -0.091989 0.959004 
-0.074421 -0.091898 0.958053 
-0.072722 -0.091798 0.957012 
-0.071033 -0.091706 0.956056 
-0.069341 -0.091605 0.955007 
-0.067645 -0.091496 0.953863 
-0.065966 -0.091404 0.952904 
-0.064292 -0.091314 0.951968 
-0.062634 -0.091243 0.951229 
-0.060997 -0.091200 0.950782 
-0.059364 -0.091160 0.950368 
-0.057739 -0.091131 0.950061 
-0.056120 -0.091111 0.949853 
-0.054508 -0.091100 0.949743 
-0.052892 -0.091082 0.949551 
-0.051287 -0.091082 0.949551 
-0.049677 -0.091073 0.949458 
-0.048061 -0.091054 0.949260 
-0.046451 -0.091043 0.949147 
-0.044842 -0.091033 0.949042 
-0.043237 -0.091034 0.949048 
-0.041634 -0.091035 0.949066 
-0.040034 -0.091045 0.949168 
-0.038433 -0.091054 0.949257 
-0.036832 -0.091063 0.949349 
-0.035227 -0.091064 0.949359 
-0.033619 -0.091055 0.949267 
-0.032013 -0.091053 0.949249 
-0.030393 -0.091005 0.948749 
-0.028775 -0.090963 0.948313 
-0.027157 -0.090912 0.947774 
-0.025546 -0.090880 0.947442 
-0.023934 -0.090842 0.947046 
-0.022333 -0.090841 0.947039 
-0.020730 -0.090832 0.946947 
-0.019129 -0.090832 0.946947 
-0.017530 -0.090841 0.947039 
-0.015924 -0.090814 0.946754 
-0.014318 -0.090783 0.946434 
-0.012711 -0.090732 0.945903 
-0.011099 -0.090626 0.944793 
-0.009490 -0.090507 0.943560 
-0.007887 -0.090422 0.942675 
-0.006287 -0.090324 0.941648 
-0.004690 -0.090229 0.940659 
-0.003098 -0.090196 0.940312 
-0.001509 -0.090202 0.940372 
0.000081 -0.090214 0.940506 
0.001672 -0.090259 0.940970 
0.003265 -0.090318 0.941586 
0.004859 -0.090365 0.942074 
0.006451 -0.090357 0.941990 
0.008043 -0.090355 0.941976 
0.009636 -0.090354 0.941963 
0.011225 -0.090328 0.941687 
0.012812 -0.090291 0.941300 
0.014399 -0.090267 0.941059 
0.015981 -0.090217 0.940530 
0.017558 -0.090151 0.939841 
0.019139 -0.090111 0.939430 
0.020720 -0.090082 0.939124 
0.022301 -0.090054 0.938839 
0.023886 -0.090046 0.938748 
0.025473 -0.090046 0.938748 
0.027071 -0.090082 0.939127 
0.028671 -0.090122 0.939543 
0.030274 -0.090165 0.939987 
0.031877 -0.090204 0.940400 
0.033483 -0.090250 0.940874 
0.035078 -0.090259 0.940972 
0.036673 -0.090271 0.941095 
0.038269 -0.090282 0.941206 
0.039852 -0.090263 0.941011 
0.041432 -0.090241 0.940779 
0.043007 -0.090207 0.940433 
0.044577 -0.090168 0.940018 
0.046147 -0.090129 0.939619 
0.047729 -0.090119 0.939508 
0.049307 -0.090100 0.939313 
0.050890 -0.090091 0.939222 
0.052478 -0.090091 0.939222 
0.054066 -0.090091 0.939222 
0.055654 -0.090091 0.939222 
0.057242 -0.090091 0.939222 
0.058829 -0.090091 0.939222 
0.060417 -0.090091 0.939222 
0.062011 -0.090100 0.939313 
0.063612 -0.090119 0.939508 
0.065215 -0.090139 0.939717 
0.066826 -0.090169 0.940028 
0.068451 -0.090217 0.940529 
0.070074 -0.090258 0.940961 
0.071689 -0.090290 0.941289 
0.073319 -0.090336 0.941777 
0.074957 -0.090392 0.942361 
0.076577 -0.090424 0.942695 
0.078199 -0.090457 0.943037 
0.079835 -0.090504 0.943530 
0.081491 -0.090571 0.944228 
0.083102 -0.090587 0.944395 
0.084711 -0.090601 0.944540 
0.086331 -0.090625 0.944791 
0.087953 -0.090651 0.945056 
0.089563 -0.090664 0.945191 
0.091215 -0.090717 0.945750 
0.092874 -0.090777 0.946367 
