1624
0.034025 -0.030469 0.873136 
0.035494 -0.030463 0.872961 
0.036961 -0.030456 0.872767 
0.038428 -0.030449 0.872570 
0.039892 -0.030440 0.872314 
0.041366 -0.030440 0.872314 
0.042854 -0.030449 0.872570 
0.044339 -0.030456 0.872768 
0.045829 -0.030465 0.873040 
0.047314 -0.030472 0.873221 
0.048799 -0.030477 0.873379 
0.050272 -0.030475 0.873305 
0.051748 -0.030475 0.873301 
0.053234 -0.030480 0.873464 
0.054717 -0.030484 0.873561 
0.056195 -0.030485 0.873589 
0.057677 -0.030487 0.873670 
0.059171 -0.030496 0.873910 
0.060644 -0.030494 0.873852 
0.062152 -0.030509 0.874279 
0.063668 -0.030527 0.874811 
0.065200 -0.030552 0.875517 
0.066723 -0.030572 0.876087 
0.068258 -0.030596 0.876779 
0.069769 -0.030608 0.877131 
0.071286 -0.030623 0.877553 
0.072813 -0.030641 0.878080 
0.074337 -0.030658 0.878549 
0.075870 -0.030677 0.879106 
0.077411 -0.030699 0.879724 
0.078969 -0.030726 0.880512 
0.080517 -0.030749 0.881168 
0.082091 -0.030781 0.882071 
0.083676 -0.030815 0.883059 
0.085255 -0.030846 0.883959 
0.086814 -0.030869 0.884611 
0.088388 -0.030897 0.885396 
0.090018 -0.030942 0.886707 
0.091618 -0.030977 0.887686 
0.093240 -0.031017 0.888847 
0.094868 -0.031058 0.890024 
0.096478 -0.031092 0.890992 
0.098046 -0.031112 0.891560 
0.099654 -0.031143 0.892458 
0.101258 -0.031172 0.893297 
0.102894 -0.031211 0.894393 
0.104578 -0.031262 0.895864 
0.106282 -0.031318 0.897470 
0.108016 -0.031381 0.899275 
0.109775 -0.031449 0.901234 
0.111498 -0.031505 0.902843 
0.113178 -0.031548 0.904074 
0.114859 -0.031590 0.905275 
0.116743 -0.031686 0.908028 
0.118700 -0.031799 0.911263 
0.120832 -0.031956 0.915746 
0.122973 -0.032111 0.920186 
0.125143 -0.032269 0.924724 
0.127047 -0.032356 0.927214 
0.128830 -0.032410 0.928764 
0.130478 -0.032429 0.929322 
0.132108 -0.032444 0.929734 
0.133625 -0.032431 0.929354 
-0.152010 -0.028445 0.856772 
-0.150671 -0.028466 0.857397 
-0.149352 -0.028491 0.858144 
-0.147996 -0.028509 0.858696 
-0.146611 -0.028522 0.859083 
-0.145250 -0.028540 0.859626 
-0.143852 -0.028551 0.859955 
-0.142454 -0.028562 0.860295 
-0.141071 -0.028577 0.860726 
-0.139663 -0.028586 0.861018 
-0.138238 -0.028593 0.861209 
-0.136756 -0.028587 0.861044 
-0.135256 -0.028578 0.860761 
-0.133719 -0.028560 0.860238 
-0.132200 -0.028546 0.859816 
-0.130656 -0.028527 0.859223 
-0.129148 -0.028514 0.858854 
-0.127665 -0.028507 0.858642 
-0.126213 -0.028507 0.858642 
-0.124769 -0.028509 0.858693 
-0.123391 -0.028526 0.859202 
-0.122021 -0.028545 0.859787 
-0.120595 -0.028552 0.859981 
-0.119177 -0.028560 0.860239 
-0.117752 -0.028568 0.860454 
-0.116296 -0.028567 0.860448 
-0.114821 -0.028562 0.860291 
-0.113376 -0.028565 0.860364 
-0.111890 -0.028557 0.860125 
-0.110383 -0.028543 0.859710 
-0.108874 -0.028528 0.859269 
-0.107334 -0.028505 0.858570 
-0.105787 -0.028479 0.857794 
-0.104251 -0.028456 0.857089 
-0.102729 -0.028436 0.856486 
-0.101204 -0.028414 0.855830 
-0.099718 -0.028403 0.855494 
-0.098243 -0.028395 0.855248 
-0.096798 -0.028395 0.855254 
-0.095381 -0.028404 0.855512 
-0.094033 -0.028433 0.856405 
-0.092714 -0.028473 0.857593 
-0.091377 -0.028508 0.858653 
-0.090025 -0.028539 0.859605 
-0.088672 -0.028572 0.860584 
-0.087270 -0.028589 0.861099 
-0.085835 -0.028596 0.861310 
-0.084391 -0.028600 0.861437 
-0.082942 -0.028603 0.861511 
-0.081447 -0.028589 0.861100 
-0.079937 -0.028570 0.860514 
-0.078428 -0.028550 0.859920 
-0.076934 -0.028535 0.859467 
-0.075443 -0.028521 0.859042 
-0.073976 -0.028515 0.858868 
-0.072518 -0.028512 0.858791 
-0.071079 -0.028518 0.858950 
-0.069635 -0.028521 0.859047 
-0.068190 -0.028524 0.859140 
-0.066732 -0.028522 0.859067 
-0.065278 -0.028521 0.859047 
-0.063801 -0.028510 0.858719 
-0.062325 -0.028499 0.858378 
-0.060849 -0.028487 0.858026 
-0.059384 -0.028480 0.857819 
-0.057916 -0.028472 0.857561 
-0.056466 -0.028471 0.857552 
-0.055042 -0.028485 0.857956 
-0.053614 -0.028497 0.858321 
-0.052191 -0.028512 0.858779 
-0.050765 -0.028526 0.859210 
-0.049326 -0.028534 0.859455 
-0.047864 -0.028529 0.859287 
-0.046405 -0.028525 0.859173 
-0.044947 -0.028521 0.859060 
-0.043482 -0.028513 0.858812 
-0.042022 -0.028508 0.858650 
-0.040562 -0.028502 0.858465 
-0.039106 -0.028498 0.858357 
-0.037655 -0.028498 0.858355 
-0.036215 -0.028507 0.858625 
-0.034785 -0.028525 0.859165 
-0.033360 -0.028548 0.859867 
-0.031930 -0.028569 0.860498 
-0.030494 -0.028586 0.861022 
-0.029052 -0.028600 0.861441 
-0.027601 -0.028606 0.861613 
-0.026147 -0.028609 0.861697 
-0.024695 -0.028614 0.861851 
-0.023242 -0.028620 0.862021 
-0.021792 -0.028629 0.862290 
-0.020341 -0.028638 0.862573 
-0.018883 -0.028639 0.862594 
-0.017424 -0.028638 0.862575 
-0.015963 -0.028631 0.862372 
-0.014500 -0.028623 0.862109 
-0.013035 -0.028607 0.861627 
-0.011574 -0.028595 0.861279 
-0.010114 -0.028583 0.860914 
-0.008656 -0.028574 0.860634 
-0.007199 -0.028565 0.860390 
-0.005745 -0.028571 0.860555 
-0.004292 -0.028585 0.860978 
-0.002838 -0.028595 0.861275 
-0.001383 -0.028607 0.861638 
0.000074 -0.028637 0.862542 
0.001534 -0.028666 0.863419 
0.002996 -0.028691 0.864176 
0.004461 -0.028715 0.864896 
0.005927 -0.028736 0.865540 
0.007391 -0.028736 0.865533 
0.008853 -0.028733 0.865442 
0.010313 -0.028725 0.865197 
0.011775 -0.028724 0.865170 
0.013236 -0.028719 0.865013 
0.014698 -0.028719 0.865015 
0.016164 -0.028725 0.865188 
0.017631 -0.028733 0.865439 
0.019102 -0.028745 0.865790 
0.020580 -0.028765 0.866386 
0.022065 -0.028791 0.867188 
0.023560 -0.028827 0.868260 
0.025068 -0.028873 0.869657 
0.026582 -0.028920 0.871071 
0.028094 -0.028961 0.872307 
0.029601 -0.028993 0.873265 
0.031096 -0.029010 0.873780 
0.032585 -0.029021 0.874108 
0.034060 -0.029018 0.874028 
0.035530 -0.029012 0.873854 
0.037002 -0.029009 0.873734 
0.038475 -0.029005 0.873628 
0.039944 -0.029000 0.873466 
0.041425 -0.029003 0.873559 
0.042915 -0.029011 0.873815 
0.044402 -0.029018 0.874010 
0.045889 -0.029024 0.874195 
0.047376 -0.029030 0.874366 
0.048859 -0.029032 0.874444 
0.050337 -0.029032 0.874444 
0.051815 -0.029032 0.874444 
0.053304 -0.029038 0.874614 
0.054789 -0.029041 0.874717 
0.056275 -0.029045 0.874827 
0.057771 -0.029053 0.875083 
0.059262 -0.029059 0.875261 
0.060748 -0.029062 0.875354 
0.062264 -0.029079 0.875858 
0.063789 -0.029099 0.876466 
0.065313 -0.029118 0.877041 
0.066845 -0.029140 0.877682 
0.068377 -0.029160 0.878305 
0.069884 -0.029170 0.878585 
0.071405 -0.029184 0.879020 
0.072928 -0.029199 0.879470 
0.074454 -0.029214 0.879934 
0.075988 -0.029232 0.880466 
0.077544 -0.029257 0.881232 
0.079098 -0.029281 0.881950 
0.080656 -0.029306 0.882690 
0.082234 -0.029336 0.883605 
0.083821 -0.029369 0.884587 
0.085381 -0.029391 0.885256 
0.086931 -0.029409 0.885809 
0.088506 -0.029435 0.886578 
0.090136 -0.029478 0.887876 
0.091720 -0.029504 0.888673 
0.093332 -0.029539 0.889727 
0.094950 -0.029575 0.890790 
0.096552 -0.029604 0.891674 
0.098113 -0.029621 0.892168 
0.099745 -0.029657 0.893276 
0.101373 -0.029692 0.894309 
0.103033 -0.029735 0.895605 
0.104731 -0.029787 0.897173 
0.106439 -0.029840 0.898789 
0.108175 -0.029900 0.900594 
0.109938 -0.029966 0.902571 
0.111673 -0.030022 0.904266 
0.113358 -0.030064 0.905515 
0.115141 -0.030129 0.907497 
0.117111 -0.030242 0.910892 
0.119164 -0.030373 0.914824 
0.121363 -0.030537 0.919773 
0.123546 -0.030693 0.924476 
0.125595 -0.030812 0.928062 
0.127399 -0.030869 0.929781 
0.129081 -0.030896 0.930577 
0.130664 -0.030898 0.930647 
0.132233 -0.030897 0.930611 
0.133745 -0.030883 0.930186 
-0.149444 -0.027053 0.858675 
-0.148086 -0.027070 0.859217 
-0.146724 -0.027087 0.859746 
-0.145371 -0.027105 0.860340 
-0.143998 -0.027121 0.860829 
-0.142637 -0.027139 0.861397 
-0.141284 -0.027159 0.862028 
-0.139903 -0.027173 0.862500 
-0.138515 -0.027187 0.862934 
-0.137055 -0.027187 0.862930 
-0.135554 -0.027178 0.862658 
-0.134013 -0.027162 0.862130 
-0.132488 -0.027148 0.861690 
-0.130930 -0.027127 0.861022 
-0.129408 -0.027113 0.860578 
-0.127922 -0.027106 0.860368 
-0.126467 -0.027106 0.860368 
-0.125019 -0.027108 0.860414 
-0.123626 -0.027121 0.860839 
-0.122241 -0.027137 0.861335 
-0.120801 -0.027140 0.861449 
-0.119368 -0.027146 0.861620 
-0.117932 -0.027151 0.861771 
-0.116474 -0.027150 0.861765 
-0.114997 -0.027146 0.861613 
-0.113550 -0.027148 0.861683 
-0.112072 -0.027143 0.861522 
-0.110563 -0.027130 0.861109 
-0.109041 -0.027113 0.860585 
-0.107487 -0.027088 0.859792 
-0.105926 -0.027061 0.858921 
-0.104368 -0.027033 0.858052 
-0.102834 -0.027012 0.857361 
-0.101304 -0.026990 0.856680 
-0.099951 -0.027016 0.857497 
-0.098617 -0.027048 0.858503 
-0.097296 -0.027084 0.859654 
-0.095968 -0.027119 0.860777 
-0.094682 -0.027168 0.862312 
-0.093285 -0.027185 0.862881 
-0.091867 -0.027198 0.863266 
-0.090455 -0.027212 0.863713 
-0.089047 -0.027228 0.864219 
-0.087611 -0.027235 0.864465 
-0.086145 -0.027234 0.864418 
-0.084685 -0.027234 0.864430 
-0.083213 -0.027231 0.864322 
-0.081717 -0.027219 0.863953 
-0.080192 -0.027198 0.863264 
-0.078676 -0.027178 0.862643 
-0.077171 -0.027161 0.862115 
-0.075676 -0.027148 0.861689 
-0.074198 -0.027140 0.861449 
-0.072735 -0.027138 0.861367 
-0.071278 -0.027138 0.861362 
-0.069815 -0.027135 0.861276 
-0.068352 -0.027132 0.861185 
-0.066883 -0.027127 0.861015 
-0.065420 -0.027124 0.860924 
-0.063947 -0.027116 0.860679 
-0.062473 -0.027108 0.860423 
-0.060994 -0.027097 0.860070 
-0.059520 -0.027088 0.859791 
-0.058049 -0.027080 0.859533 
-0.056591 -0.027077 0.859451 
-0.055159 -0.027088 0.859783 
-0.053728 -0.027099 0.860142 
-0.052301 -0.027113 0.860592 
-0.050867 -0.027125 0.860946 
-0.049431 -0.027135 0.861276 
-0.047971 -0.027133 0.861205 
-0.046515 -0.027132 0.861199 
-0.045058 -0.027132 0.861187 
-0.043594 -0.027127 0.861022 
-0.042130 -0.027121 0.860850 
-0.040665 -0.027115 0.860654 
-0.039205 -0.027112 0.860541 
-0.037750 -0.027112 0.860536 
-0.036307 -0.027120 0.860802 
-0.034870 -0.027134 0.861254 
-0.033440 -0.027156 0.861938 
-0.032006 -0.027175 0.862542 
-0.030565 -0.027191 0.863052 
-0.029113 -0.027197 0.863240 
-0.027660 -0.027204 0.863459 
-0.026202 -0.027205 0.863512 
-0.024747 -0.027210 0.863668 
-0.023292 -0.027216 0.863857 
-0.021843 -0.027230 0.864294 
-0.020386 -0.027236 0.864495 
-0.018927 -0.027240 0.864600 
-0.017465 -0.027240 0.864600 
-0.016001 -0.027234 0.864433 
-0.014536 -0.027229 0.864259 
-0.013070 -0.027218 0.863925 
-0.011605 -0.027208 0.863581 
-0.010142 -0.027199 0.863306 
-0.008681 -0.027194 0.863139 
-0.007221 -0.027191 0.863069 
-0.005764 -0.027200 0.863329 
-0.004307 -0.027216 0.863839 
-0.002848 -0.027228 0.864215 
-0.001387 -0.027242 0.864673 
0.000074 -0.027269 0.865518 
0.001539 -0.027294 0.866312 
0.003006 -0.027315 0.866980 
0.004474 -0.027331 0.867504 
0.005943 -0.027343 0.867886 
0.007409 -0.027337 0.867682 
0.008873 -0.027328 0.867409 
0.010336 -0.027320 0.867137 
0.011801 -0.027316 0.867040 
0.013268 -0.027319 0.867118 
0.014735 -0.027322 0.867213 
0.016206 -0.027330 0.867482 
0.017678 -0.027339 0.867743 
0.019157 -0.027355 0.868270 
0.020638 -0.027373 0.868819 
0.022129 -0.027401 0.869712 
0.023626 -0.027431 0.870689 
0.025129 -0.027465 0.871749 
0.026634 -0.027498 0.872792 
0.028138 -0.027525 0.873666 
0.029636 -0.027545 0.874294 
0.031127 -0.027556 0.874649 
0.032618 -0.027567 0.874984 
0.034094 -0.027564 0.874908 
0.035570 -0.027562 0.874820 
0.037051 -0.027564 0.874880 
0.038530 -0.027563 0.874878 
0.040006 -0.027561 0.874810 
0.041493 -0.027567 0.874986 
0.042981 -0.027572 0.875158 
0.044461 -0.027573 0.875178 
0.045950 -0.027578 0.875350 
0.047439 -0.027584 0.875520 
0.048924 -0.027586 0.875608 
0.050404 -0.027587 0.875614 
0.051889 -0.027589 0.875687 
0.053379 -0.027594 0.875850 
0.054867 -0.027597 0.875958 
0.056360 -0.027604 0.876157 
0.057870 -0.027617 0.876582 
0.059364 -0.027623 0.876766 
0.060859 -0.027629 0.876944 
0.062377 -0.027645 0.877453 
0.063900 -0.027662 0.877993 
0.065427 -0.027680 0.878570 
0.066968 -0.027703 0.879292 
0.068502 -0.027722 0.879912 
0.070018 -0.027733 0.880271 
0.071543 -0.027748 0.880721 
0.073056 -0.027756 0.881005 
0.074569 -0.027765 0.881290 
0.076097 -0.027779 0.881727 
0.077641 -0.027799 0.882339 
0.079198 -0.027822 0.883071 
0.080768 -0.027848 0.883910 
0.082363 -0.027882 0.884989 
0.083960 -0.027916 0.886061 
0.085538 -0.027942 0.886889 
0.087085 -0.027957 0.887372 
0.088653 -0.027979 0.888056 
0.090269 -0.028014 0.889186 
0.091828 -0.028031 0.889725 
0.093432 -0.028061 0.890678 
0.095058 -0.028097 0.891802 
0.096660 -0.028124 0.892678 
0.098235 -0.028143 0.893272 
0.099889 -0.028184 0.894565 
0.101532 -0.028220 0.895713 
0.103199 -0.028262 0.897042 
0.104909 -0.028314 0.898699 
0.106619 -0.028365 0.900313 
0.108368 -0.028424 0.902205 
0.110137 -0.028487 0.904205 
0.111880 -0.028542 0.905939 
0.113680 -0.028610 0.908081 
0.115559 -0.028695 0.910795 
0.117609 -0.028820 0.914762 
0.119751 -0.028964 0.919333 
0.121963 -0.029121 0.924322 
0.124026 -0.029239 0.928062 
0.126002 -0.029334 0.931074 
-0.146790 -0.025641 0.860132 
-0.145437 -0.025659 0.860731 
-0.144061 -0.025673 0.861207 
-0.142767 -0.025702 0.862184 
-0.141482 -0.025733 0.863233 
-0.140141 -0.025755 0.863967 
-0.138795 -0.025776 0.864682 
-0.137365 -0.025782 0.864882 
-0.135873 -0.025777 0.864688 
-0.134319 -0.025759 0.864094 
-0.132788 -0.025745 0.863641 
-0.131224 -0.025725 0.862959 
-0.129699 -0.025712 0.862518 
-0.128191 -0.025702 0.862181 
-0.126733 -0.025702 0.862175 
-0.125278 -0.025702 0.862195 
-0.123858 -0.025710 0.862455 
-0.122447 -0.025720 0.862790 
-0.121016 -0.025726 0.862982 
-0.119570 -0.025729 0.863081 
-0.118123 -0.025731 0.863163 
-0.116663 -0.025731 0.863157 
-0.115193 -0.025729 0.863081 
-0.113734 -0.025729 0.863081 
-0.112264 -0.025726 0.862996 
-0.110762 -0.025716 0.862660 
-0.109216 -0.025696 0.861974 
-0.107640 -0.025667 0.861020 
-0.106064 -0.025638 0.860046 
-0.104650 -0.025648 0.860370 
-0.103248 -0.025661 0.860813 
-0.101876 -0.025682 0.861514 
-0.100662 -0.025744 0.863592 
-0.099455 -0.025810 0.865798 
-0.098101 -0.025839 0.866766 
-0.096735 -0.025865 0.867654 
-0.095385 -0.025897 0.868715 
-0.093924 -0.025899 0.868788 
-0.092446 -0.025896 0.868698 
-0.090972 -0.025895 0.868654 
-0.089510 -0.025897 0.868710 
-0.088036 -0.025895 0.868657 
-0.086525 -0.025882 0.868235 
-0.085024 -0.025872 0.867897 
-0.083514 -0.025859 0.867452 
-0.081994 -0.025842 0.866889 
-0.080441 -0.025814 0.865938 
-0.078910 -0.025792 0.865212 
-0.077393 -0.025774 0.864595 
-0.075887 -0.025759 0.864093 
-0.074405 -0.025752 0.863850 
-0.072931 -0.025747 0.863685 
-0.071456 -0.025742 0.863511 
-0.069975 -0.025734 0.863241 
-0.068501 -0.025728 0.863056 
-0.067021 -0.025720 0.862789 
-0.065555 -0.025717 0.862695 
-0.064079 -0.025710 0.862451 
-0.062602 -0.025703 0.862202 
-0.061120 -0.025692 0.861857 
-0.059639 -0.025682 0.861508 
-0.058171 -0.025677 0.861331 
-0.056715 -0.025677 0.861338 
-0.055281 -0.025687 0.861680 
-0.053847 -0.025698 0.862037 
-0.052416 -0.025711 0.862474 
-0.050977 -0.025721 0.862807 
-0.049543 -0.025733 0.863228 
-0.048090 -0.025736 0.863341 
-0.046640 -0.025742 0.863524 
-0.045189 -0.025747 0.863685 
-0.043725 -0.025744 0.863610 
-0.042257 -0.025740 0.863446 
-0.040789 -0.025734 0.863263 
-0.039324 -0.025731 0.863155 
-0.037865 -0.025731 0.863142 
-0.036416 -0.025738 0.863405 
-0.034971 -0.025749 0.863755 
-0.033534 -0.025767 0.864349 
-0.032092 -0.025782 0.864861 
-0.030642 -0.025793 0.865221 
-0.029182 -0.025795 0.865303 
-0.027727 -0.025802 0.865524 
-0.026265 -0.025804 0.865595 
-0.024807 -0.025809 0.865777 
-0.023351 -0.025817 0.866051 
-0.021898 -0.025830 0.866481 
-0.020437 -0.025835 0.866661 
-0.018976 -0.025841 0.866844 
-0.017509 -0.025839 0.866773 
-0.016041 -0.025834 0.866611 
-0.014573 -0.025829 0.866437 
-0.013103 -0.025819 0.866100 
-0.011634 -0.025809 0.865757 
-0.010169 -0.025805 0.865646 
-0.008705 -0.025803 0.865566 
-0.007242 -0.025804 0.865601 
-0.005781 -0.025812 0.865873 
-0.004319 -0.025827 0.866384 
-0.002856 -0.025841 0.866834 
-0.001392 -0.025857 0.867369 
0.000075 -0.025884 0.868292 
0.001544 -0.025908 0.869083 
0.003015 -0.025924 0.869648 
0.004487 -0.025935 0.869999 
0.005959 -0.025941 0.870208 
0.007427 -0.025928 0.869754 
0.008894 -0.025919 0.869465 
0.010361 -0.025911 0.869196 
0.011829 -0.025908 0.869106 
0.013300 -0.025911 0.869196 
0.014772 -0.025916 0.869376 
0.016247 -0.025925 0.869649 
0.017723 -0.025933 0.869927 
0.019205 -0.025949 0.870457 
0.020689 -0.025965 0.870999 
0.022182 -0.025989 0.871802 
0.023678 -0.026013 0.872604 
0.025176 -0.026036 0.873396 
0.026676 -0.026060 0.874182 
0.028177 -0.026080 0.874878 
0.029674 -0.026096 0.875413 
0.031167 -0.026107 0.875773 
0.032663 -0.026120 0.876193 
0.034145 -0.026120 0.876206 
0.035623 -0.026118 0.876134 
0.037107 -0.026120 0.876207 
0.038589 -0.026120 0.876219 
0.040068 -0.026119 0.876170 
0.041554 -0.026122 0.876264 
0.043043 -0.026126 0.876420 
0.044524 -0.026126 0.876419 
0.046015 -0.026131 0.876591 
0.047507 -0.026137 0.876770 
0.048999 -0.026142 0.876949 
0.050482 -0.026142 0.876958 
0.051974 -0.026147 0.877114 
0.053467 -0.026152 0.877280 
0.054961 -0.026158 0.877467 
0.056457 -0.026163 0.877661 
0.057970 -0.026176 0.878093 
0.059461 -0.026179 0.878199 
0.060965 -0.026187 0.878471 
0.062486 -0.026203 0.878985 
0.064013 -0.026220 0.879545 
0.065543 -0.026237 0.880118 
0.067085 -0.026258 0.880832 
0.068615 -0.026274 0.881358 
0.070133 -0.026284 0.881714 
0.071660 -0.026297 0.882154 
0.073174 -0.026306 0.882429 
0.074696 -0.026316 0.882789 
0.076232 -0.026331 0.883298 
0.077774 -0.026348 0.883854 
0.079342 -0.026372 0.884673 
0.080923 -0.026400 0.885610 
0.082514 -0.026430 0.886615 
0.084109 -0.026460 0.887625 
0.085697 -0.026487 0.888534 
0.087246 -0.026502 0.889014 
0.088827 -0.026525 0.889799 
0.090448 -0.026559 0.890948 
0.092003 -0.026573 0.891416 
0.093599 -0.026599 0.892266 
0.095217 -0.026629 0.893294 
0.096814 -0.026653 0.894097 
0.098401 -0.026674 0.894789 
0.100079 -0.026718 0.896267 
0.101726 -0.026753 0.897426 
0.103395 -0.026792 0.898748 
0.105098 -0.026839 0.900319 
0.106810 -0.026887 0.901921 
0.108564 -0.026944 0.903834 
0.110337 -0.027004 0.905844 
0.112161 -0.027074 0.908212 
0.114087 -0.027167 0.911338 
0.116087 -0.027275 0.914958 
0.118239 -0.027416 0.919665 
0.120486 -0.027574 0.924980 
0.122609 -0.027700 0.929214 
0.124563 -0.027786 0.932081 
0.126437 -0.027851 0.934288 
0.128860 -0.029629 0.940446 
-0.144157 -0.024229 0.861778 
-0.142994 -0.024279 0.863553 
-0.141789 -0.024323 0.865111 
-0.140489 -0.024351 0.866110 
-0.139160 -0.024375 0.866954 
-0.137747 -0.024384 0.867283 
-0.136227 -0.024374 0.866939 
-0.134655 -0.024355 0.866259 
-0.133118 -0.024342 0.865788 
-0.131550 -0.024322 0.865101 
-0.130011 -0.024308 0.864588 
-0.128487 -0.024296 0.864168 
-0.127000 -0.024291 0.863993 
-0.125516 -0.024287 0.863833 
-0.124068 -0.024289 0.863919 
-0.122632 -0.024294 0.864095 
-0.121198 -0.024299 0.864280 
-0.119749 -0.024302 0.864374 
-0.118299 -0.024304 0.864454 
-0.116847 -0.024306 0.864525 
-0.115387 -0.024306 0.864531 
-0.113936 -0.024309 0.864617 
-0.112475 -0.024309 0.864617 
-0.110973 -0.024300 0.864302 
-0.109390 -0.024273 0.863344 
-0.107782 -0.024240 0.862152 
-0.106176 -0.024206 0.860952 
-0.104924 -0.024253 0.862622 
-0.103687 -0.024305 0.864470 
-0.102497 -0.024369 0.866767 
-0.101432 -0.024466 0.870201 
-0.100358 -0.024563 0.873652 
-0.098969 -0.024585 0.874435 
-0.097554 -0.024601 0.874996 
-0.096125 -0.024614 0.875462 
-0.094586 -0.024598 0.874917 
-0.093015 -0.024574 0.874050 
-0.091460 -0.024553 0.873307 
-0.089938 -0.024541 0.872868 
-0.088411 -0.024527 0.872362 
-0.086850 -0.024502 0.871495 
-0.085310 -0.024483 0.870809 
-0.083768 -0.024463 0.870087 
-0.082214 -0.024438 0.869208 
-0.080646 -0.024408 0.868148 
-0.079104 -0.024385 0.867338 
-0.077581 -0.024368 0.866702 
-0.076071 -0.024353 0.866192 
-0.074592 -0.024348 0.866014 
-0.073107 -0.024341 0.865766 
-0.071621 -0.024334 0.865501 
-0.070129 -0.024324 0.865143 
-0.068643 -0.024316 0.864855 
-0.067154 -0.024306 0.864510 
-0.065680 -0.024301 0.864339 
-0.064195 -0.024292 0.864014 
-0.062715 -0.024285 0.863755 
-0.061230 -0.024275 0.863406 
-0.059752 -0.024267 0.863136 
-0.058297 -0.024269 0.863197 
-0.056855 -0.024276 0.863458 
-0.055424 -0.024289 0.863906 
-0.053991 -0.024301 0.864346 
-0.052555 -0.024313 0.864762 
-0.051112 -0.024322 0.865092 
-0.049670 -0.024332 0.865439 
-0.048218 -0.024338 0.865644 
-0.046770 -0.024346 0.865925 
-0.045315 -0.024351 0.866099 
-0.043847 -0.024349 0.866030 
-0.042379 -0.024346 0.865948 
-0.040908 -0.024342 0.865781 
-0.039440 -0.024339 0.865691 
-0.037976 -0.024339 0.865686 
-0.036523 -0.024346 0.865934 
-0.035070 -0.024353 0.866204 
-0.033626 -0.024368 0.866721 
-0.032177 -0.024380 0.867156 
-0.030723 -0.024390 0.867515 
-0.029260 -0.024393 0.867607 
-0.027803 -0.024402 0.867924 
-0.026341 -0.024407 0.868090 
-0.024882 -0.024415 0.868398 
-0.023422 -0.024423 0.868687 
-0.021962 -0.024433 0.869025 
-0.020495 -0.024435 0.869102 
-0.019027 -0.024437 0.869172 
-0.017554 -0.024432 0.869009 
-0.016081 -0.024425 0.868761 
-0.014607 -0.024418 0.868481 
-0.013133 -0.024405 0.868053 
-0.011660 -0.024396 0.867701 
-0.010193 -0.024395 0.867685 
-0.008727 -0.024398 0.867771 
-0.007262 -0.024403 0.867963 
-0.005797 -0.024413 0.868313 
-0.004332 -0.024427 0.868828 
-0.002864 -0.024438 0.869194 
-0.001395 -0.024448 0.869560 
0.000075 -0.024469 0.870316 
0.001547 -0.024489 0.871018 
0.003022 -0.024502 0.871500 
0.004497 -0.024512 0.871858 
0.005972 -0.024519 0.872078 
0.007443 -0.024506 0.871632 
0.008913 -0.024498 0.871347 
0.010383 -0.024491 0.871080 
0.011855 -0.024488 0.871002 
0.013331 -0.024496 0.871262 
0.014809 -0.024504 0.871543 
0.016289 -0.024514 0.871905 
0.017770 -0.024524 0.872253 
0.019254 -0.024535 0.872672 
0.020736 -0.024543 0.872955 
0.022227 -0.024560 0.873561 
0.023721 -0.024578 0.874191 
0.025215 -0.024593 0.874736 
0.026712 -0.024611 0.875347 
0.028211 -0.024628 0.875955 
0.029708 -0.024641 0.876415 
0.031200 -0.024649 0.876704 
0.032698 -0.024661 0.877129 
0.034184 -0.024663 0.877223 
0.035671 -0.024666 0.877308 
0.037165 -0.024673 0.877561 
0.038656 -0.024678 0.877746 
0.040145 -0.024681 0.877859 
0.041629 -0.024681 0.877854 
0.043112 -0.024680 0.877833 
0.044591 -0.024678 0.877731 
0.046080 -0.024680 0.877824 
0.047570 -0.024683 0.877941 
0.049070 -0.024691 0.878225 
0.050560 -0.024694 0.878316 
0.052054 -0.024699 0.878478 
0.053549 -0.024703 0.878639 
0.055047 -0.024709 0.878837 
0.056551 -0.024716 0.879111 
0.058071 -0.024731 0.879629 
0.059571 -0.024736 0.879817 
0.061083 -0.024746 0.880181 
0.062608 -0.024761 0.880698 
0.064131 -0.024774 0.881171 
0.065656 -0.024788 0.881644 
0.067194 -0.024805 0.882271 
0.068721 -0.024818 0.882718 
0.070242 -0.024828 0.883078 
0.071763 -0.024838 0.883430 
0.073279 -0.024845 0.883698 
0.074802 -0.024855 0.884046 
0.076342 -0.024870 0.884574 
0.077894 -0.024888 0.885213 
0.079473 -0.024914 0.886135 
0.081056 -0.024940 0.887068 
0.082650 -0.024969 0.888082 
0.084247 -0.024997 0.889085 
0.085832 -0.025021 0.889932 
0.087385 -0.025035 0.890427 
0.088994 -0.025064 0.891473 
0.090628 -0.025099 0.892717 
0.092203 -0.025117 0.893356 
0.093803 -0.025141 0.894217 
0.095434 -0.025172 0.895334 
0.097019 -0.025191 0.895987 
0.098611 -0.025211 0.896689 
0.100282 -0.025250 0.898083 
0.101940 -0.025284 0.899312 
0.103610 -0.025321 0.900613 
0.105315 -0.025365 0.902183 
0.107029 -0.025410 0.903778 
0.108788 -0.025464 0.905700 
0.110629 -0.025535 0.908245 
0.112532 -0.025619 0.911221 
0.114550 -0.025726 0.915034 
0.116655 -0.025850 0.919429 
0.118800 -0.025979 0.924028 
0.120934 -0.026103 0.928420 
0.122959 -0.026200 0.931870 
0.124820 -0.026260 0.934006 
0.127638 -0.026517 0.943160 
-0.140893 -0.022949 0.868604 
-0.139575 -0.022973 0.869537 
-0.138156 -0.022982 0.869859 
-0.136631 -0.022973 0.869512 
-0.135042 -0.022952 0.868745 
-0.133500 -0.022940 0.868269 
-0.131911 -0.022919 0.867476 
-0.130354 -0.022903 0.866869 
-0.128777 -0.022883 0.866121 
-0.127258 -0.022873 0.865752 
-0.125742 -0.022864 0.865392 
-0.124267 -0.022861 0.865308 
-0.122808 -0.022862 0.865330 
-0.121381 -0.022869 0.865586 
-0.119929 -0.022871 0.865673 
-0.118476 -0.022873 0.865745 
-0.117033 -0.022877 0.865897 
-0.115581 -0.022879 0.865989 
-0.114141 -0.022884 0.866172 
-0.112914 -0.022932 0.867995 
-0.111693 -0.022983 0.869910 
-0.110286 -0.022996 0.870417 
-0.108844 -0.023003 0.870651 
-0.107373 -0.023003 0.870654 
-0.106055 -0.023036 0.871922 
-0.104715 -0.023066 0.873041 
-0.103538 -0.023133 0.875570 
-0.102437 -0.023218 0.878819 
-0.101310 -0.023301 0.881946 
-0.099823 -0.023302 0.881981 
-0.098327 -0.023301 0.881932 
-0.096820 -0.023297 0.881787 
-0.095181 -0.023261 0.880421 
-0.093510 -0.023215 0.878698 
-0.091877 -0.023178 0.877291 
-0.090278 -0.023148 0.876163 
-0.088694 -0.023121 0.875150 
-0.087108 -0.023093 0.874079 
-0.085543 -0.023070 0.873190 
-0.083973 -0.023044 0.872216 
-0.082413 -0.023020 0.871319 
-0.080841 -0.022992 0.870252 
-0.079296 -0.022971 0.869442 
-0.077770 -0.022954 0.868810 
-0.076256 -0.022940 0.868296 
-0.074765 -0.022933 0.868031 
-0.073269 -0.022924 0.867686 
-0.071773 -0.022915 0.867337 
-0.070271 -0.022903 0.866892 
-0.068783 -0.022896 0.866611 
-0.067291 -0.022887 0.866271 
-0.065814 -0.022882 0.866100 
-0.064331 -0.022876 0.865846 
-0.062853 -0.022871 0.865652 
-0.061375 -0.022865 0.865446 
-0.059910 -0.022864 0.865421 
-0.058469 -0.022873 0.865754 
-0.057036 -0.022885 0.866211 
-0.055612 -0.022902 0.866841 
-0.054180 -0.022916 0.867374 
-0.052734 -0.022925 0.867713 
-0.051282 -0.022932 0.867962 
-0.049825 -0.022936 0.868143 
-0.048360 -0.022938 0.868187 
-0.046897 -0.022940 0.868286 
-0.045434 -0.022942 0.868370 
-0.043962 -0.022940 0.868290 
-0.042494 -0.022940 0.868290 
-0.041023 -0.022938 0.868214 
-0.039555 -0.022938 0.868208 
-0.038087 -0.022938 0.868205 
-0.036626 -0.022943 0.868378 
-0.035166 -0.022948 0.868575 
-0.033718 -0.022962 0.869098 
-0.032260 -0.022969 0.869393 
-0.030802 -0.022979 0.869743 
-0.029338 -0.022983 0.869920 
-0.027881 -0.022994 0.870335 
-0.026416 -0.023000 0.870557 
-0.024955 -0.023010 0.870934 
-0.023490 -0.023018 0.871216 
-0.022024 -0.023024 0.871458 
-0.020550 -0.023024 0.871448 
-0.019077 -0.023023 0.871435 
-0.017600 -0.023019 0.871254 
-0.016120 -0.023009 0.870894 
-0.014641 -0.022999 0.870507 
-0.013163 -0.022987 0.870053 
-0.011686 -0.022975 0.869623 
-0.010215 -0.022973 0.869536 
-0.008746 -0.022976 0.869629 
-0.007278 -0.022983 0.869898 
-0.005809 -0.022990 0.870172 
-0.004341 -0.023003 0.870675 
-0.002870 -0.023013 0.871031 
-0.001398 -0.023022 0.871392 
0.000075 -0.023038 0.871991 
0.001550 -0.023056 0.872687 
0.003028 -0.023071 0.873248 
0.004506 -0.023083 0.873710 
0.005986 -0.023092 0.874042 
0.007462 -0.023087 0.873861 
0.008938 -0.023084 0.873747 
0.010413 -0.023080 0.873563 
0.011890 -0.023080 0.873576 
0.013371 -0.023087 0.873851 
0.014853 -0.023095 0.874139 
0.016336 -0.023102 0.874414 
0.017819 -0.023109 0.874671 
0.019303 -0.023115 0.874909 
0.020786 -0.023120 0.875076 
0.022274 -0.023129 0.875421 
0.023766 -0.023140 0.875866 
0.025258 -0.023150 0.876244 
0.026755 -0.023164 0.876769 
0.028255 -0.023178 0.877298 
0.029753 -0.023190 0.877753 
0.031248 -0.023198 0.878055 
0.032748 -0.023210 0.878483 
0.034237 -0.023212 0.878577 
0.035726 -0.023214 0.878665 
0.037222 -0.023221 0.878922 
0.038716 -0.023226 0.879110 
0.040207 -0.023229 0.879218 
0.041693 -0.023229 0.879210 
0.043178 -0.023228 0.879173 
0.044659 -0.023225 0.879060 
0.046150 -0.023227 0.879159 
0.047647 -0.023233 0.879359 
0.049154 -0.023242 0.879728 
0.050652 -0.023247 0.879911 
0.052154 -0.023254 0.880162 
0.053653 -0.023259 0.880337 
0.055149 -0.023262 0.880455 
0.056650 -0.023267 0.880650 
0.058172 -0.023280 0.881165 
0.059670 -0.023284 0.881287 
0.061185 -0.023293 0.881646 
0.062706 -0.023305 0.882082 
0.064236 -0.023319 0.882609 
0.065763 -0.023331 0.883079 
0.067310 -0.023350 0.883789 
0.068840 -0.023362 0.884243 
0.070369 -0.023373 0.884685 
0.071887 -0.023380 0.884949 
0.073406 -0.023388 0.885226 
0.074932 -0.023397 0.885580 
0.076477 -0.023412 0.886134 
0.078039 -0.023431 0.886859 
0.079621 -0.023455 0.887787 
0.081199 -0.023478 0.888626 
0.082787 -0.023502 0.889552 
0.084393 -0.023530 0.890627 
0.085980 -0.023553 0.891473 
0.087553 -0.023570 0.892144 
0.089186 -0.023603 0.893388 
0.090834 -0.023639 0.894748 
0.092416 -0.023657 0.895418 
0.094019 -0.023679 0.896267 
0.095644 -0.023707 0.897301 
0.097222 -0.023722 0.897863 
0.098818 -0.023740 0.898575 
0.100492 -0.023777 0.899964 
0.102153 -0.023810 0.901193 
0.103825 -0.023844 0.902488 
0.105533 -0.023885 0.904050 
0.107253 -0.023928 0.905667 
0.109005 -0.023976 0.907508 
0.110897 -0.024054 0.910444 
0.112869 -0.024146 0.913944 
0.114963 -0.024262 0.918330 
0.117144 -0.024393 0.923287 
0.119278 -0.024511 0.927740 
0.121336 -0.024610 0.931503 
0.123270 -0.024682 0.934224 
0.125045 -0.024721 0.935690 
-0.141699 -0.021599 0.873570 
-0.140273 -0.021607 0.873888 
-0.138652 -0.021584 0.872981 
-0.137093 -0.021571 0.872455 
-0.135497 -0.021552 0.871674 
-0.133936 -0.021538 0.871109 
-0.132318 -0.021514 0.870152 
-0.130740 -0.021497 0.869440 
-0.129128 -0.021473 0.868479 
-0.127553 -0.021455 0.867756 
-0.125994 -0.021439 0.867120 
-0.124477 -0.021431 0.866770 
-0.122991 -0.021427 0.866621 
-0.121552 -0.021432 0.866804 
-0.120339 -0.021477 0.868627 
-0.119134 -0.021524 0.870554 
-0.117964 -0.021580 0.872788 
-0.116751 -0.021628 0.874755 
-0.107280 -0.021807 0.881996 
-0.105792 -0.021808 0.882017 
-0.104526 -0.021855 0.883922 
-0.103374 -0.021928 0.886862 
-0.102182 -0.021994 0.889539 
-0.100620 -0.021981 0.889021 
-0.099040 -0.021964 0.888332 
-0.097410 -0.021935 0.887161 
-0.095668 -0.021880 0.884921 
-0.093900 -0.021816 0.882366 
-0.092175 -0.021761 0.880139 
-0.090505 -0.021718 0.878367 
-0.088899 -0.021688 0.877178 
-0.087301 -0.021659 0.876017 
-0.085722 -0.021635 0.875023 
-0.084141 -0.021609 0.873967 
-0.082577 -0.021586 0.873052 
-0.081003 -0.021560 0.871995 
-0.079455 -0.021540 0.871186 
-0.077928 -0.021525 0.870574 
-0.076411 -0.021512 0.870066 
-0.074918 -0.021506 0.869803 
-0.073418 -0.021497 0.869453 
-0.071918 -0.021488 0.869092 
-0.070413 -0.021477 0.868646 
-0.068923 -0.021470 0.868373 
-0.067429 -0.021462 0.868041 
-0.065948 -0.021458 0.867872 
-0.064468 -0.021454 0.867692 
-0.062992 -0.021451 0.867575 
-0.061530 -0.021452 0.867632 
-0.060081 -0.021458 0.867889 
-0.058655 -0.021474 0.868507 
-0.057231 -0.021490 0.869168 
-0.055808 -0.021508 0.869900 
-0.054376 -0.021523 0.870515 
-0.052921 -0.021530 0.870780 
-0.051459 -0.021534 0.870952 
-0.049986 -0.021534 0.870953 
-0.048509 -0.021532 0.870867 
-0.047027 -0.021528 0.870682 
-0.045554 -0.021527 0.870658 
-0.044073 -0.021523 0.870485 
-0.042601 -0.021523 0.870485 
-0.041130 -0.021523 0.870485 
-0.039658 -0.021523 0.870485 
-0.038187 -0.021523 0.870485 
-0.036722 -0.021527 0.870655 
-0.035258 -0.021532 0.870846 
-0.033800 -0.021541 0.871216 
-0.032338 -0.021548 0.871499 
-0.030877 -0.021556 0.871844 
-0.029412 -0.021563 0.872111 
-0.027954 -0.021575 0.872620 
-0.026490 -0.021585 0.873005 
-0.025027 -0.021596 0.873457 
-0.023562 -0.021607 0.873881 
-0.022089 -0.021611 0.874041 
-0.020609 -0.021609 0.873960 
-0.019130 -0.021606 0.873863 
-0.017647 -0.021600 0.873596 
-0.016159 -0.021585 0.872988 
-0.014675 -0.021573 0.872512 
-0.013193 -0.021561 0.872029 
-0.011713 -0.021550 0.871591 
-0.010237 -0.021546 0.871428 
-0.008765 -0.021548 0.871526 
-0.007294 -0.021555 0.871799 
-0.005822 -0.021560 0.871990 
-0.004350 -0.021570 0.872415 
-0.002876 -0.021579 0.872765 
-0.001401 -0.021588 0.873117 
0.000075 -0.021603 0.873717 
0.001554 -0.021622 0.874500 
0.003034 -0.021638 0.875154 
0.004517 -0.021654 0.875802 
0.006001 -0.021667 0.876328 
0.007483 -0.021667 0.876344 
0.008964 -0.021667 0.876323 
0.010445 -0.021665 0.876229 
0.011926 -0.021665 0.876234 
0.013411 -0.021672 0.876508 
0.014898 -0.021679 0.876800 
0.016384 -0.021684 0.876999 
0.017870 -0.021688 0.877157 
0.019354 -0.021689 0.877223 
0.020837 -0.021689 0.877214 
0.022324 -0.021693 0.877383 
0.023815 -0.021700 0.877652 
0.025304 -0.021705 0.877847 
0.026804 -0.021717 0.878365 
0.028303 -0.021728 0.878807 
0.029802 -0.021738 0.879193 
0.031299 -0.021745 0.879481 
0.032798 -0.021753 0.879822 
0.034286 -0.021754 0.879827 
0.035780 -0.021758 0.879995 
0.037279 -0.021764 0.880261 
0.038773 -0.021768 0.880389 
0.040269 -0.021772 0.880571 
0.041757 -0.021772 0.880561 
0.043241 -0.021769 0.880448 
0.044724 -0.021766 0.880345 
0.046221 -0.021770 0.880509 
0.047720 -0.021776 0.880715 
0.049230 -0.021785 0.881083 
0.050735 -0.021791 0.881359 
0.052245 -0.021800 0.881700 
0.053752 -0.021807 0.881967 
0.055255 -0.021811 0.882156 
0.056764 -0.021818 0.882426 
0.058289 -0.021831 0.882939 
0.059797 -0.021836 0.883155 
0.061315 -0.021845 0.883519 
0.062833 -0.021854 0.883868 
0.064359 -0.021864 0.884295 
0.065888 -0.021875 0.884753 
0.067432 -0.021891 0.885396 
0.068967 -0.021903 0.885881 
0.070507 -0.021917 0.886416 
0.072027 -0.021923 0.886676 
0.073548 -0.021930 0.886944 
0.075079 -0.021939 0.887315 
0.076628 -0.021953 0.887879 
0.078187 -0.021969 0.888538 
0.079770 -0.021992 0.889448 
0.081342 -0.022010 0.890197 
0.082931 -0.022032 0.891098 
0.084548 -0.022061 0.892259 
0.086155 -0.022086 0.893284 
0.087758 -0.022110 0.894227 
0.089405 -0.022143 0.895586 
0.091043 -0.022173 0.896805 
0.092628 -0.022190 0.897476 
0.094224 -0.022209 0.898230 
0.095835 -0.022230 0.899097 
0.097414 -0.022243 0.899635 
0.099029 -0.022265 0.900498 
0.100699 -0.022297 0.901820 
0.102374 -0.022330 0.903146 
0.104054 -0.022363 0.904476 
0.105778 -0.022404 0.906144 
0.107524 -0.022449 0.907956 
0.109323 -0.022503 0.910151 
0.111272 -0.022587 0.913519 
0.113303 -0.022684 0.917460 
0.115445 -0.022801 0.922183 
0.117567 -0.022911 0.926618 
0.119608 -0.023002 0.930314 
0.121564 -0.023075 0.933253 
0.123399 -0.023123 0.935199 
0.126108 -0.023331 0.943641 
-0.142863 -0.020283 0.880749 
-0.141073 -0.020240 0.878871 
-0.139225 -0.020188 0.876592 
-0.137581 -0.020164 0.875561 
-0.135991 -0.020148 0.874851 
-0.134427 -0.020135 0.874297 
-0.132789 -0.020111 0.873249 
-0.131189 -0.020092 0.872427 
-0.129530 -0.020063 0.871188 
-0.127910 -0.020040 0.870183 
-0.126520 -0.020053 0.870746 
-0.125213 -0.020079 0.871890 
-0.123948 -0.020113 0.873368 
-0.122733 -0.020156 0.875233 
-0.106893 -0.020524 0.891195 
-0.105491 -0.020545 0.892086 
-0.104129 -0.020573 0.893340 
-0.102729 -0.020595 0.894298 
-0.100997 -0.020551 0.892349 
-0.099276 -0.020507 0.890450 
-0.097525 -0.020455 0.888210 
-0.095802 -0.020408 0.886165 
-0.094051 -0.020353 0.883781 
-0.092329 -0.020303 0.881608 
-0.090654 -0.020262 0.879818 
-0.089039 -0.020233 0.878556 
-0.087438 -0.020206 0.877398 
-0.085859 -0.020184 0.876418 
-0.084282 -0.020161 0.875432 
-0.082710 -0.020138 0.874451 
-0.081140 -0.020116 0.873472 
-0.079598 -0.020099 0.872752 
-0.078076 -0.020087 0.872230 
-0.076551 -0.020074 0.871657 
-0.075055 -0.020068 0.871391 
-0.073544 -0.020058 0.870946 
-0.072041 -0.020049 0.870581 
-0.070535 -0.020039 0.870150 
-0.069049 -0.020035 0.869963 
-0.067559 -0.020029 0.869713 
-0.066081 -0.020027 0.869621 
-0.064604 -0.020025 0.869530 
-0.063134 -0.020025 0.869528 
-0.061689 -0.020033 0.869870 
-0.060262 -0.020047 0.870502 
-0.058852 -0.020069 0.871419 
-0.057434 -0.020088 0.872262 
-0.056016 -0.020108 0.873142 
-0.054578 -0.020122 0.873751 
-0.053113 -0.020127 0.873946 
-0.051645 -0.020131 0.874112 
-0.050161 -0.020128 0.874003 
-0.048672 -0.020123 0.873793 
-0.047174 -0.020114 0.873408 
-0.045687 -0.020110 0.873199 
-0.044193 -0.020102 0.872855 
-0.042713 -0.020100 0.872770 
-0.041234 -0.020098 0.872691 
-0.039759 -0.020098 0.872691 
-0.038283 -0.020098 0.872691 
-0.036815 -0.020102 0.872852 
-0.035346 -0.020106 0.873029 
-0.033884 -0.020114 0.873379 
-0.032415 -0.020118 0.873573 
-0.030950 -0.020126 0.873917 
-0.029487 -0.020136 0.874332 
-0.028023 -0.020146 0.874786 
-0.026554 -0.020153 0.875087 
-0.025087 -0.020163 0.875525 
-0.023616 -0.020171 0.875858 
-0.022135 -0.020171 0.875867 
-0.020654 -0.020171 0.875872 
-0.019172 -0.020169 0.875782 
-0.017688 -0.020165 0.875602 
-0.016196 -0.020151 0.874999 
-0.014708 -0.020138 0.874448 
-0.013221 -0.020125 0.873883 
-0.011738 -0.020115 0.873434 
-0.010258 -0.020109 0.873183 
-0.008783 -0.020111 0.873276 
-0.007308 -0.020116 0.873461 
-0.005832 -0.020118 0.873566 
-0.004357 -0.020128 0.873992 
-0.002881 -0.020136 0.874341 
-0.001403 -0.020144 0.874714 
0.000075 -0.020160 0.875404 
0.001557 -0.020180 0.876276 
0.003041 -0.020198 0.877024 
0.004528 -0.020217 0.877852 
0.006017 -0.020233 0.878572 
0.007504 -0.020238 0.878770 
0.008991 -0.020241 0.878927 
0.010477 -0.020241 0.878915 
0.011962 -0.020241 0.878918 
0.013451 -0.020246 0.879103 
0.014940 -0.020250 0.879290 
0.016427 -0.020250 0.879309 
0.017914 -0.020250 0.879303 
0.019398 -0.020248 0.879205 
0.020882 -0.020246 0.879113 
0.022371 -0.020248 0.879198 
0.023864 -0.020254 0.879457 
0.025356 -0.020258 0.879640 
0.026856 -0.020268 0.880069 
0.028355 -0.020276 0.880426 
0.029854 -0.020283 0.880720 
0.031350 -0.020287 0.880912 
0.032848 -0.020293 0.881162 
0.034337 -0.020293 0.881155 
0.035834 -0.020297 0.881326 
0.037332 -0.020301 0.881517 
0.038827 -0.020304 0.881631 
0.040326 -0.020308 0.881812 
0.041817 -0.020308 0.881814 
0.043303 -0.020306 0.881718 
0.044797 -0.020307 0.881791 
0.046297 -0.020311 0.881966 
0.047799 -0.020316 0.882164 
0.049310 -0.020324 0.882526 
0.050828 -0.020335 0.882973 
0.052342 -0.020343 0.883336 
0.053853 -0.020350 0.883620 
0.055358 -0.020354 0.883804 
0.056874 -0.020361 0.884135 
0.058392 -0.020369 0.884486 
0.059907 -0.020376 0.884785 
0.061435 -0.020387 0.885249 
0.062962 -0.020397 0.885675 
0.064490 -0.020407 0.886105 
0.066022 -0.020417 0.886560 
0.067566 -0.020431 0.887144 
0.069104 -0.020442 0.887638 
0.070647 -0.020455 0.888180 
0.072171 -0.020461 0.888448 
0.073701 -0.020469 0.888790 
0.075235 -0.020477 0.889160 
0.076786 -0.020490 0.889720 
0.078349 -0.020505 0.890381 
0.079935 -0.020526 0.891279 
0.081509 -0.020543 0.892025 
0.083101 -0.020564 0.892927 
0.084715 -0.020589 0.894022 
0.086326 -0.020613 0.895058 
0.087945 -0.020638 0.896132 
0.089597 -0.020669 0.897512 
0.091222 -0.020694 0.898569 
0.092813 -0.020710 0.899263 
0.094392 -0.020723 0.899827 
0.095985 -0.020738 0.900499 
0.097567 -0.020751 0.901048 
0.099204 -0.020775 0.902085 
0.100888 -0.020808 0.903510 
0.102619 -0.020849 0.905307 
0.104348 -0.020889 0.907030 
0.106112 -0.020934 0.909011 
0.107898 -0.020983 0.911116 
0.109739 -0.021040 0.913618 
0.111712 -0.021121 0.917134 
0.113764 -0.021215 0.921194 
0.115809 -0.021305 0.925092 
0.117841 -0.021390 0.928780 
0.119774 -0.021455 0.931603 
0.121613 -0.021501 0.933628 
0.124315 -0.021697 0.942144 
-0.145895 -0.018991 0.890160 
-0.143836 -0.018918 0.886747 
-0.141968 -0.018869 0.884444 
-0.140040 -0.018811 0.881722 
-0.138325 -0.018781 0.880295 
-0.136709 -0.018763 0.879473 
-0.135100 -0.018746 0.878676 
-0.133457 -0.018724 0.877641 
-0.131873 -0.018710 0.876973 
-0.130289 -0.018695 0.876288 
-0.128748 -0.018687 0.875889 
-0.127507 -0.018722 0.877538 
-0.126340 -0.018769 0.879739 
-0.125217 -0.018824 0.882305 
-0.124087 -0.018879 0.884883 
-0.121744 -0.020238 0.878772 
-0.107740 -0.019164 0.898258 
-0.106058 -0.019134 0.896877 
-0.104459 -0.019119 0.896168 
-0.102858 -0.019103 0.895416 
-0.101111 -0.019060 0.893362 
-0.099379 -0.019017 0.891367 
-0.097644 -0.018973 0.889288 
-0.095919 -0.018929 0.887239 
-0.094156 -0.018876 0.884766 
-0.092421 -0.018828 0.882488 
-0.090742 -0.018789 0.880669 
-0.089109 -0.018758 0.879250 
-0.087517 -0.018736 0.878193 
-0.085955 -0.018719 0.877398 
-0.084394 -0.018702 0.876594 
-0.082828 -0.018683 0.875699 
-0.081272 -0.018665 0.874883 
-0.079734 -0.018652 0.874241 
-0.078210 -0.018641 0.873722 
-0.076688 -0.018630 0.873219 
-0.075188 -0.018624 0.872945 
-0.073675 -0.018614 0.872500 
-0.072170 -0.018607 0.872139 
-0.070667 -0.018599 0.871785 
-0.069180 -0.018596 0.871617 
-0.067693 -0.018592 0.871439 
-0.066213 -0.018590 0.871351 
-0.064746 -0.018592 0.871431 
-0.063292 -0.018597 0.871701 
-0.061864 -0.018611 0.872343 
-0.060453 -0.018631 0.873262 
-0.059057 -0.018656 0.874446 
-0.057639 -0.018676 0.875363 
-0.056215 -0.018694 0.876236 
-0.054771 -0.018707 0.876834 
-0.053300 -0.018711 0.877017 
-0.051822 -0.018713 0.877109 
-0.050324 -0.018707 0.876836 
-0.048820 -0.018699 0.876454 
-0.047308 -0.018687 0.875895 
-0.045808 -0.018679 0.875516 
-0.044310 -0.018671 0.875167 
-0.042826 -0.018669 0.875078 
-0.041343 -0.018668 0.874996 
-0.039864 -0.018668 0.874993 
-0.038384 -0.018667 0.874987 
-0.036905 -0.018667 0.874985 
-0.035429 -0.018669 0.875069 
-0.033963 -0.018676 0.875405 
-0.032487 -0.018679 0.875514 
-0.031019 -0.018686 0.875853 
-0.029553 -0.018695 0.876280 
-0.028085 -0.018705 0.876726 
-0.026610 -0.018709 0.876949 
-0.025140 -0.018719 0.877382 
-0.023663 -0.018724 0.877636 
-0.022180 -0.018724 0.877647 
-0.020697 -0.018725 0.877661 
-0.019211 -0.018723 0.877569 
-0.017725 -0.018721 0.877473 
-0.016233 -0.018710 0.876963 
-0.014742 -0.018700 0.876507 
-0.013252 -0.018688 0.875953 
-0.011765 -0.018678 0.875496 
-0.010281 -0.018671 0.875151 
-0.008802 -0.018671 0.875149 
-0.007323 -0.018673 0.875240 
-0.005844 -0.018675 0.875333 
-0.004366 -0.018684 0.875753 
-0.002887 -0.018692 0.876121 
-0.001406 -0.018700 0.876510 
0.000076 -0.018715 0.877215 
0.001560 -0.018734 0.878099 
0.003047 -0.018750 0.878858 
0.004538 -0.018770 0.879780 
0.006030 -0.018787 0.880589 
0.007522 -0.018795 0.880959 
0.009013 -0.018799 0.881134 
0.010503 -0.018798 0.881122 
0.011991 -0.018796 0.881033 
0.013482 -0.018798 0.881110 
0.014972 -0.018798 0.881123 
0.016461 -0.018798 0.881124 
0.017950 -0.018798 0.881105 
0.019438 -0.018796 0.880999 
0.020925 -0.018794 0.880910 
0.022414 -0.018794 0.880919 
0.023908 -0.018798 0.881099 
0.025406 -0.018803 0.881362 
0.026911 -0.018814 0.881878 
0.028411 -0.018821 0.882165 
0.029912 -0.018827 0.882447 
0.031410 -0.018830 0.882606 
0.032901 -0.018830 0.882592 
0.034387 -0.018826 0.882416 
0.035885 -0.018830 0.882582 
0.037385 -0.018834 0.882770 
0.038883 -0.018836 0.882890 
0.040387 -0.018842 0.883145 
0.041884 -0.018843 0.883220 
0.043369 -0.018840 0.883067 
0.044866 -0.018842 0.883151 
0.046373 -0.018847 0.883414 
0.047882 -0.018853 0.883699 
0.049397 -0.018861 0.884072 
0.050927 -0.018874 0.884682 
0.052444 -0.018882 0.885056 
0.053954 -0.018887 0.885271 
0.055462 -0.018891 0.885453 
0.056980 -0.018898 0.885782 
0.058500 -0.018905 0.886134 
0.060025 -0.018914 0.886523 
0.061557 -0.018924 0.887004 
0.063082 -0.018932 0.887370 
0.064614 -0.018941 0.887802 
0.066148 -0.018951 0.888253 
0.067693 -0.018963 0.888823 
0.069241 -0.018975 0.889405 
0.070788 -0.018987 0.889952 
0.072321 -0.018994 0.890301 
0.073855 -0.019002 0.890646 
0.075392 -0.019009 0.891011 
0.076946 -0.019021 0.891565 
0.078518 -0.019037 0.892303 
0.080100 -0.019054 0.893124 
0.081678 -0.019070 0.893873 
0.083282 -0.019092 0.894873 
0.084902 -0.019116 0.895995 
0.086519 -0.019139 0.897065 
0.088142 -0.019161 0.898141 
0.089788 -0.019189 0.899427 
0.091387 -0.019205 0.900198 
0.092984 -0.019221 0.900924 
0.094563 -0.019232 0.901453 
0.096161 -0.019247 0.902152 
0.097758 -0.019261 0.902816 
0.099437 -0.019291 0.904209 
0.101150 -0.019326 0.905852 
0.102931 -0.019373 0.908061 
0.104713 -0.019419 0.910202 
0.106531 -0.019470 0.912599 
0.108348 -0.019519 0.914911 
0.110214 -0.019576 0.917569 
0.112194 -0.019651 0.921090 
0.114190 -0.019727 0.924642 
0.116124 -0.019790 0.927607 
0.118039 -0.019848 0.930341 
0.120740 -0.020036 0.939116 
-0.148478 -0.017610 0.896675 
-0.146503 -0.017555 0.893873 
-0.144561 -0.017503 0.891217 
-0.142700 -0.017460 0.889005 
-0.140805 -0.017411 0.886536 
-0.139087 -0.017384 0.885141 
-0.137472 -0.017369 0.884378 
-0.135866 -0.017355 0.883659 
-0.134242 -0.017338 0.882804 
-0.132678 -0.017328 0.882325 
-0.131143 -0.017323 0.882033 
-0.129691 -0.017328 0.882303 
-0.128555 -0.017376 0.884750 
-0.127497 -0.017436 0.887793 
-0.126484 -0.017503 0.891230 
-0.125432 -0.017567 0.894475 
-0.123156 -0.018966 0.888963 
-0.124524 -0.017653 0.898841 
-0.122015 -0.019022 0.891607 
-0.120924 -0.019088 0.894688 
-0.123394 -0.017709 0.901682 
-0.122276 -0.017768 0.904687 
-0.119752 -0.019142 0.897240 
-0.117279 -0.019234 0.901547 
-0.119846 -0.017861 0.909458 
-0.118566 -0.017900 0.911439 
-0.116181 -0.019305 0.904867 
-0.117248 -0.017934 0.913174 
-0.114774 -0.019326 0.905833 
-0.115820 -0.017952 0.914093 
-0.113160 -0.019312 0.905178 
-0.114201 -0.017941 0.913501 
-0.111475 -0.019285 0.903916 
-0.112513 -0.017918 0.912339 
-0.108579 -0.017779 0.905257 
-0.106661 -0.017714 0.901974 
-0.104851 -0.017666 0.899531 
-0.103070 -0.017622 0.897263 
-0.101300 -0.017578 0.895030 
-0.099535 -0.017533 0.892767 
-0.097784 -0.017490 0.890571 
-0.096039 -0.017447 0.888350 
-0.094264 -0.017396 0.885783 
-0.092524 -0.017351 0.883471 
-0.090841 -0.017315 0.881635 
-0.089206 -0.017287 0.880205 
-0.087623 -0.017268 0.879250 
-0.086076 -0.017256 0.878635 
-0.084523 -0.017242 0.877933 
-0.082971 -0.017228 0.877214 
-0.081420 -0.017214 0.876486 
-0.079888 -0.017203 0.875925 
-0.078360 -0.017192 0.875405 
-0.076835 -0.017182 0.874895 
-0.075325 -0.017175 0.874528 
-0.073807 -0.017166 0.874064 
-0.072306 -0.017161 0.873782 
-0.070803 -0.017154 0.873455 
-0.069319 -0.017152 0.873369 
-0.067842 -0.017152 0.873357 
-0.066371 -0.017154 0.873427 
-0.064907 -0.017157 0.873607 
-0.063469 -0.017168 0.874143 
-0.062056 -0.017185 0.875046 
-0.060646 -0.017205 0.876056 
-0.059240 -0.017227 0.877158 
-0.057811 -0.017243 0.877988 
-0.056372 -0.017257 0.878685 
-0.054913 -0.017265 0.879117 
-0.053433 -0.017267 0.879220 
-0.051947 -0.017267 0.879225 
-0.050446 -0.017262 0.878963 
-0.048940 -0.017255 0.878595 
-0.047425 -0.017245 0.878057 
-0.045921 -0.017237 0.877684 
-0.044424 -0.017232 0.877408 
-0.042936 -0.017230 0.877318 
-0.041449 -0.017228 0.877235 
-0.039966 -0.017228 0.877230 
-0.038482 -0.017228 0.877221 
-0.036996 -0.017226 0.877135 
-0.035513 -0.017226 0.877135 
-0.034043 -0.017233 0.877467 
-0.032561 -0.017234 0.877500 
-0.031090 -0.017241 0.877856 
-0.029620 -0.017249 0.878282 
-0.028150 -0.017258 0.878731 
-0.026668 -0.017260 0.878863 
-0.025192 -0.017267 0.879209 
-0.023708 -0.017269 0.879293 
-0.022220 -0.017267 0.879214 
-0.020733 -0.017267 0.879213 
-0.019245 -0.017266 0.879134 
-0.017759 -0.017266 0.879127 
-0.016268 -0.017260 0.878868 
-0.014779 -0.017257 0.878670 
-0.013286 -0.017248 0.878215 
-0.011797 -0.017240 0.877842 
-0.010308 -0.017233 0.877482 
-0.008823 -0.017230 0.877301 
-0.007339 -0.017228 0.877214 
-0.005856 -0.017228 0.877220 
-0.004375 -0.017235 0.877559 
-0.002893 -0.017244 0.878009 
-0.001410 -0.017253 0.878488 
0.000076 -0.017269 0.879290 
0.001564 -0.017288 0.880260 
0.003055 -0.017304 0.881093 
0.004549 -0.017321 0.881927 
0.006045 -0.017336 0.882738 
0.007541 -0.017344 0.883110 
0.009035 -0.017347 0.883288 
0.010529 -0.017347 0.883278 
0.012020 -0.017345 0.883177 
0.013511 -0.017342 0.883001 
0.015001 -0.017338 0.882828 
0.016490 -0.017335 0.882650 
0.017978 -0.017331 0.882463 
0.019467 -0.017329 0.882349 
0.020963 -0.017332 0.882505 
0.022459 -0.017336 0.882693 
0.023960 -0.017341 0.882983 
0.025467 -0.017352 0.883505 
0.026980 -0.017364 0.884120 
0.028481 -0.017368 0.884340 
0.029983 -0.017372 0.884529 
0.031483 -0.017374 0.884673 
0.032968 -0.017369 0.884392 
0.034450 -0.017362 0.884041 
0.035944 -0.017362 0.884032 
0.037439 -0.017362 0.884046 
0.038931 -0.017361 0.883989 
0.040437 -0.017366 0.884242 
0.041940 -0.017369 0.884411 
0.043436 -0.017369 0.884419 
0.044940 -0.017373 0.884595 
0.046453 -0.017380 0.884944 
0.047966 -0.017386 0.885240 
0.049479 -0.017391 0.885538 
0.051007 -0.017402 0.886075 
0.052531 -0.017411 0.886527 
0.054048 -0.017417 0.886821 
0.055564 -0.017422 0.887094 
0.057086 -0.017429 0.887429 
0.058609 -0.017436 0.887780 
0.060137 -0.017443 0.888177 
0.061672 -0.017453 0.888660 
0.063202 -0.017460 0.889049 
0.064743 -0.017471 0.889569 
