1653
0.157398 -0.203246 0.823562 
0.158745 -0.203189 0.823330 
0.160129 -0.203178 0.823286 
0.161510 -0.203165 0.823232 
0.163002 -0.203290 0.823739 
0.164475 -0.203390 0.824144 
0.166002 -0.203554 0.824810 
0.167532 -0.203718 0.825474 
0.169055 -0.203873 0.826100 
0.170453 -0.203874 0.826104 
0.171872 -0.203901 0.826216 
0.173284 -0.203919 0.826285 
0.174657 -0.203891 0.826176 
0.176073 -0.203913 0.826264 
0.177561 -0.204019 0.826691 
0.178976 -0.204038 0.826771 
0.180411 -0.204080 0.826940 
0.181943 -0.204231 0.827550 
0.090618 -0.211725 0.863850 
0.092034 -0.211622 0.863432 
0.093429 -0.211477 0.862840 
0.094774 -0.211223 0.861802 
0.096094 -0.210922 0.860576 
0.097391 -0.210580 0.859180 
0.098667 -0.210205 0.857649 
0.099911 -0.209773 0.855889 
0.101182 -0.209408 0.854397 
0.102421 -0.208990 0.852691 
0.103677 -0.208616 0.851165 
0.104931 -0.208250 0.849673 
0.106211 -0.207942 0.848418 
0.107476 -0.207616 0.847086 
0.108785 -0.207382 0.846131 
0.110076 -0.207119 0.845059 
0.111355 -0.206840 0.843922 
0.112647 -0.206594 0.842919 
0.113955 -0.206383 0.842054 
0.115257 -0.206164 0.841162 
0.116549 -0.205936 0.840231 
0.117900 -0.205813 0.839731 
0.119224 -0.205649 0.839061 
0.120548 -0.205487 0.838401 
0.121848 -0.205290 0.837597 
0.123155 -0.205109 0.836859 
0.124426 -0.204872 0.835892 
0.125725 -0.204686 0.835133 
0.127015 -0.204489 0.834330 
0.128339 -0.204353 0.833772 
0.129664 -0.204219 0.833225 
0.131019 -0.204136 0.832889 
0.132363 -0.204037 0.832484 
0.133695 -0.203922 0.832014 
0.135024 -0.203805 0.831536 
0.136349 -0.203684 0.831042 
0.137673 -0.203564 0.830555 
0.138985 -0.203429 0.830004 
0.140282 -0.203276 0.829379 
0.141573 -0.203117 0.828730 
0.142873 -0.202974 0.828145 
0.144159 -0.202813 0.827491 
0.145473 -0.202695 0.827008 
0.146801 -0.202597 0.826610 
0.148168 -0.202556 0.826441 
0.149550 -0.202536 0.826360 
0.150965 -0.202560 0.826456 
0.152381 -0.202585 0.826558 
0.153794 -0.202606 0.826644 
0.155176 -0.202585 0.826559 
0.156511 -0.202505 0.826232 
0.157888 -0.202479 0.826126 
0.159243 -0.202426 0.825910 
0.160629 -0.202413 0.825860 
0.161999 -0.202380 0.825724 
0.163493 -0.202502 0.826223 
0.164954 -0.202580 0.826541 
0.166471 -0.202726 0.827137 
0.167987 -0.202868 0.827716 
0.169481 -0.202982 0.828181 
0.170850 -0.202945 0.828028 
0.172243 -0.202938 0.827998 
0.173657 -0.202954 0.828064 
0.175002 -0.202890 0.827803 
0.176450 -0.202946 0.828032 
0.177941 -0.203050 0.828456 
0.089156 -0.210256 0.863830 
0.090595 -0.210207 0.863631 
0.091997 -0.210075 0.863088 
0.093376 -0.209895 0.862350 
0.094707 -0.209615 0.861198 
0.096026 -0.209315 0.859967 
0.097322 -0.208977 0.858578 
0.098608 -0.208626 0.857137 
0.099861 -0.208218 0.855459 
0.101125 -0.207844 0.853921 
0.102373 -0.207447 0.852292 
0.103638 -0.207095 0.850846 
0.104903 -0.206753 0.849440 
0.106202 -0.206488 0.848351 
0.107507 -0.206240 0.847331 
0.108832 -0.206035 0.846492 
0.110145 -0.205816 0.845589 
0.111438 -0.205563 0.844551 
0.112718 -0.205294 0.843448 
0.114003 -0.205042 0.842410 
0.115301 -0.204817 0.841485 
0.116582 -0.204569 0.840468 
0.117923 -0.204431 0.839900 
0.119259 -0.204287 0.839308 
0.120595 -0.204145 0.838727 
0.121908 -0.203971 0.838013 
0.123219 -0.203796 0.837293 
0.124512 -0.203595 0.836467 
0.125822 -0.203428 0.835778 
0.127113 -0.203233 0.834976 
0.128439 -0.203098 0.834422 
0.129776 -0.202982 0.833947 
0.131134 -0.202901 0.833615 
0.132467 -0.202784 0.833135 
0.133810 -0.202686 0.832732 
0.135140 -0.202569 0.832252 
0.136480 -0.202470 0.831845 
0.137818 -0.202370 0.831434 
0.139158 -0.202274 0.831037 
0.140482 -0.202158 0.830563 
0.141803 -0.202039 0.830073 
0.143118 -0.201915 0.829563 
0.144422 -0.201777 0.828998 
0.145751 -0.201678 0.828589 
0.147096 -0.201600 0.828271 
0.148481 -0.201580 0.828187 
0.149884 -0.201583 0.828201 
0.151317 -0.201628 0.828383 
0.152751 -0.201672 0.828564 
0.154184 -0.201715 0.828741 
0.155588 -0.201718 0.828756 
0.156949 -0.201667 0.828543 
0.158360 -0.201679 0.828596 
0.159731 -0.201643 0.828444 
0.161119 -0.201627 0.828380 
0.162488 -0.201588 0.828219 
0.086244 -0.210278 0.863923 
0.084784 -0.208814 0.863923 
0.086233 -0.208787 0.863813 
0.087718 -0.210311 0.864059 
0.087694 -0.208789 0.863822 
0.089127 -0.208724 0.863553 
0.090550 -0.208638 0.863198 
0.091945 -0.208493 0.862598 
0.093314 -0.208295 0.861779 
0.094639 -0.208005 0.860576 
0.095957 -0.207709 0.859353 
0.097262 -0.207394 0.858048 
0.098549 -0.207049 0.856621 
0.099820 -0.206682 0.855105 
0.101084 -0.206311 0.853570 
0.102341 -0.205938 0.852024 
0.103616 -0.205610 0.850670 
0.104891 -0.205291 0.849349 
0.106202 -0.205050 0.848350 
0.107528 -0.204844 0.847500 
0.108866 -0.204664 0.846756 
0.110193 -0.204471 0.845958 
0.111497 -0.204240 0.845001 
0.112779 -0.203976 0.843908 
0.114053 -0.203702 0.842776 
0.115347 -0.203471 0.841819 
0.116626 -0.203221 0.840784 
0.117967 -0.203083 0.840212 
0.119305 -0.202943 0.839633 
0.120653 -0.202821 0.839131 
0.121979 -0.202668 0.838495 
0.123302 -0.202513 0.837857 
0.124609 -0.202335 0.837118 
0.125933 -0.202188 0.836513 
0.127235 -0.202010 0.835775 
0.128562 -0.201875 0.835217 
0.129888 -0.201743 0.834668 
0.131246 -0.201661 0.834332 
0.132580 -0.201544 0.833846 
0.133925 -0.201448 0.833449 
0.135244 -0.201314 0.832894 
0.136597 -0.201232 0.832557 
0.137938 -0.201135 0.832156 
0.139281 -0.201043 0.831773 
0.140621 -0.200949 0.831383 
0.141981 -0.200885 0.831120 
0.143330 -0.200805 0.830790 
0.144679 -0.200729 0.830473 
0.146054 -0.200689 0.830309 
0.147418 -0.200635 0.830084 
0.148819 -0.200632 0.830074 
0.150237 -0.200651 0.830153 
0.151672 -0.200693 0.830325 
0.153096 -0.200720 0.830438 
0.154546 -0.200780 0.830686 
0.155954 -0.200785 0.830705 
0.157345 -0.200768 0.830635 
0.158777 -0.200802 0.830777 
0.160181 -0.200802 0.830775 
0.083339 -0.207388 0.864085 
0.084795 -0.207376 0.864036 
0.086235 -0.207327 0.863831 
0.087662 -0.207247 0.863499 
0.089079 -0.207148 0.863084 
0.090482 -0.207021 0.862557 
0.091866 -0.206854 0.861859 
0.093222 -0.206629 0.860923 
0.094562 -0.206377 0.859874 
0.095888 -0.206104 0.858735 
0.097204 -0.205815 0.857533 
0.098498 -0.205492 0.856185 
0.099788 -0.205168 0.854837 
0.101061 -0.204818 0.853377 
0.102328 -0.204467 0.851916 
0.103612 -0.204159 0.850632 
0.104898 -0.203864 0.849404 
0.106220 -0.203646 0.848495 
0.107559 -0.203465 0.847741 
0.108915 -0.203322 0.847143 
0.110254 -0.203150 0.846427 
0.111568 -0.202937 0.845541 
0.112854 -0.202680 0.844469 
0.114128 -0.202408 0.843335 
0.115403 -0.202144 0.842234 
0.116682 -0.201891 0.841184 
0.118013 -0.201737 0.840538 
0.119363 -0.201617 0.840041 
0.120722 -0.201515 0.839613 
0.122061 -0.201381 0.839058 
0.123397 -0.201247 0.838498 
0.124706 -0.201073 0.837773 
0.126032 -0.200929 0.837171 
0.127348 -0.200772 0.836518 
0.128687 -0.200656 0.836034 
0.130014 -0.200522 0.835479 
0.131384 -0.200458 0.835210 
0.132719 -0.200341 0.834722 
0.134053 -0.200226 0.834245 
0.135373 -0.200092 0.833687 
0.136727 -0.200011 0.833348 
0.138069 -0.199914 0.832945 
0.139425 -0.199840 0.832635 
0.140781 -0.199767 0.832331 
0.142173 -0.199745 0.832242 
0.143555 -0.199710 0.832094 
0.144937 -0.199676 0.831955 
0.146345 -0.199678 0.831963 
0.147739 -0.199662 0.831892 
0.149157 -0.199677 0.831958 
0.150577 -0.199695 0.832033 
0.152012 -0.199733 0.832189 
0.153409 -0.199720 0.832135 
0.154842 -0.199753 0.832275 
0.156234 -0.199734 0.832196 
0.157626 -0.199716 0.832118 
0.083398 -0.206071 0.864704 
0.084841 -0.206024 0.864508 
0.086253 -0.205905 0.864010 
0.087653 -0.205763 0.863411 
0.089040 -0.205595 0.862707 
0.090416 -0.205408 0.861922 
0.091782 -0.205205 0.861071 
0.093137 -0.204982 0.860136 
0.094495 -0.204775 0.859268 
0.095831 -0.204527 0.858225 
0.097165 -0.204281 0.857195 
0.098470 -0.203981 0.855934 
0.099760 -0.203661 0.854591 
0.101032 -0.203313 0.853132 
0.102308 -0.202984 0.851752 
0.103593 -0.202680 0.850477 
0.104899 -0.202426 0.849409 
0.106231 -0.202229 0.848584 
0.107580 -0.202068 0.847907 
0.108937 -0.201926 0.847311 
0.110284 -0.201769 0.846654 
0.111607 -0.201575 0.845837 
0.112915 -0.201356 0.844920 
0.114194 -0.201094 0.843822 
0.115472 -0.200836 0.842737 
0.116750 -0.200583 0.841675 
0.118070 -0.200409 0.840946 
0.119411 -0.200274 0.840379 
0.120773 -0.200176 0.839968 
0.122133 -0.200077 0.839555 
0.123492 -0.199979 0.839144 
0.124815 -0.199827 0.838504 
0.126156 -0.199706 0.837995 
0.127484 -0.199567 0.837414 
0.128826 -0.199452 0.836931 
0.130145 -0.199305 0.836316 
0.131527 -0.199258 0.836116 
0.132874 -0.199158 0.835697 
0.134222 -0.199062 0.835294 
0.135569 -0.198966 0.834891 
0.136947 -0.198919 0.834692 
0.138303 -0.198839 0.834356 
0.139661 -0.198765 0.834046 
0.141044 -0.198726 0.833884 
0.142441 -0.198708 0.833810 
0.143840 -0.198694 0.833748 
0.145242 -0.198683 0.833704 
0.146680 -0.198722 0.833866 
0.148065 -0.198689 0.833730 
0.149487 -0.198705 0.833796 
0.150894 -0.198702 0.833786 
0.152306 -0.198705 0.833795 
0.153674 -0.198652 0.833573 
0.155077 -0.198644 0.833540 
0.156463 -0.198614 0.833414 
0.082038 -0.204859 0.865778 
0.083465 -0.204768 0.865393 
0.084875 -0.204641 0.864856 
0.086263 -0.204465 0.864113 
0.087636 -0.204260 0.863245 
0.089002 -0.204047 0.862345 
0.090366 -0.203835 0.861449 
0.091715 -0.203597 0.860445 
0.093071 -0.203381 0.859529 
0.094447 -0.203215 0.858831 
0.095785 -0.202974 0.857812 
0.097129 -0.202752 0.856874 
0.098460 -0.202510 0.855850 
0.099768 -0.202230 0.854666 
0.101043 -0.201890 0.853228 
0.102330 -0.201582 0.851929 
0.103615 -0.201281 0.850656 
0.104920 -0.201026 0.849579 
0.106253 -0.200832 0.848759 
0.107604 -0.200674 0.848092 
0.108960 -0.200533 0.847494 
0.110296 -0.200357 0.846749 
0.111619 -0.200162 0.845928 
0.112937 -0.199964 0.845090 
0.114242 -0.199747 0.844175 
0.115533 -0.199511 0.843176 
0.116842 -0.199313 0.842340 
0.118171 -0.199153 0.841662 
0.119502 -0.199001 0.841018 
0.120866 -0.198905 0.840613 
0.122240 -0.198828 0.840289 
0.123601 -0.198734 0.839890 
0.124926 -0.198582 0.839248 
0.126289 -0.198495 0.838882 
0.127632 -0.198377 0.838383 
0.128978 -0.198268 0.837923 
0.130310 -0.198140 0.837380 
0.131694 -0.198092 0.837178 
0.133056 -0.198013 0.836843 
0.134409 -0.197922 0.836459 
0.135772 -0.197847 0.836145 
0.137155 -0.197803 0.835956 
0.138525 -0.197742 0.835699 
0.139885 -0.197667 0.835384 
0.141283 -0.197647 0.835299 
0.142694 -0.197646 0.835293 
0.144107 -0.197647 0.835297 
0.145521 -0.197649 0.835305 
0.146960 -0.197686 0.835461 
0.148334 -0.197634 0.835244 
0.149746 -0.197634 0.835242 
0.151141 -0.197612 0.835151 
0.152514 -0.197561 0.834935 
0.153839 -0.197451 0.834468 
0.155212 -0.197403 0.834267 
0.082154 -0.203679 0.867003 
0.083534 -0.203469 0.866107 
0.084918 -0.203278 0.865296 
0.086282 -0.203046 0.864306 
0.087620 -0.202761 0.863094 
0.088967 -0.202506 0.862008 
0.090321 -0.202273 0.861019 
0.091661 -0.202019 0.859934 
0.093024 -0.201823 0.859100 
0.094417 -0.201696 0.858559 
0.095766 -0.201480 0.857641 
0.097120 -0.201280 0.856790 
0.098469 -0.201078 0.855930 
0.099788 -0.200821 0.854835 
0.101074 -0.200505 0.853492 
0.102362 -0.200202 0.852201 
0.103647 -0.199901 0.850919 
0.104950 -0.199644 0.849827 
0.106284 -0.199451 0.849006 
0.107627 -0.199279 0.848273 
0.108994 -0.199157 0.847754 
0.110320 -0.198964 0.846931 
0.111642 -0.198769 0.846100 
0.112971 -0.198590 0.845338 
0.114299 -0.198415 0.844594 
0.115594 -0.198188 0.843628 
0.116925 -0.198026 0.842938 
0.118263 -0.197881 0.842320 
0.119584 -0.197711 0.841597 
0.120949 -0.197616 0.841194 
0.122325 -0.197542 0.840877 
0.123699 -0.197466 0.840554 
0.125026 -0.197318 0.839924 
0.126403 -0.197250 0.839638 
0.127758 -0.197151 0.839216 
0.129129 -0.197077 0.838900 
0.130475 -0.196969 0.838440 
0.131875 -0.196942 0.838326 
0.133274 -0.196916 0.838213 
0.134645 -0.196849 0.837928 
0.136027 -0.196799 0.837717 
0.137428 -0.196777 0.837623 
0.138815 -0.196735 0.837444 
0.140166 -0.196645 0.837058 
0.141567 -0.196625 0.836976 
0.142978 -0.196620 0.836956 
0.144381 -0.196603 0.836881 
0.145792 -0.196599 0.836863 
0.147232 -0.196632 0.837004 
0.148594 -0.196562 0.836705 
0.150004 -0.196557 0.836685 
0.080864 -0.202650 0.868890 
0.082237 -0.202412 0.867871 
0.083590 -0.202137 0.866693 
0.084956 -0.201901 0.865680 
0.086306 -0.201636 0.864545 
0.087628 -0.201316 0.863172 
0.088959 -0.201026 0.861929 
0.090304 -0.200777 0.860861 
0.091635 -0.200503 0.859686 
0.092997 -0.200307 0.858844 
0.094389 -0.200181 0.858307 
0.095748 -0.199987 0.857474 
0.097110 -0.199809 0.856709 
0.098479 -0.199646 0.856013 
0.099809 -0.199413 0.855012 
0.101107 -0.199122 0.853767 
0.102396 -0.198823 0.852481 
0.103678 -0.198519 0.851178 
0.104980 -0.198259 0.850064 
0.106314 -0.198067 0.849242 
0.107649 -0.197882 0.848448 
0.109027 -0.197780 0.848012 
0.110362 -0.197603 0.847251 
0.111684 -0.197408 0.846416 
0.113023 -0.197248 0.845730 
0.114374 -0.197113 0.845149 
0.115684 -0.196910 0.844279 
0.117029 -0.196772 0.843687 
0.118380 -0.196647 0.843152 
0.119702 -0.196477 0.842423 
0.121067 -0.196381 0.842013 
0.122432 -0.196287 0.841610 
0.123796 -0.196195 0.841213 
0.125123 -0.196045 0.840572 
0.126513 -0.195997 0.840367 
0.127883 -0.195920 0.840035 
0.129270 -0.195869 0.839818 
0.130642 -0.195797 0.839510 
0.132065 -0.195803 0.839536 
0.133494 -0.195817 0.839594 
0.134883 -0.195773 0.839407 
0.136307 -0.195780 0.839436 
0.137734 -0.195792 0.839488 
0.139136 -0.195768 0.839385 
0.140492 -0.195679 0.839004 
0.141909 -0.195677 0.838995 
0.143300 -0.195641 0.838840 
0.144677 -0.195586 0.838602 
0.146065 -0.195546 0.838431 
0.147479 -0.195541 0.838411 
0.079574 -0.201628 0.870841 
0.080932 -0.201345 0.869616 
0.082296 -0.201087 0.868502 
0.083631 -0.200767 0.867120 
0.084980 -0.200490 0.865925 
0.086322 -0.200207 0.864701 
0.087652 -0.199907 0.863404 
0.088977 -0.199604 0.862099 
0.090315 -0.199340 0.860958 
0.091635 -0.199046 0.859687 
0.092986 -0.198829 0.858749 
0.094370 -0.198686 0.858132 
0.095729 -0.198496 0.857311 
0.097102 -0.198339 0.856633 
0.098488 -0.198214 0.856094 
0.099829 -0.198003 0.855182 
0.101137 -0.197735 0.854025 
0.102436 -0.197456 0.852819 
0.103728 -0.197170 0.851585 
0.105020 -0.196893 0.850387 
0.106353 -0.196701 0.849559 
0.107689 -0.196517 0.848764 
0.109059 -0.196400 0.848259 
0.110394 -0.196224 0.847500 
0.111726 -0.196047 0.846736 
0.113076 -0.195907 0.846128 
0.114440 -0.195793 0.845637 
0.115773 -0.195630 0.844935 
0.117132 -0.195514 0.844432 
0.118497 -0.195411 0.843986 
0.119831 -0.195259 0.843332 
0.121198 -0.195165 0.842925 
0.122573 -0.195085 0.842581 
0.123937 -0.194990 0.842169 
0.125274 -0.194855 0.841588 
0.126667 -0.194810 0.841392 
0.128043 -0.194738 0.841083 
0.129432 -0.194690 0.840874 
0.130819 -0.194638 0.840648 
0.132258 -0.194664 0.840763 
0.133704 -0.194700 0.840917 
0.135133 -0.194711 0.840964 
0.136586 -0.194755 0.841156 
0.138041 -0.194802 0.841359 
0.139459 -0.194796 0.841331 
0.140829 -0.194724 0.841021 
0.142238 -0.194706 0.840942 
0.143620 -0.194652 0.840711 
0.144985 -0.194577 0.840387 
0.146361 -0.194518 0.840131 
0.078257 -0.200550 0.872571 
0.079610 -0.200243 0.871237 
0.080970 -0.199964 0.870022 
0.082328 -0.199690 0.868831 
0.083644 -0.199326 0.867247 
0.084980 -0.199022 0.865925 
0.086322 -0.198741 0.864699 
0.087653 -0.198445 0.863415 
0.088980 -0.198150 0.862129 
0.090318 -0.197888 0.860991 
0.091635 -0.197590 0.859694 
0.092984 -0.197368 0.858726 
0.094352 -0.197192 0.857962 
0.095711 -0.197005 0.857146 
0.097092 -0.196868 0.856550 
0.098487 -0.196761 0.856088 
0.099847 -0.196589 0.855337 
0.101176 -0.196362 0.854349 
0.102495 -0.196123 0.853310 
0.103798 -0.195860 0.852164 
0.105091 -0.195584 0.850965 
0.106425 -0.195392 0.850130 
0.107761 -0.195208 0.849329 
0.109121 -0.195074 0.848746 
0.110458 -0.194900 0.847988 
0.111791 -0.194725 0.847226 
0.113134 -0.194572 0.846561 
0.114508 -0.194475 0.846141 
0.115865 -0.194352 0.845603 
0.117246 -0.194272 0.845255 
0.118636 -0.194208 0.844979 
0.119995 -0.194096 0.844490 
0.121376 -0.194020 0.844161 
0.122754 -0.193942 0.843822 
0.124107 -0.193828 0.843323 
0.125444 -0.193692 0.842732 
0.126838 -0.193645 0.842528 
0.128217 -0.193576 0.842227 
0.129599 -0.193514 0.841959 
0.131010 -0.193495 0.841876 
0.132452 -0.193522 0.841994 
0.133913 -0.193577 0.842232 
0.135361 -0.193612 0.842385 
0.136831 -0.193676 0.842664 
0.138290 -0.193725 0.842878 
0.139723 -0.193736 0.842924 
0.141110 -0.193683 0.842694 
0.142509 -0.193649 0.842548 
0.143892 -0.193593 0.842301 
0.076875 -0.199312 0.873628 
0.078270 -0.199105 0.872719 
0.079629 -0.198813 0.871442 
0.080996 -0.198555 0.870309 
0.082348 -0.198266 0.869045 
0.083651 -0.197873 0.867320 
0.084988 -0.197572 0.866003 
0.086329 -0.197292 0.864776 
0.087662 -0.197002 0.863502 
0.088991 -0.196712 0.862233 
0.090320 -0.196433 0.861010 
0.091636 -0.196134 0.859697 
0.092982 -0.195909 0.858713 
0.094333 -0.195699 0.857790 
0.095692 -0.195513 0.856975 
0.097082 -0.195394 0.856455 
0.098477 -0.195290 0.855998 
0.099847 -0.195139 0.855337 
0.101196 -0.194953 0.854522 
0.102538 -0.194756 0.853661 
0.103854 -0.194520 0.852625 
0.105158 -0.194266 0.851512 
0.106492 -0.194074 0.850669 
0.107827 -0.193887 0.849849 
0.109178 -0.193735 0.849182 
0.110525 -0.193580 0.848503 
0.111858 -0.193406 0.847741 
0.113213 -0.193272 0.847152 
0.114590 -0.193178 0.846742 
0.115957 -0.193071 0.846274 
0.117342 -0.192996 0.845942 
0.118744 -0.192950 0.845742 
0.120117 -0.192860 0.845347 
0.121512 -0.192806 0.845111 
0.122907 -0.192753 0.844877 
0.124262 -0.192639 0.844380 
0.125624 -0.192538 0.843939 
0.127019 -0.192490 0.843725 
0.128410 -0.192437 0.843494 
0.129804 -0.192390 0.843286 
0.131237 -0.192402 0.843338 
0.132684 -0.192431 0.843470 
0.134161 -0.192505 0.843790 
0.135636 -0.192575 0.844097 
0.137110 -0.192640 0.844383 
0.138575 -0.192693 0.844615 
0.140012 -0.192705 0.844668 
0.141402 -0.192653 0.844441 
0.142791 -0.192602 0.844215 
0.144162 -0.192526 0.843884 
0.075438 -0.199420 0.874100 
0.074028 -0.198118 0.874897 
0.075457 -0.197986 0.874311 
0.076886 -0.197861 0.873760 
0.078286 -0.197665 0.872896 
0.079645 -0.197377 0.871621 
0.080997 -0.197082 0.870318 
0.082341 -0.196776 0.868967 
0.083644 -0.196386 0.867247 
0.084980 -0.196087 0.865925 
0.086322 -0.195809 0.864699 
0.087669 -0.195554 0.863573 
0.088998 -0.195266 0.862302 
0.090328 -0.194992 0.861090 
0.091644 -0.194694 0.859776 
0.092991 -0.194471 0.858789 
0.094332 -0.194243 0.857782 
0.095690 -0.194057 0.856961 
0.097079 -0.193937 0.856431 
0.098475 -0.193836 0.855985 
0.099856 -0.193706 0.855412 
0.101217 -0.193544 0.854696 
0.102581 -0.193391 0.854019 
0.103918 -0.193194 0.853150 
0.105245 -0.192981 0.852210 
0.106579 -0.192789 0.851364 
0.107924 -0.192620 0.850617 
0.109265 -0.192450 0.849867 
0.110612 -0.192294 0.849175 
0.111948 -0.192122 0.848418 
0.113312 -0.192003 0.847894 
0.114690 -0.191911 0.847487 
0.116069 -0.191822 0.847091 
0.117455 -0.191748 0.846763 
0.118860 -0.191705 0.846575 
0.120247 -0.191634 0.846260 
0.121645 -0.191583 0.846037 
0.123054 -0.191549 0.845887 
0.124425 -0.191458 0.845486 
0.125802 -0.191379 0.845135 
0.127200 -0.191332 0.844927 
0.128603 -0.191295 0.844766 
0.129998 -0.191245 0.844546 
0.131447 -0.191277 0.844683 
0.132907 -0.191322 0.844886 
0.134389 -0.191399 0.845223 
0.135878 -0.191484 0.845600 
0.137366 -0.191566 0.845960 
0.138834 -0.191618 0.846191 
0.140273 -0.191629 0.846241 
0.141678 -0.191595 0.846092 
0.072592 -0.196751 0.875413 
0.074048 -0.196688 0.875131 
0.075473 -0.196547 0.874506 
0.076897 -0.196407 0.873882 
0.078299 -0.196217 0.873038 
0.079655 -0.195925 0.871735 
0.080990 -0.195589 0.870241 
0.082333 -0.195284 0.868884 
0.083635 -0.194897 0.867161 
0.084972 -0.194600 0.865842 
0.086321 -0.194342 0.864692 
0.087677 -0.194107 0.863646 
0.089013 -0.193838 0.862451 
0.090353 -0.193585 0.861326 
0.091670 -0.193292 0.860022 
0.093010 -0.193055 0.858966 
0.094350 -0.192826 0.857948 
0.095708 -0.192639 0.857118 
0.097088 -0.192503 0.856512 
0.098485 -0.192403 0.856068 
0.099875 -0.192292 0.855574 
0.101245 -0.192149 0.854936 
0.102620 -0.192017 0.854348 
0.103979 -0.191859 0.853646 
0.105327 -0.191686 0.852877 
0.106664 -0.191498 0.852042 
0.108019 -0.191348 0.851370 
0.109352 -0.191161 0.850540 
0.110690 -0.190988 0.849770 
0.112025 -0.190816 0.849005 
0.113392 -0.190700 0.848490 
0.114771 -0.190608 0.848080 
0.116161 -0.190538 0.847766 
0.117558 -0.190479 0.847504 
0.118965 -0.190437 0.847319 
0.120362 -0.190381 0.847069 
0.121761 -0.190330 0.846842 
0.123181 -0.190312 0.846763 
0.124566 -0.190241 0.846447 
0.125959 -0.190183 0.846189 
0.127362 -0.190141 0.846003 
0.128769 -0.190108 0.845854 
0.130177 -0.190075 0.845710 
0.131642 -0.190127 0.845940 
0.133109 -0.190180 0.846173 
0.134606 -0.190274 0.846592 
0.136120 -0.190389 0.847104 
0.137610 -0.190469 0.847460 
0.139093 -0.190538 0.847767 
0.140560 -0.190584 0.847973 
0.072656 -0.195440 0.876188 
0.074080 -0.195290 0.875513 
0.075492 -0.195113 0.874720 
0.076908 -0.194954 0.874010 
0.078299 -0.194739 0.873043 
0.079656 -0.194447 0.871737 
0.080989 -0.194112 0.870233 
0.082331 -0.193808 0.868870 
0.083633 -0.193421 0.867137 
0.084971 -0.193129 0.865828 
0.086321 -0.192875 0.864690 
0.087677 -0.192645 0.863655 
0.089023 -0.192397 0.862545 
0.090373 -0.192166 0.861510 
0.091691 -0.191878 0.860218 
0.093031 -0.191643 0.859165 
0.094370 -0.191413 0.858134 
0.095719 -0.191209 0.857221 
0.097092 -0.191059 0.856545 
0.098488 -0.190958 0.856093 
0.099885 -0.190863 0.855666 
0.101256 -0.190719 0.855022 
0.102639 -0.190604 0.854506 
0.104009 -0.190466 0.853890 
0.105377 -0.190332 0.853285 
0.106719 -0.190151 0.852476 
0.108085 -0.190020 0.851889 
0.109427 -0.189849 0.851121 
0.110765 -0.189677 0.850352 
0.112092 -0.189489 0.849507 
0.113460 -0.189375 0.848998 
0.114840 -0.189285 0.848591 
0.116232 -0.189215 0.848278 
0.117641 -0.189175 0.848101 
0.119059 -0.189150 0.847987 
0.120456 -0.189093 0.847735 
0.121865 -0.189055 0.847564 
0.123274 -0.189018 0.847398 
0.124659 -0.188947 0.847077 
0.126054 -0.188891 0.846828 
0.127472 -0.188871 0.846736 
0.128893 -0.188855 0.846667 
0.130328 -0.188860 0.846690 
0.131809 -0.188933 0.847014 
0.133293 -0.189007 0.847345 
0.134807 -0.189120 0.847854 
0.136335 -0.189252 0.848445 
0.137827 -0.189331 0.848801 
0.139339 -0.189436 0.849270 
0.071326 -0.194367 0.878051 
0.072697 -0.194065 0.876684 
0.074102 -0.193862 0.875769 
0.075501 -0.193654 0.874830 
0.076910 -0.193477 0.874028 
0.078300 -0.193261 0.873052 
0.079656 -0.192971 0.871743 
0.080982 -0.192618 0.870150 
0.082323 -0.192315 0.868778 
0.083624 -0.191930 0.867040 
0.084962 -0.191641 0.865736 
0.086321 -0.191410 0.864691 
0.087687 -0.191202 0.863751 
0.089043 -0.190978 0.862738 
0.090401 -0.190766 0.861784 
0.091721 -0.190483 0.860502 
0.093052 -0.190229 0.859356 
0.094399 -0.190015 0.858390 
0.095747 -0.189812 0.857471 
0.097112 -0.189647 0.856725 
0.098509 -0.189548 0.856279 
0.099905 -0.189449 0.855833 
0.101274 -0.189303 0.855175 
0.102658 -0.189190 0.854662 
0.104047 -0.189090 0.854209 
0.105429 -0.188977 0.853700 
0.106781 -0.188816 0.852973 
0.108158 -0.188703 0.852463 
0.109501 -0.188533 0.851697 
0.110840 -0.188363 0.850925 
0.112168 -0.188176 0.850083 
0.113536 -0.188062 0.849567 
0.114906 -0.187955 0.849083 
0.116298 -0.187885 0.848766 
0.117700 -0.187832 0.848528 
0.119121 -0.187810 0.848429 
0.120520 -0.187756 0.848185 
0.121930 -0.187718 0.848012 
0.123336 -0.187677 0.847828 
0.124732 -0.187621 0.847573 
0.126138 -0.187581 0.847392 
0.127569 -0.187578 0.847381 
0.129003 -0.187581 0.847392 
0.130464 -0.187621 0.847573 
0.131960 -0.187711 0.847981 
0.133473 -0.187823 0.848489 
0.135026 -0.187988 0.849233 
0.136597 -0.188174 0.850074 
0.070041 -0.193428 0.880553 
0.071381 -0.193027 0.878727 
0.072735 -0.192678 0.877139 
0.074130 -0.192449 0.876096 
0.075516 -0.192208 0.874998 
0.076911 -0.191998 0.874039 
0.078300 -0.191781 0.873053 
0.079655 -0.191491 0.871735 
0.080967 -0.191108 0.869988 
0.082307 -0.190806 0.868617 
0.083615 -0.190441 0.866954 
0.084953 -0.190155 0.865653 
0.086314 -0.189929 0.864620 
0.087688 -0.189740 0.863760 
0.089045 -0.189519 0.862755 
0.090403 -0.189309 0.861801 
0.091723 -0.189028 0.860519 
0.093053 -0.188774 0.859364 
0.094408 -0.188578 0.858471 
0.095765 -0.188393 0.857630 
0.097140 -0.188248 0.856970 
0.098546 -0.188166 0.856599 
0.099943 -0.188070 0.856158 
0.101312 -0.187925 0.855499 
0.102697 -0.187813 0.854989 
0.104098 -0.187733 0.854623 
0.105491 -0.187640 0.854203 
0.106855 -0.187499 0.853562 
0.108242 -0.187403 0.853123 
0.109586 -0.187235 0.852359 
0.110917 -0.187049 0.851513 
0.112246 -0.186865 0.850675 
0.113613 -0.186748 0.850143 
0.114983 -0.186639 0.849647 
0.116385 -0.186586 0.849402 
0.117799 -0.186550 0.849242 
0.119223 -0.186532 0.849160 
0.120636 -0.186498 0.849001 
0.122048 -0.186462 0.848839 
0.123447 -0.186407 0.848590 
0.124843 -0.186350 0.848329 
0.126238 -0.186291 0.848061 
0.127669 -0.186287 0.848045 
0.129105 -0.186291 0.848061 
0.130580 -0.186350 0.848329 
0.132090 -0.186457 0.848818 
0.133641 -0.186619 0.849554 
0.068658 -0.193728 0.881915 
0.067264 -0.194008 0.883189 
0.067264 -0.192510 0.883188 
0.068666 -0.192255 0.882019 
0.070066 -0.192004 0.880866 
0.071412 -0.191621 0.879107 
0.072757 -0.191250 0.877408 
0.074139 -0.190988 0.876205 
0.075515 -0.190724 0.874993 
0.076903 -0.190497 0.873953 
0.078285 -0.190264 0.872882 
0.079639 -0.189974 0.871553 
0.080950 -0.189594 0.869809 
0.082291 -0.189297 0.868449 
0.083608 -0.188955 0.866877 
0.084953 -0.188688 0.865653 
0.086313 -0.188462 0.864614 
0.087687 -0.188273 0.863751 
0.089043 -0.188053 0.862738 
0.090393 -0.187827 0.861702 
0.091712 -0.187546 0.860412 
0.093042 -0.187295 0.859260 
0.094397 -0.187102 0.858375 
0.095765 -0.186939 0.857627 
0.097159 -0.186832 0.857137 
0.098577 -0.186773 0.856866 
0.099983 -0.186694 0.856504 
0.101363 -0.186568 0.855926 
0.102749 -0.186458 0.855421 
0.104152 -0.186381 0.855070 
0.105547 -0.186291 0.854654 
0.106912 -0.186152 0.854018 
0.108299 -0.186055 0.853572 
0.109654 -0.185905 0.852886 
0.110996 -0.185738 0.852120 
0.112326 -0.185555 0.851281 
0.113704 -0.185456 0.850826 
0.115073 -0.185345 0.850317 
0.116477 -0.185290 0.850066 
0.117891 -0.185256 0.849907 
0.119327 -0.185254 0.849901 
0.120743 -0.185222 0.849752 
0.122168 -0.185205 0.849673 
0.123570 -0.185152 0.849431 
0.124968 -0.185096 0.849175 
0.126365 -0.185039 0.848915 
0.127808 -0.185052 0.848972 
0.129270 -0.185090 0.849145 
0.130782 -0.185198 0.849644 
0.132322 -0.185343 0.850307 
0.133914 -0.185557 0.851290 
0.067264 -0.191012 0.883184 
0.068686 -0.190815 0.882274 
0.070092 -0.190583 0.881201 
0.071440 -0.190205 0.879453 
0.072776 -0.189812 0.877633 
0.074144 -0.189517 0.876272 
0.075515 -0.189239 0.874984 
0.076895 -0.188996 0.873860 
0.078275 -0.188762 0.872778 
0.079628 -0.188471 0.871433 
0.080940 -0.188096 0.869700 
0.082282 -0.187805 0.868354 
0.083607 -0.187484 0.866871 
0.084953 -0.187220 0.865653 
0.086312 -0.186994 0.864606 
0.087686 -0.186806 0.863738 
0.089032 -0.186567 0.862630 
0.090372 -0.186324 0.861509 
0.091689 -0.186041 0.860200 
0.093020 -0.185794 0.859057 
0.094377 -0.185608 0.858195 
0.095756 -0.185468 0.857549 
0.097169 -0.185399 0.857229 
0.098599 -0.185361 0.857055 
0.100017 -0.185305 0.856796 
0.101416 -0.185215 0.856380 
0.102812 -0.185121 0.855945 
0.104216 -0.185045 0.855592 
0.105611 -0.184954 0.855173 
0.106976 -0.184816 0.854533 
0.108355 -0.184704 0.854018 
0.109720 -0.184570 0.853398 
0.111073 -0.184423 0.852716 
0.112415 -0.184259 0.851962 
0.113807 -0.184181 0.851599 
0.115190 -0.184090 0.851178 
0.116595 -0.184036 0.850930 
0.118011 -0.184001 0.850765 
0.119448 -0.183999 0.850757 
0.120874 -0.183981 0.850676 
0.122313 -0.183981 0.850676 
0.123728 -0.183948 0.850520 
0.125140 -0.183910 0.850347 
0.126550 -0.183870 0.850159 
0.128008 -0.183900 0.850298 
0.129498 -0.183974 0.850641 
0.131031 -0.184107 0.851257 
0.067267 -0.189524 0.883225 
0.068691 -0.189332 0.882331 
0.070086 -0.189071 0.881115 
0.071427 -0.188680 0.879294 
0.072769 -0.188306 0.877548 
0.074130 -0.187996 0.876107 
0.075500 -0.187719 0.874814 
0.076873 -0.187461 0.873610 
0.078252 -0.187227 0.872520 
0.079597 -0.186920 0.871091 
0.080914 -0.186562 0.869424 
0.082251 -0.186261 0.868019 
0.083584 -0.185962 0.866625 
0.084930 -0.185702 0.865414 
0.086288 -0.185477 0.864364 
0.087661 -0.185290 0.863494 
0.089006 -0.185051 0.862380 
0.090338 -0.184793 0.861177 
0.091661 -0.184527 0.859937 
0.093000 -0.184298 0.858871 
0.094358 -0.184116 0.858023 
0.095755 -0.184013 0.857542 
0.097188 -0.183980 0.857391 
0.098628 -0.183963 0.857310 
0.100058 -0.183928 0.857145 
0.101477 -0.183873 0.856891 
0.102875 -0.183783 0.856469 
0.104278 -0.183703 0.856101 
0.105672 -0.183611 0.855672 
0.107046 -0.183487 0.855092 
0.108427 -0.183377 0.854579 
0.109793 -0.183247 0.853973 
0.111159 -0.183118 0.853374 
0.112515 -0.182976 0.852713 
0.113911 -0.182903 0.852372 
0.115296 -0.182816 0.851964 
0.116714 -0.182781 0.851803 
0.118141 -0.182761 0.851708 
0.119591 -0.182776 0.851778 
0.121031 -0.182776 0.851778 
0.122483 -0.182793 0.851859 
0.123922 -0.182792 0.851854 
0.125349 -0.182773 0.851766 
0.126775 -0.182753 0.851672 
0.128250 -0.182803 0.851902 
0.129745 -0.182880 0.852264 
0.067273 -0.188042 0.883297 
0.068680 -0.187807 0.882195 
0.070064 -0.187520 0.880846 
0.071406 -0.187135 0.879035 
0.072755 -0.186783 0.877383 
0.074117 -0.186476 0.875943 
0.075492 -0.186216 0.874721 
0.076864 -0.185959 0.873512 
0.078230 -0.185694 0.872268 
0.079566 -0.185371 0.870753 
0.080890 -0.185033 0.869162 
0.082217 -0.184715 0.867668 
0.083551 -0.184420 0.866283 
0.084904 -0.184179 0.865152 
0.086270 -0.183973 0.864184 
0.087651 -0.183805 0.863396 
0.088998 -0.183574 0.862308 
0.090322 -0.183301 0.861027 
0.091653 -0.183052 0.859856 
0.092990 -0.182823 0.858781 
0.094341 -0.182628 0.857865 
0.095755 -0.182559 0.857542 
0.097206 -0.182560 0.857548 
0.098656 -0.182561 0.857551 
0.100096 -0.182544 0.857473 
0.101526 -0.182509 0.857305 
0.102925 -0.182420 0.856891 
0.104330 -0.182344 0.856530 
0.105724 -0.182249 0.856088 
0.107097 -0.182125 0.855502 
0.108479 -0.182016 0.854989 
0.109857 -0.181905 0.854468 
0.111235 -0.181796 0.853958 
0.112613 -0.181690 0.853462 
0.114032 -0.181652 0.853283 
0.115442 -0.181601 0.853043 
0.116873 -0.181583 0.852959 
0.118314 -0.181582 0.852954 
0.119768 -0.181600 0.853035 
0.121212 -0.181603 0.853049 
0.122667 -0.181622 0.853138 
0.124110 -0.181623 0.853145 
0.125540 -0.181606 0.853065 
0.126981 -0.181604 0.853058 
0.128483 -0.181689 0.853454 
0.065884 -0.186841 0.884701 
0.067261 -0.186512 0.883140 
0.068654 -0.186242 0.881866 
0.070028 -0.185931 0.880393 
0.071376 -0.185567 0.878667 
0.072727 -0.185223 0.877037 
0.074088 -0.184919 0.875601 
0.075469 -0.184678 0.874457 
0.076848 -0.184438 0.873322 
0.078200 -0.184146 0.871937 
0.079534 -0.183823 0.870411 
0.080863 -0.183499 0.868878 
0.082190 -0.183182 0.867375 
0.083524 -0.182893 0.866008 
0.084893 -0.182687 0.865033 
0.086275 -0.182519 0.864236 
0.087665 -0.182370 0.863532 
0.089023 -0.182162 0.862545 
0.090357 -0.181911 0.861359 
0.091697 -0.181681 0.860269 
0.093034 -0.181453 0.859187 
0.094385 -0.181258 0.858264 
0.095800 -0.181191 0.857947 
0.097252 -0.181193 0.857956 
0.098694 -0.181178 0.857885 
0.100134 -0.181160 0.857798 
0.101564 -0.181124 0.857630 
0.102965 -0.181038 0.857221 
0.104372 -0.180965 0.856877 
0.105776 -0.180888 0.856513 
0.107151 -0.180765 0.855932 
0.108533 -0.180657 0.855421 
0.109924 -0.180566 0.854987 
0.111314 -0.180476 0.854560 
0.112704 -0.180388 0.854147 
0.114134 -0.180367 0.854047 
0.115557 -0.180334 0.853887 
0.116989 -0.180317 0.853809 
0.118444 -0.180334 0.853891 
0.119911 -0.180370 0.854060 
0.121372 -0.180395 0.854176 
0.122841 -0.180432 0.854352 
0.124308 -0.180465 0.854510 
0.125753 -0.180465 0.854510 
0.127210 -0.180482 0.854591 
0.128728 -0.180585 0.855077 
0.064479 -0.185604 0.885954 
0.065884 -0.185342 0.884702 
0.067249 -0.184983 0.882988 
0.068630 -0.184681 0.881547 
0.069990 -0.184338 0.879913 
0.071344 -0.183995 0.878274 
0.072696 -0.183658 0.876666 
0.074057 -0.183360 0.875242 
0.075445 -0.183137 0.874180 
0.076838 -0.182934 0.873210 
0.078191 -0.182646 0.871834 
0.079526 -0.182329 0.870320 
0.080860 -0.182018 0.868839 
0.082186 -0.181703 0.867335 
0.083514 -0.181403 0.865902 
0.084884 -0.181204 0.864950 
0.086283 -0.181071 0.864315 
0.087682 -0.180943 0.863704 
0.089051 -0.180758 0.862821 
0.090403 -0.180544 0.861804 
0.091761 -0.180349 0.860870 
0.093108 -0.180140 0.859872 
0.094460 -0.179947 0.858952 
0.095885 -0.179896 0.858707 
0.097329 -0.179882 0.858639 
0.098764 -0.179851 0.858491 
0.100194 -0.179813 0.858309 
0.101632 -0.179789 0.858197 
0.103024 -0.179688 0.857714 
0.104434 -0.179618 0.857380 
0.105840 -0.179545 0.857034 
0.107226 -0.179440 0.856531 
0.108610 -0.179333 0.856021 
0.110011 -0.179259 0.855667 
0.111403 -0.179171 0.855248 
0.112805 -0.179102 0.854917 
0.114238 -0.179081 0.854819 
0.115672 -0.179064 0.854738 
0.117118 -0.179066 0.854746 
0.118597 -0.179117 0.854989 
0.120078 -0.179170 0.855244 
0.121550 -0.179210 0.855433 
0.123022 -0.179248 0.855613 
0.124492 -0.179281 0.855775 
0.125950 -0.179297 0.855850 
0.127422 -0.179332 0.856015 
0.063080 -0.185893 0.887335 
0.063050 -0.184303 0.886922 
0.064466 -0.184065 0.885775 
0.065861 -0.183779 0.884398 
0.067218 -0.183401 0.882582 
0.068587 -0.183072 0.880999 
0.069933 -0.182698 0.879198 
0.071287 -0.182360 0.877569 
0.072644 -0.182042 0.876038 
0.074013 -0.181767 0.874715 
0.075414 -0.181579 0.873812 
0.076822 -0.181416 0.873028 
0.078176 -0.181135 0.871673 
0.079512 -0.180821 0.870166 
0.080852 -0.180529 0.868758 
0.082178 -0.180217 0.867256 
0.083500 -0.179905 0.865755 
0.084880 -0.179728 0.864905 
0.086287 -0.179612 0.864348 
0.087695 -0.179504 0.863828 
0.089080 -0.179353 0.863098 
0.090451 -0.179179 0.862261 
0.091829 -0.179023 0.861512 
0.093196 -0.178852 0.860688 
0.094559 -0.178677 0.859849 
0.095985 -0.178626 0.859603 
0.097421 -0.178594 0.859449 
0.098845 -0.178543 0.859202 
0.100266 -0.178487 0.858931 
0.101694 -0.178443 0.858723 
0.103077 -0.178326 0.858156 
0.104487 -0.178256 0.857818 
0.105895 -0.178184 0.857475 
0.107291 -0.178095 0.857048 
0.108686 -0.178008 0.856626 
0.110100 -0.177951 0.856354 
0.111503 -0.177881 0.856016 
0.112916 -0.177828 0.855759 
0.114351 -0.177808 0.855665 
0.115787 -0.177792 0.855590 
0.117235 -0.177795 0.855603 
0.118716 -0.177847 0.855852 
0.120199 -0.177900 0.856109 
0.121673 -0.177940 0.856299 
0.123157 -0.177992 0.856550 
0.124640 -0.178042 0.856790 
0.126113 -0.178076 0.856956 
0.061590 -0.182916 0.887488 
0.063021 -0.182714 0.886504 
0.064440 -0.182488 0.885410 
0.065835 -0.182207 0.884044 
0.067180 -0.181802 0.882080 
0.068532 -0.181433 0.880293 
0.069883 -0.181077 0.878565 
0.071236 -0.180742 0.876938 
0.072592 -0.180428 0.875417 
0.073975 -0.180191 0.874264 
0.075390 -0.180041 0.873535 
0.076813 -0.179916 0.872930 
0.078177 -0.179660 0.871686 
0.079522 -0.179370 0.870279 
0.080863 -0.179079 0.868871 
0.082195 -0.178783 0.867433 
0.083517 -0.178474 0.865932 
0.084913 -0.178332 0.865244 
0.086329 -0.178235 0.864776 
0.087746 -0.178144 0.864334 
0.089140 -0.178010 0.863680 
0.090530 -0.177872 0.863012 
0.091921 -0.177740 0.862374 
0.093303 -0.177595 0.861670 
0.094677 -0.177440 0.860919 
0.096103 -0.177387 0.860659 
0.097521 -0.177318 0.860327 
0.098928 -0.177234 0.859916 
0.100338 -0.177157 0.859546 
0.101758 -0.177099 0.859261 
0.103132 -0.176965 0.858611 
0.104541 -0.176893 0.858262 
0.105947 -0.176818 0.857900 
0.107344 -0.176730 0.857470 
0.108741 -0.176644 0.857055 
0.110167 -0.176608 0.856880 
0.111583 -0.176557 0.856631 
0.113008 -0.176520 0.856455 
0.114453 -0.176515 0.856431 
0.115901 -0.176515 0.856431 
0.117352 -0.176520 0.856455 
0.118835 -0.176572 0.856706 
0.120319 -0.176625 0.856961 
0.121793 -0.176662 0.857140 
0.123289 -0.176729 0.857469 
0.124787 -0.176797 0.857799 
0.061571 -0.181355 0.887208 
0.062984 -0.181105 0.885987 
0.064386 -0.180836 0.884668 
0.065769 -0.180527 0.883157 
0.067119 -0.180143 0.881280 
0.068469 -0.179775 0.879481 
0.069825 -0.179440 0.877842 
0.071184 -0.179126 0.876303 
0.072548 -0.178836 0.874887 
0.073943 -0.178634 0.873896 
0.075367 -0.178506 0.873271 
0.076799 -0.178402 0.872765 
0.078185 -0.178201 0.871778 
0.079540 -0.177933 0.870466 
0.080880 -0.177646 0.869063 
0.082220 -0.177365 0.867692 
0.083548 -0.177072 0.866258 
0.084946 -0.176934 0.865580 
0.086365 -0.176842 0.865129 
0.087782 -0.176751 0.864684 
0.089183 -0.176631 0.864098 
0.090591 -0.176527 0.863589 
0.091995 -0.176421 0.863071 
0.093397 -0.176313 0.862545 
0.094790 -0.176192 0.861952 
0.096208 -0.176121 0.861602 
0.097617 -0.176033 0.861175 
0.099014 -0.175930 0.860668 
0.100426 -0.175854 0.860295 
0.101829 -0.175765 0.859864 
0.103194 -0.175614 0.859123 
0.104592 -0.175523 0.858679 
0.105997 -0.175445 0.858299 
0.107395 -0.175360 0.857880 
0.108814 -0.175309 0.857633 
0.110263 -0.175308 0.857625 
0.111682 -0.175259 0.857387 
0.113109 -0.175224 0.857216 
0.114556 -0.175221 0.857200 
0.116005 -0.175221 0.857202 
0.117457 -0.175225 0.857222 
0.118961 -0.175307 0.857620 
0.120458 -0.175375 0.857955 
0.121935 -0.175413 0.858142 
0.123446 -0.175498 0.858556 
0.124969 -0.175599 0.859049 
0.060155 -0.180101 0.888440 
0.061558 -0.179813 0.887020 
0.062960 -0.179535 0.885650 
0.064347 -0.179229 0.884139 
0.065715 -0.178882 0.882427 
0.067070 -0.178518 0.880633 
0.068418 -0.178151 0.878825 
0.069774 -0.177821 0.877196 
0.071133 -0.177513 0.875675 
0.072511 -0.177263 0.874442 
0.073921 -0.177098 0.873628 
0.075352 -0.176991 0.873099 
0.076791 -0.176906 0.872681 
0.078193 -0.176740 0.871861 
0.079548 -0.176476 0.870559 
0.080890 -0.176192 0.869160 
0.082228 -0.175913 0.867784 
0.083565 -0.175638 0.866427 
0.084964 -0.175503 0.865762 
0.086393 -0.175432 0.865412 
0.087811 -0.175343 0.864973 
0.089219 -0.175237 0.864448 
0.090635 -0.175148 0.864009 
0.092050 -0.175062 0.863583 
0.093464 -0.174976 0.863160 
0.094867 -0.174873 0.862652 
0.096284 -0.174797 0.862277 
0.097683 -0.174692 0.861760 
0.099080 -0.174588 0.861244 
0.100495 -0.174515 0.860885 
0.101899 -0.174427 0.860453 
0.103264 -0.174276 0.859706 
0.104661 -0.174182 0.859245 
0.106057 -0.174089 0.858785 
0.107466 -0.174021 0.858450 
0.108909 -0.174007 0.858381 
0.110372 -0.174025 0.858471 
0.111803 -0.173994 0.858314 
0.113251 -0.173989 0.858292 
0.114700 -0.173986 0.858279 
0.116153 -0.173989 0.858292 
0.117617 -0.174009 0.858391 
0.119124 -0.174091 0.858795 
0.120613 -0.174144 0.859057 
0.122083 -0.174169 0.859178 
0.058752 -0.180406 0.889949 
0.057337 -0.179177 0.891338 
0.058745 -0.178875 0.889837 
0.060137 -0.178543 0.888184 
0.061527 -0.178220 0.886579 
0.062909 -0.177890 0.884933 
0.064283 -0.177552 0.883256 
0.065649 -0.177208 0.881543 
0.067002 -0.176845 0.879739 
0.068354 -0.176498 0.878010 
0.069716 -0.176189 0.876474 
0.071084 -0.175906 0.875064 
0.072475 -0.175693 0.874008 
0.073899 -0.175565 0.873369 
0.075337 -0.175477 0.872930 
0.076777 -0.175394 0.872518 
0.078192 -0.175259 0.871848 
0.079547 -0.174998 0.870549 
0.080890 -0.174720 0.869166 
0.082229 -0.174443 0.867788 
0.083580 -0.174202 0.866589 
0.084981 -0.174071 0.865937 
0.086420 -0.174020 0.865683 
0.087840 -0.173933 0.865253 
0.089255 -0.173841 0.864795 
0.090670 -0.173752 0.864349 
0.092086 -0.173666 0.863924 
0.093502 -0.173584 0.863512 
0.094923 -0.173513 0.863160 
0.096341 -0.173438 0.862787 
0.097749 -0.173349 0.862346 
0.099158 -0.173262 0.861914 
0.100584 -0.173210 0.861652 
0.101973 -0.173094 0.861076 
0.103337 -0.172941 0.860315 
0.104722 -0.172826 0.859746 
0.106119 -0.172735 0.859292 
0.107534 -0.172674 0.858989 
0.109000 -0.172697 0.859102 
0.110476 -0.172733 0.859281 
0.111928 -0.172731 0.859274 
0.113388 -0.172743 0.859331 
0.114839 -0.172740 0.859318 
0.116305 -0.172761 0.859421 
0.117773 -0.172783 0.859529 
0.119283 -0.172865 0.859940 
0.120774 -0.172919 0.860206 
0.054417 -0.179487 0.892880 
0.052910 -0.177979 0.892910 
0.054405 -0.177935 0.892685 
0.055883 -0.179345 0.892174 
0.055869 -0.177791 0.891966 
0.057317 -0.177606 0.891034 
0.058731 -0.177325 0.889625 
0.060127 -0.177006 0.888029 
0.061512 -0.176673 0.886353 
0.062880 -0.176307 0.884520 
0.064237 -0.175930 0.882627 
0.065595 -0.175569 0.880818 
0.066946 -0.175208 0.879008 
0.068305 -0.174883 0.877374 
0.069674 -0.174597 0.875938 
0.071055 -0.174351 0.874708 
0.072459 -0.174173 0.873811 
0.073891 -0.174065 0.873271 
0.075323 -0.173964 0.872765 
0.076762 -0.173881 0.872348 
0.078176 -0.173745 0.871667 
0.079530 -0.173484 0.870358 
0.080874 -0.173211 0.868989 
0.082221 -0.172956 0.867706 
0.083588 -0.172749 0.866670 
0.084997 -0.172635 0.866096 
0.086445 -0.172603 0.865937 
0.087866 -0.172519 0.865517 
0.089283 -0.172429 0.865064 
0.090696 -0.172336 0.864599 
0.092112 -0.172250 0.864168 
0.093529 -0.172170 0.863764 
0.094961 -0.172118 0.863506 
0.096390 -0.172063 0.863229 
0.097809 -0.171992 0.862870 
0.099229 -0.171925 0.862533 
0.100667 -0.171891 0.862364 
0.102057 -0.171777 0.861793 
0.103431 -0.171639 0.861100 
0.104817 -0.171524 0.860524 
0.106215 -0.171434 0.860071 
0.107642 -0.171389 0.859848 
0.109122 -0.171432 0.860059 
0.110602 -0.171471 0.860258 
0.112066 -0.171486 0.860333 
0.113537 -0.171512 0.860461 
0.114992 -0.171512 0.860464 
0.116473 -0.171551 0.860658 
0.117954 -0.171589 0.860848 
0.119466 -0.171671 0.861259 
0.120958 -0.171722 0.861517 
-0.184662 -0.220039 1.103921 
-0.185025 -0.216410 1.095024 
-0.183301 -0.216560 1.095783 
-0.182782 -0.220022 1.103835 
-0.181507 -0.216630 1.096139 
-0.181082 -0.220225 1.104852 
-0.179798 -0.216804 1.097018 
0.051407 -0.178004 0.893035 
0.049898 -0.176491 0.893035 
0.051401 -0.176470 0.892929 
0.052893 -0.176412 0.892637 
0.054380 -0.176340 0.892275 
0.055844 -0.176199 0.891558 
0.057284 -0.175992 0.890511 
0.058698 -0.175719 0.889132 
0.060088 -0.175389 0.887461 
0.061467 -0.175044 0.885713 
0.062835 -0.174683 0.883888 
0.064191 -0.174308 0.881992 
0.065541 -0.173933 0.880095 
0.066897 -0.173590 0.878360 
0.068256 -0.173272 0.876750 
0.069626 -0.172993 0.875335 
0.071020 -0.172784 0.874278 
0.072437 -0.172640 0.873550 
0.073876 -0.172551 0.873099 
0.075309 -0.172451 0.872597 
0.076746 -0.172367 0.872171 
0.078158 -0.172229 0.871472 
0.079519 -0.171986 0.870240 
0.080872 -0.171735 0.868974 
0.082236 -0.171516 0.867864 
0.083612 -0.171329 0.866918 
0.085021 -0.171215 0.866342 
0.086469 -0.171183 0.866180 
0.087884 -0.171086 0.865686 
0.089293 -0.170982 0.865161 
0.090706 -0.170889 0.864690 
0.092121 -0.170802 0.864251 
0.093538 -0.170722 0.863847 
0.094981 -0.170690 0.863682 
0.096421 -0.170655 0.863506 
0.097861 -0.170619 0.863327 
0.099301 -0.170586 0.863160 
0.100750 -0.170570 0.863077 
0.102152 -0.170474 0.862592 
0.103546 -0.170368 0.862054 
0.104942 -0.170269 0.861552 
0.106353 -0.170195 0.861181 
0.107791 -0.170167 0.861040 
0.109283 -0.170225 0.861329 
0.110764 -0.170262 0.861519 
0.112231 -0.170279 0.861605 
0.113707 -0.170308 0.861750 
0.115165 -0.170310 0.861762 
0.116648 -0.170348 0.861954 
0.118131 -0.170386 0.862144 
0.119646 -0.170466 0.862552 
-0.192105 -0.220283 1.114622 
-0.194045 -0.218456 1.114941 
-0.190622 -0.216708 1.106018 
-0.188087 -0.217812 1.102119 
-0.187395 -0.215149 1.098062 
-0.185021 -0.214549 1.095002 
-0.183297 -0.214698 1.095761 
-0.181527 -0.214795 1.096256 
-0.179818 -0.214968 1.097141 
-0.179323 -0.218484 1.105519 
-0.178761 -0.215931 1.102055 
0.048388 -0.176491 0.893035 
0.048405 -0.175039 0.893350 
0.049904 -0.174999 0.893150 
0.051396 -0.174940 0.892846 
0.052874 -0.174834 0.892305 
0.054349 -0.174728 0.891766 
0.055799 -0.174547 0.890842 
0.057223 -0.174296 0.889560 
0.058635 -0.174023 0.888167 
0.060030 -0.173716 0.886600 
0.061415 -0.173395 0.884964 
0.062784 -0.173044 0.883171 
0.064146 -0.172690 0.881365 
0.065493 -0.172317 0.879459 
0.066854 -0.171993 0.877807 
0.068214 -0.171680 0.876209 
0.069591 -0.171423 0.874900 
0.070998 -0.171249 0.874008 
0.072422 -0.171124 0.873369 
0.073862 -0.171037 0.872930 
0.075294 -0.170940 0.872432 
0.076731 -0.170854 0.871995 
0.078140 -0.170713 0.871275 
0.079509 -0.170490 0.870134 
0.080871 -0.170261 0.868966 
0.082254 -0.170082 0.868053 
0.083639 -0.169914 0.867197 
0.085048 -0.169800 0.866615 
0.086495 -0.169764 0.866432 
0.087900 -0.169651 0.865852 
0.089302 -0.169532 0.865246 
0.090715 -0.169439 0.864773 
0.092129 -0.169352 0.864327 
0.093547 -0.169273 0.863923 
0.094999 -0.169258 0.863847 
0.096450 -0.169242 0.863764 
0.097901 -0.169225 0.863679 
0.099351 -0.169209 0.863597 
0.100802 -0.169194 0.863521 
0.102223 -0.169130 0.863195 
0.103639 -0.169060 0.862835 
0.105051 -0.168984 0.862450 
0.106475 -0.168930 0.862172 
0.107923 -0.168915 0.862098 
0.109405 -0.168952 0.862287 
0.110877 -0.168974 0.862399 
0.112365 -0.169019 0.862630 
0.113854 -0.169065 0.862865 
0.115327 -0.169087 0.862975 
0.116823 -0.169140 0.863244 
0.118317 -0.169189 0.863497 
-0.191772 -0.214029 1.101879 
-0.189183 -0.213210 1.097666 
-0.186684 -0.212479 1.093899 
-0.184968 -0.212632 1.094690 
-0.183242 -0.212777 1.095434 
-0.181515 -0.212923 1.096186 
-0.179792 -0.213078 1.096982 
-0.178210 -0.213403 1.098659 
0.048442 -0.173657 0.894032 
0.049925 -0.173560 0.893534 
0.051402 -0.173444 0.892937 
0.052863 -0.173285 0.892120 
0.054319 -0.173120 0.891269 
0.055756 -0.172902 0.890148 
0.057162 -0.172604 0.888614 
0.058572 -0.172333 0.887218 
0.059972 -0.172047 0.885747 
0.061363 -0.171750 0.884217 
0.062733 -0.171408 0.882454 
0.064100 -0.171075 0.880743 
0.065447 -0.170704 0.878832 
0.066813 -0.170400 0.877266 
0.068179 -0.170107 0.875758 
0.069570 -0.169888 0.874628 
0.070989 -0.169746 0.873898 
0.072421 -0.169640 0.873355 
0.073861 -0.169556 0.872921 
0.075287 -0.169445 0.872348 
0.076723 -0.169358 0.871902 
0.078132 -0.169217 0.871177 
0.079508 -0.169013 0.870126 
0.080881 -0.168807 0.869064 
0.082282 -0.168667 0.868346 
0.083676 -0.168518 0.867579 
0.085085 -0.168404 0.866990 
0.086521 -0.168348 0.866700 
0.087925 -0.168231 0.866098 
0.089318 -0.168096 0.865406 
0.090724 -0.167990 0.864858 
0.092138 -0.167903 0.864410 
0.093555 -0.167823 0.864000 
0.095007 -0.167808 0.863923 
0.096468 -0.167808 0.863923 
0.097928 -0.167808 0.863923 
0.099389 -0.167808 0.863923 
0.100849 -0.167808 0.863923 
0.102282 -0.167763 0.863688 
0.103711 -0.167713 0.863432 
0.105139 -0.167661 0.863167 
0.106576 -0.167627 0.862988 
0.108026 -0.167613 0.862917 
0.109496 -0.167631 0.863010 
0.110976 -0.167663 0.863174 
0.112477 -0.167725 0.863493 
0.113971 -0.167775 0.863752 
0.115457 -0.167813 0.863946 
0.116963 -0.167878 0.864282 
0.118469 -0.167941 0.864608 
-0.193377 -0.211879 1.100415 
-0.190227 -0.210452 1.093004 
-0.188394 -0.210469 1.093090 
-0.186545 -0.210468 1.093086 
-0.184854 -0.210646 1.094013 
-0.183170 -0.210837 1.095003 
-0.181508 -0.211056 1.096141 
-0.179791 -0.211216 1.096973 
-0.178208 -0.211539 1.098647 
-0.177081 -0.214285 1.103197 
-0.176556 -0.211784 1.099924 
0.046995 -0.172377 0.895259 
0.048476 -0.172262 0.894659 
0.049942 -0.172102 0.893828 
0.051402 -0.171932 0.892944 
0.052847 -0.171720 0.891847 
0.054296 -0.171536 0.890889 
0.055721 -0.171286 0.889590 
0.057120 -0.170974 0.887969 
0.058524 -0.170690 0.886498 
0.059929 -0.170422 0.885106 
0.061325 -0.170145 0.883668 
0.062700 -0.169824 0.881997 
0.064067 -0.169496 0.880294 
0.065419 -0.169142 0.878455 
0.066791 -0.168856 0.876970 
0.068158 -0.168570 0.875483 
0.069556 -0.168372 0.874456 
0.070982 -0.168249 0.873820 
0.072421 -0.168160 0.873355 
0.073861 -0.168076 0.872921 
0.075280 -0.167951 0.872270 
0.076715 -0.167864 0.871817 
0.078117 -0.167709 0.871015 
0.079501 -0.167523 0.870047 
0.080883 -0.167338 0.869089 
0.082300 -0.167233 0.868540 
0.083704 -0.167103 0.867868 
0.085120 -0.167005 0.867355 
0.086549 -0.166931 0.866973 
0.087952 -0.166812 0.866356 
0.089344 -0.166678 0.865658 
0.090743 -0.166558 0.865038 
0.092157 -0.166472 0.864587 
0.093573 -0.166390 0.864165 
0.095016 -0.166359 0.864000 
0.096468 -0.166344 0.863923 
0.097928 -0.166344 0.863923 
0.099389 -0.166344 0.863923 
0.100849 -0.166344 0.863923 
0.102301 -0.166329 0.863847 
0.103751 -0.166313 0.863764 
