1688
-0.035577 -0.124535 0.811004
-0.034193 -0.124488 0.810700
-0.032814 -0.124455 0.810487
-0.031441 -0.124444 0.810414
-0.030066 -0.124421 0.810265
-0.028690 -0.124397 0.810107
-0.027315 -0.124373 0.809951
-0.025944 -0.124362 0.809878
-0.024569 -0.124331 0.809676
-0.023195 -0.124307 0.809522
-0.021820 -0.124269 0.809276
-0.020446 -0.124232 0.809030
-0.019073 -0.124196 0.808798
-0.017704 -0.124184 0.808717
-0.016334 -0.124161 0.808570
-0.014966 -0.124159 0.808560
-0.013599 -0.124158 0.808549
-0.012233 -0.124159 0.808560
-0.010867 -0.124172 0.808643
-0.009505 -0.124239 0.809081
-0.008161 -0.124600 0.811432
-0.006828 -0.125310 0.816050
-0.002801 -0.130542 0.850126
-0.001378 -0.131866 0.858744
0.000074 -0.132727 0.864356
0.001535 -0.132632 0.863739
0.002992 -0.132499 0.862872
0.004446 -0.132354 0.861925
0.005898 -0.132259 0.861304
0.007349 -0.132167 0.860707
0.008798 -0.132068 0.860064
0.010244 -0.131964 0.859383
0.011687 -0.131855 0.858678
0.013124 -0.131708 0.857722
0.014561 -0.131589 0.856943
0.015992 -0.131447 0.856019
0.017424 -0.131329 0.855252
0.018851 -0.131198 0.854395
0.020275 -0.131067 0.853543
0.021694 -0.130926 0.852628
0.023115 -0.130809 0.851864
0.024534 -0.130693 0.851107
0.025952 -0.130589 0.850431
0.027373 -0.130509 0.849913
0.028795 -0.130446 0.849499
0.030223 -0.130408 0.849252
0.031653 -0.130384 0.849093
0.033088 -0.130382 0.849085
0.034520 -0.130370 0.849005
0.035952 -0.130359 0.848931
0.037384 -0.130346 0.848851
0.038815 -0.130334 0.848769
0.040246 -0.130322 0.848690
0.041681 -0.130322 0.848690
0.043116 -0.130322 0.848695
0.044555 -0.130334 0.848772
0.045998 -0.130358 0.848929
0.047442 -0.130384 0.849095
0.048888 -0.130410 0.849268
0.050334 -0.130436 0.849436
0.051784 -0.130473 0.849675
0.053227 -0.130488 0.849772
0.054675 -0.130515 0.849949
0.056118 -0.130530 0.850045
0.057565 -0.130553 0.850196
0.059019 -0.130589 0.850432
0.060479 -0.130638 0.850753
0.061961 -0.130729 0.851346
0.063439 -0.130810 0.851872
0.064937 -0.130926 0.852627
0.066442 -0.131053 0.853450
0.067958 -0.131194 0.854371
0.069454 -0.131292 0.855008
0.070943 -0.131372 0.855527
0.072409 -0.131407 0.855760
0.073162 -0.131611 0.847727
0.073330 -0.130472 0.849668
0.074933 -0.123636 0.805152
0.075876 -0.122959 0.800741
0.077185 -0.122888 0.800280
0.078514 -0.122851 0.800041
0.079846 -0.122819 0.799831
0.081192 -0.122810 0.799772
0.082552 -0.122822 0.799849
0.083898 -0.122812 0.799785
0.085234 -0.122790 0.799640
0.086576 -0.122776 0.799550
0.087904 -0.122742 0.799330
0.089223 -0.122698 0.799043
0.090540 -0.122652 0.798744
0.091830 -0.122572 0.798221
0.093108 -0.122478 0.797609
0.094384 -0.122384 0.796996
0.095660 -0.122293 0.796406
0.096944 -0.122215 0.795895
0.098270 -0.122189 0.795730
0.099605 -0.122177 0.795649
0.100944 -0.122169 0.795601
0.102299 -0.122182 0.795681
0.103653 -0.122192 0.795749
0.105007 -0.122202 0.795816
0.106373 -0.122226 0.795970
0.107741 -0.122252 0.796136
0.109091 -0.122256 0.796163
0.110434 -0.122253 0.796144
0.111765 -0.122237 0.796040
0.113059 -0.122181 0.795675
0.114372 -0.122146 0.795449
0.115694 -0.122122 0.795293
0.117018 -0.122101 0.795156
0.118312 -0.122049 0.794818
0.119661 -0.122054 0.794850
0.120982 -0.122031 0.794702
0.122315 -0.122021 0.794634
0.123660 -0.122022 0.794643
0.125024 -0.122043 0.794775
0.126325 -0.122002 0.794510
0.127654 -0.121988 0.794420
0.128971 -0.121964 0.794261
0.130268 -0.121921 0.793980
0.131552 -0.121867 0.793630
0.132888 -0.121861 0.793595
0.134205 -0.121839 0.793449
0.135537 -0.121831 0.793394
0.136880 -0.121833 0.793408
0.138221 -0.121832 0.793405
0.139536 -0.121809 0.793257
0.140860 -0.121795 0.793159
0.142175 -0.121772 0.793013
0.143490 -0.121750 0.792871
0.144816 -0.121738 0.792793
0.146129 -0.121716 0.792647
0.147454 -0.121703 0.792565
0.148781 -0.121693 0.792498
0.150123 -0.121695 0.792508
0.151492 -0.121718 0.792660
0.152848 -0.121731 0.792747
0.154219 -0.121755 0.792901
0.155586 -0.121776 0.793040
0.156956 -0.121799 0.793189
0.158300 -0.121801 0.793203
0.159669 -0.121822 0.793340
0.161052 -0.121854 0.793545
-0.128597 -0.128431 0.836380
-0.129985 -0.128406 0.836212
-0.129963 -0.126967 0.836076
-0.128551 -0.126969 0.836084
-0.127175 -0.128424 0.836332
-0.127113 -0.126944 0.835920
-0.125777 -0.128439 0.836433
-0.125691 -0.126935 0.835865
-0.124378 -0.128455 0.836537
-0.124268 -0.126925 0.835796
-0.123010 -0.128504 0.836850
-0.122891 -0.126962 0.836041
-0.121609 -0.128518 0.836942
-0.121501 -0.126987 0.836204
-0.120123 -0.127024 0.836450
-0.118722 -0.127038 0.836540
-0.117319 -0.127050 0.836621
-0.115924 -0.127071 0.836759
-0.114500 -0.127061 0.836692
-0.113076 -0.127050 0.836622
-0.111651 -0.127038 0.836542
-0.110226 -0.127025 0.836457
-0.108783 -0.126992 0.836236
-0.107339 -0.126956 0.836001
-0.105875 -0.126895 0.835602
-0.104391 -0.126809 0.835032
-0.102873 -0.126677 0.834166
-0.101334 -0.126517 0.833111
-0.099818 -0.127791 0.832213
-0.099794 -0.126350 0.832009
-0.098239 -0.126159 0.830755
-0.096722 -0.126012 0.829788
-0.095206 -0.125864 0.828809
-0.093684 -0.125702 0.827741
-0.092126 -0.125485 0.826317
-0.090587 -0.125289 0.825021
-0.089046 -0.125083 0.823665
-0.087513 -0.124882 0.822344
-0.085999 -0.124704 0.821170
-0.084506 -0.124549 0.820153
-0.083039 -0.124427 0.819350
-0.081592 -0.124333 0.818730
-0.080170 -0.124275 0.818346
-0.078786 -0.124274 0.818341
-0.077410 -0.124286 0.818420
-0.076016 -0.124268 0.818303
-0.074611 -0.124234 0.818075
-0.073230 -0.124237 0.818094
-0.071814 -0.124179 0.817714
-0.070401 -0.124126 0.817362
-0.069005 -0.124100 0.817196
-0.067609 -0.124074 0.817022
-0.066191 -0.124005 0.816570
-0.064798 -0.123980 0.816405
-0.063410 -0.123966 0.816311
-0.062015 -0.123934 0.816103
-0.060624 -0.123911 0.815953
-0.059232 -0.123885 0.815781
-0.057836 -0.123849 0.815539
-0.056441 -0.123814 0.815308
-0.055053 -0.123791 0.815158
-0.053665 -0.123768 0.815011
-0.052282 -0.123757 0.814935
-0.050900 -0.123746 0.814861
-0.049518 -0.123735 0.814792
-0.048145 -0.123746 0.814861
-0.046767 -0.123746 0.814866
-0.045382 -0.123725 0.814727
-0.043996 -0.123701 0.814570
-0.042603 -0.123654 0.814259
-0.041203 -0.123585 0.813804
-0.039801 -0.123504 0.813267
-0.038401 -0.123421 0.812725
-0.037002 -0.123339 0.812181
-0.035611 -0.123278 0.811782
-0.034226 -0.123233 0.811482
-0.032849 -0.123211 0.811339
-0.031477 -0.123211 0.811339
-0.030103 -0.123200 0.811267
-0.028729 -0.123188 0.811186
-0.027354 -0.123175 0.811101
-0.025981 -0.123162 0.811020
-0.024603 -0.123129 0.810799
-0.023227 -0.123104 0.810633
-0.021850 -0.123066 0.810384
-0.020474 -0.123030 0.810146
-0.019099 -0.122996 0.809924
-0.017729 -0.122985 0.809851
-0.016357 -0.122964 0.809712
-0.014986 -0.122952 0.809636
-0.013616 -0.122940 0.809558
-0.012248 -0.122940 0.809555
-0.010880 -0.122951 0.809630
-0.009516 -0.123008 0.810003
-0.008190 -0.123661 0.814306
-0.006870 -0.124698 0.821135
-0.002814 -0.129685 0.853969
-0.001380 -0.130605 0.860032
0.000074 -0.131121 0.863425
0.001533 -0.131041 0.862903
0.002989 -0.130934 0.862193
0.004442 -0.130791 0.861257
0.005894 -0.130695 0.860625
0.007343 -0.130594 0.859955
0.008791 -0.130504 0.859367
0.010236 -0.130404 0.858703
0.011679 -0.130308 0.858073
0.013116 -0.130177 0.857209
0.014552 -0.130058 0.856430
0.015981 -0.129907 0.855437
0.017410 -0.129778 0.854581
0.018836 -0.129646 0.853713
0.020257 -0.129505 0.852786
0.021677 -0.129377 0.851945
0.023099 -0.129275 0.851271
0.024519 -0.129173 0.850599
0.025939 -0.129082 0.850002
0.027364 -0.129028 0.849647
0.028789 -0.128978 0.849319
0.030220 -0.128955 0.849161
0.031652 -0.128943 0.849085
0.033087 -0.128942 0.849079
0.034520 -0.128931 0.849005
0.035949 -0.128907 0.848851
0.037376 -0.128882 0.848683
0.038803 -0.128855 0.848509
0.040230 -0.128830 0.848341
0.041664 -0.128830 0.848341
0.043099 -0.128832 0.848355
0.044537 -0.128845 0.848442
0.045976 -0.128857 0.848518
0.047414 -0.128867 0.848588
0.048853 -0.128879 0.848666
0.050293 -0.128892 0.848751
0.051738 -0.128917 0.848913
0.053179 -0.128930 0.849003
0.054624 -0.128955 0.849166
0.056061 -0.128958 0.849185
0.057507 -0.128982 0.849343
0.058960 -0.129018 0.849580
0.060419 -0.129068 0.849910
0.061894 -0.129147 0.850426
0.063370 -0.129225 0.850945
0.064872 -0.129351 0.851775
0.066377 -0.129478 0.852611
0.067899 -0.129633 0.853630
0.069407 -0.129754 0.854423
0.070907 -0.129856 0.855100
0.072381 -0.129906 0.855425
0.073497 -0.129326 0.851608
0.075356 -0.122962 0.809703
0.076099 -0.121959 0.803097
0.077221 -0.121588 0.800656
0.078550 -0.121551 0.800407
0.079888 -0.121528 0.800257
0.081244 -0.121531 0.800278
0.082613 -0.121556 0.800440
0.083967 -0.121557 0.800452
0.085312 -0.121545 0.800369
0.086653 -0.121529 0.800263
0.087974 -0.121484 0.799969
0.089286 -0.121430 0.799610
0.090604 -0.121384 0.799311
0.091895 -0.121305 0.798790
0.093185 -0.121225 0.798266
0.094480 -0.121155 0.797804
0.095775 -0.121088 0.797359
0.097069 -0.121021 0.796919
0.098404 -0.121006 0.796822
0.099742 -0.120995 0.796745
0.101082 -0.120986 0.796691
0.102438 -0.120997 0.796764
0.103794 -0.121008 0.796832
0.105150 -0.121018 0.796902
0.106518 -0.121042 0.797057
0.107889 -0.121067 0.797225
0.109230 -0.121060 0.797178
0.110566 -0.121048 0.797094
0.111898 -0.121031 0.796987
0.113185 -0.120967 0.796563
0.114491 -0.120923 0.796275
0.115823 -0.120909 0.796183
0.117137 -0.120876 0.795966
0.118421 -0.120813 0.795548
0.119772 -0.120819 0.795588
0.121104 -0.120806 0.795502
0.122442 -0.120799 0.795458
0.123810 -0.120823 0.795612
0.125189 -0.120855 0.795825
0.126503 -0.120824 0.795625
0.127832 -0.120810 0.795530
0.129138 -0.120773 0.795288
0.130422 -0.120717 0.794919
0.131694 -0.120652 0.794489
0.133021 -0.120637 0.794390
0.134329 -0.120605 0.794183
0.135673 -0.120607 0.794194
0.137020 -0.120610 0.794215
0.138362 -0.120610 0.794214
0.139678 -0.120587 0.794060
0.140992 -0.120563 0.793901
0.142295 -0.120529 0.793683
0.143611 -0.120508 0.793539
0.144938 -0.120496 0.793459
0.146251 -0.120472 0.793307
0.147576 -0.120459 0.793220
0.148903 -0.120448 0.793148
0.150246 -0.120450 0.793159
0.151606 -0.120465 0.793256
0.152964 -0.120478 0.793345
0.154333 -0.120500 0.793491
0.155689 -0.120512 0.793565
0.157045 -0.120523 0.793639
0.158389 -0.120524 0.793646
0.159744 -0.120535 0.793716
0.161142 -0.120576 0.793988
-0.129922 -0.125510 0.835807
-0.128504 -0.125505 0.835777
-0.127062 -0.125476 0.835586
-0.125620 -0.125447 0.835388
-0.124184 -0.125423 0.835228
-0.122804 -0.125456 0.835451
-0.121406 -0.125471 0.835547
-0.120020 -0.125499 0.835735
-0.118621 -0.125513 0.835830
-0.117219 -0.125524 0.835905
-0.115815 -0.125535 0.835974
-0.114403 -0.125536 0.835982
-0.112991 -0.125538 0.835995
-0.111578 -0.125538 0.835995
-0.110163 -0.125536 0.835982
-0.108739 -0.125523 0.835897
-0.107295 -0.125488 0.835662
-0.105833 -0.125428 0.835266
-0.104347 -0.125340 0.834678
-0.102825 -0.125205 0.833780
-0.101286 -0.125045 0.832716
-0.099770 -0.124909 0.831810
-0.098242 -0.124755 0.830784
-0.096727 -0.124613 0.829838
-0.095214 -0.124469 0.828875
-0.093694 -0.124312 0.827828
-0.092137 -0.124099 0.826411
-0.090598 -0.123906 0.825125
-0.089065 -0.123713 0.823844
-0.087547 -0.123537 0.822669
-0.086036 -0.123363 0.821515
-0.084557 -0.123232 0.820641
-0.083103 -0.123134 0.819985
-0.081663 -0.123052 0.819443
-0.080241 -0.122997 0.819074
-0.078870 -0.123018 0.819212
-0.077493 -0.123031 0.819298
-0.076104 -0.123023 0.819249
-0.074704 -0.123000 0.819093
-0.073322 -0.123005 0.819126
-0.071906 -0.122950 0.818761
-0.070497 -0.122907 0.818476
-0.069100 -0.122884 0.818319
-0.067702 -0.122857 0.818142
-0.066282 -0.122789 0.817687
-0.064885 -0.122761 0.817501
-0.063490 -0.122736 0.817339
-0.062086 -0.122693 0.817047
-0.060688 -0.122658 0.816820
-0.059294 -0.122631 0.816639
-0.057886 -0.122573 0.816251
-0.056484 -0.122525 0.815932
-0.055089 -0.122490 0.815695
-0.053695 -0.122455 0.815463
-0.052306 -0.122432 0.815308
-0.050923 -0.122419 0.815227
-0.049540 -0.122408 0.815153
-0.048166 -0.122419 0.815227
-0.046788 -0.122420 0.815235
-0.045403 -0.122401 0.815102
-0.044020 -0.122388 0.815019
-0.042631 -0.122354 0.814791
-0.041234 -0.122297 0.814416
-0.039835 -0.122230 0.813964
-0.038440 -0.122168 0.813552
-0.037043 -0.122097 0.813083
-0.035655 -0.122050 0.812767
-0.034271 -0.122017 0.812545
-0.032895 -0.122006 0.812472
-0.031521 -0.122006 0.812472
-0.030145 -0.121995 0.812404
-0.028769 -0.121984 0.812331
-0.027393 -0.121972 0.812249
-0.026017 -0.121959 0.812163
-0.024635 -0.121915 0.811866
-0.023256 -0.121879 0.811626
-0.021877 -0.121842 0.811383
-0.020500 -0.121808 0.811156
-0.019124 -0.121777 0.810948
-0.017753 -0.121777 0.810948
-0.016380 -0.121767 0.810880
-0.015008 -0.121755 0.810802
-0.013636 -0.121742 0.810719
-0.012266 -0.121751 0.810777
-0.010897 -0.121763 0.810856
-0.009551 -0.122079 0.812964
-0.008240 -0.123036 0.819334
-0.006930 -0.124378 0.828271
-0.004237 -0.127606 0.849770
-0.002827 -0.128816 0.857824
-0.001382 -0.129357 0.861428
0.000074 -0.129554 0.862737
0.001532 -0.129488 0.862297
0.002988 -0.129395 0.861681
0.004440 -0.129266 0.860822
0.005891 -0.129170 0.860184
0.007339 -0.129068 0.859504
0.008786 -0.128979 0.858912
0.010230 -0.128879 0.858243
0.011673 -0.128786 0.857623
0.013109 -0.128658 0.856775
0.014545 -0.128542 0.856002
0.015973 -0.128394 0.855012
0.017400 -0.128253 0.854077
0.018824 -0.128121 0.853199
0.020242 -0.127969 0.852183
0.021662 -0.127843 0.851347
0.023083 -0.127743 0.850679
0.024504 -0.127655 0.850094
0.025924 -0.127568 0.849512
0.027349 -0.127516 0.849168
0.028773 -0.127467 0.848844
0.030203 -0.127444 0.848690
0.031635 -0.127433 0.848616
0.033069 -0.127433 0.848616
0.034504 -0.127433 0.848616
0.035932 -0.127409 0.848454
0.037358 -0.127382 0.848273
0.038783 -0.127352 0.848075
0.040208 -0.127325 0.847894
0.041642 -0.127325 0.847894
0.043076 -0.127328 0.847913
0.044515 -0.127343 0.848012
0.045948 -0.127342 0.848006
0.047381 -0.127341 0.847999
0.048814 -0.127339 0.847987
0.050248 -0.127340 0.847995
0.051687 -0.127354 0.848087
0.053126 -0.127365 0.848161
0.054570 -0.127388 0.848318
0.056004 -0.127388 0.848317
0.057450 -0.127414 0.848491
0.058901 -0.127451 0.848738
0.060360 -0.127503 0.849079
0.061832 -0.127578 0.849582
0.063307 -0.127656 0.850098
0.064807 -0.127780 0.850926
0.066318 -0.127919 0.851853
0.067841 -0.128075 0.852892
0.069354 -0.128208 0.853775
0.070867 -0.128334 0.854613
0.072353 -0.128407 0.855099
0.073654 -0.128155 0.853422
0.076322 -0.120952 0.805453
0.077251 -0.120277 0.800960
0.078587 -0.120250 0.800783
0.079926 -0.120228 0.800634
0.081281 -0.120230 0.800646
0.082651 -0.120254 0.800808
0.084007 -0.120257 0.800828
0.085353 -0.120245 0.800750
0.086695 -0.120230 0.800646
0.088023 -0.120195 0.800413
0.089343 -0.120151 0.800119
0.090670 -0.120116 0.799892
0.091980 -0.120061 0.799521
0.093280 -0.119994 0.799079
0.094577 -0.119927 0.798630
0.095883 -0.119871 0.798260
0.097189 -0.119818 0.797903
0.098519 -0.119795 0.797754
0.099859 -0.119785 0.797681
0.101208 -0.119785 0.797683
0.102557 -0.119786 0.797688
0.103914 -0.119795 0.797753
0.105272 -0.119806 0.797824
0.106640 -0.119828 0.797967
0.108001 -0.119841 0.798055
0.109342 -0.119831 0.797994
0.110678 -0.119818 0.797906
0.112024 -0.119814 0.797879
0.113324 -0.119763 0.797537
0.114641 -0.119731 0.797324
0.115984 -0.119725 0.797284
0.117298 -0.119691 0.797058
0.118582 -0.119627 0.796633
0.119935 -0.119633 0.796675
0.121271 -0.119623 0.796602
0.122612 -0.119617 0.796566
0.123983 -0.119641 0.796723
0.125365 -0.119674 0.796947
0.126681 -0.119644 0.796748
0.128003 -0.119621 0.796590
0.129298 -0.119573 0.796272
0.130571 -0.119506 0.795826
0.131832 -0.119430 0.795318
0.133158 -0.119413 0.795207
0.134467 -0.119381 0.794997
0.135825 -0.119394 0.795082
0.137172 -0.119396 0.795096
0.138516 -0.119397 0.795098
0.139821 -0.119363 0.794874
0.141135 -0.119338 0.794709
0.142428 -0.119295 0.794424
0.143746 -0.119274 0.794285
0.145075 -0.119263 0.794212
0.146391 -0.119242 0.794068
0.147706 -0.119219 0.793917
0.149019 -0.119196 0.793765
0.150347 -0.119186 0.793693
0.151690 -0.119186 0.793699
0.153035 -0.119189 0.793716
0.154404 -0.119210 0.793853
0.155759 -0.119220 0.793921
0.157115 -0.119230 0.793987
0.158458 -0.119231 0.793992
0.159826 -0.119250 0.794122
0.161226 -0.119293 0.794405
-0.128461 -0.124047 0.835499
-0.127015 -0.124014 0.835277
-0.125569 -0.123981 0.835053
-0.124134 -0.123957 0.834895
-0.122744 -0.123979 0.835038
-0.121346 -0.123993 0.835132
-0.119959 -0.124018 0.835304
-0.118560 -0.124033 0.835402
-0.117157 -0.124042 0.835467
-0.115754 -0.124053 0.835536
-0.114343 -0.124054 0.835547
-0.112924 -0.124047 0.835498
-0.111501 -0.124036 0.835421
-0.110085 -0.124031 0.835391
-0.108661 -0.124018 0.835301
-0.107221 -0.123985 0.835079
-0.105769 -0.123938 0.834766
-0.104287 -0.123854 0.834195
-0.102765 -0.123719 0.833290
-0.101237 -0.123574 0.832311
-0.099731 -0.123452 0.831487
-0.098215 -0.123313 0.830557
-0.096719 -0.123196 0.829767
-0.095215 -0.123065 0.828884
-0.093704 -0.122921 0.827917
-0.092164 -0.122734 0.826655
-0.090643 -0.122567 0.825533
-0.089126 -0.122400 0.824404
-0.087622 -0.122246 0.823366
-0.086116 -0.122085 0.822281
-0.084643 -0.121966 0.821479
-0.083197 -0.121882 0.820913
-0.081763 -0.121813 0.820452
-0.080348 -0.121770 0.820164
-0.078975 -0.121792 0.820309
-0.077590 -0.121794 0.820322
-0.076198 -0.121785 0.820265
-0.074804 -0.121774 0.820187
-0.073422 -0.121780 0.820232
-0.072016 -0.121748 0.820014
-0.070611 -0.121716 0.819801
-0.069211 -0.121692 0.819637
-0.067805 -0.121654 0.819382
-0.066382 -0.121587 0.818926
-0.064979 -0.121550 0.818680
-0.063582 -0.121526 0.818517
-0.062170 -0.121472 0.818153
-0.060764 -0.121426 0.817844
-0.059363 -0.121387 0.817580
-0.057947 -0.121318 0.817115
-0.056539 -0.121261 0.816733
-0.055138 -0.121214 0.816420
-0.053737 -0.121167 0.816103
-0.052341 -0.121131 0.815855
-0.050952 -0.121107 0.815695
-0.049564 -0.121085 0.815550
-0.048190 -0.121097 0.815626
-0.046811 -0.121098 0.815636
-0.045429 -0.121089 0.815574
-0.044049 -0.121086 0.815554
-0.042659 -0.121053 0.815329
-0.041262 -0.120997 0.814955
-0.039865 -0.120940 0.814569
-0.038469 -0.120881 0.814174
-0.037072 -0.120812 0.813712
-0.035686 -0.120778 0.813477
-0.034304 -0.120756 0.813329
-0.032927 -0.120745 0.813261
-0.031552 -0.120745 0.813261
-0.030177 -0.120745 0.813261
-0.028802 -0.120745 0.813261
-0.027425 -0.120735 0.813188
-0.026047 -0.120723 0.813107
-0.024666 -0.120689 0.812880
-0.023285 -0.120654 0.812645
-0.021905 -0.120619 0.812411
-0.020528 -0.120596 0.812257
-0.019151 -0.120576 0.812116
-0.017778 -0.120576 0.812116
-0.016405 -0.120576 0.812116
-0.015031 -0.120564 0.812041
-0.013657 -0.120552 0.811956
-0.012285 -0.120559 0.812008
-0.010914 -0.120582 0.812158
-0.009586 -0.121155 0.816019
-0.008291 -0.122397 0.824384
-0.005647 -0.125593 0.845912
-0.004267 -0.127064 0.855821
-0.002839 -0.127905 0.861480
-0.001384 -0.128107 0.862845
0.000074 -0.128023 0.862280
0.001531 -0.127960 0.861853
0.002986 -0.127870 0.861248
0.004438 -0.127742 0.860383
0.005887 -0.127637 0.859679
0.007335 -0.127533 0.858980
0.008781 -0.127446 0.858393
0.010224 -0.127348 0.857730
0.011665 -0.127247 0.857050
0.013102 -0.127131 0.856268
0.014536 -0.127017 0.855501
0.015964 -0.126870 0.854512
0.017388 -0.126720 0.853500
0.018811 -0.126589 0.852617
0.020229 -0.126437 0.851596
0.021647 -0.126313 0.850760
0.023067 -0.126214 0.850091
0.024490 -0.126140 0.849592
0.025911 -0.126066 0.849095
0.027335 -0.126015 0.848756
0.028759 -0.125967 0.848429
0.030188 -0.125943 0.848267
0.031619 -0.125931 0.848187
0.033053 -0.125931 0.848187
0.034487 -0.125931 0.848187
0.035914 -0.125907 0.848026
0.037339 -0.125880 0.847845
0.038764 -0.125851 0.847646
0.040188 -0.125824 0.847465
0.041621 -0.125824 0.847465
0.043054 -0.125827 0.847485
0.044492 -0.125841 0.847582
0.045925 -0.125840 0.847573
0.047357 -0.125838 0.847558
0.048789 -0.125837 0.847554
0.050223 -0.125839 0.847564
0.051657 -0.125841 0.847582
0.053084 -0.125829 0.847499
0.054521 -0.125838 0.847559
0.055948 -0.125826 0.847478
0.057393 -0.125851 0.847647
0.058844 -0.125890 0.847908
0.060307 -0.125953 0.848334
0.061778 -0.126027 0.848831
0.063250 -0.126102 0.849338
0.064748 -0.126223 0.850155
0.066259 -0.126363 0.851094
0.067786 -0.126528 0.852211
0.069312 -0.126683 0.853253
0.070838 -0.126833 0.854264
0.072332 -0.126921 0.854852
0.073806 -0.126969 0.855180
0.074583 -0.127279 0.847589
0.074943 -0.126450 0.851682
0.076550 -0.119943 0.807856
0.077286 -0.118974 0.801327
0.078625 -0.118950 0.801166
0.079971 -0.118938 0.801087
0.081334 -0.118950 0.801166
0.082704 -0.118973 0.801323
0.084060 -0.118975 0.801335
0.085414 -0.118973 0.801323
0.086752 -0.118950 0.801171
0.088075 -0.118908 0.800884
0.089396 -0.118865 0.800596
0.090731 -0.118840 0.800426
0.092050 -0.118796 0.800133
0.093368 -0.118753 0.799839
0.094686 -0.118709 0.799546
0.096010 -0.118675 0.799314
0.097334 -0.118642 0.799092
0.098667 -0.118621 0.798951
0.100010 -0.118611 0.798885
0.101360 -0.118611 0.798885
0.102711 -0.118611 0.798885
0.104061 -0.118611 0.798885
0.105421 -0.118621 0.798951
0.106772 -0.118621 0.798955
0.108123 -0.118622 0.798957
0.109454 -0.118601 0.798815
0.110783 -0.118577 0.798657
0.112130 -0.118574 0.798634
0.113451 -0.118544 0.798433
0.114772 -0.118514 0.798234
0.116118 -0.118510 0.798207
0.117443 -0.118486 0.798044
0.118730 -0.118424 0.797627
0.120084 -0.118429 0.797661
0.121432 -0.118429 0.797657
0.122784 -0.118432 0.797681
0.124158 -0.118456 0.797842
0.125540 -0.118488 0.798055
0.126857 -0.118458 0.797856
0.128181 -0.118435 0.797700
0.129469 -0.118379 0.797324
0.130743 -0.118313 0.796874
0.132003 -0.118235 0.796354
0.133321 -0.118210 0.796181
0.134619 -0.118168 0.795898
0.135988 -0.118188 0.796037
0.137326 -0.118181 0.795988
0.138672 -0.118182 0.795994
0.139989 -0.118158 0.795832
0.141317 -0.118143 0.795730
0.142610 -0.118100 0.795442
0.143941 -0.118089 0.795366
0.145275 -0.118080 0.795307
0.146595 -0.118060 0.795172
0.147911 -0.118038 0.795023
0.149211 -0.118003 0.794787
0.150536 -0.117988 0.794688
0.151864 -0.117976 0.794608
0.153182 -0.117957 0.794479
0.154512 -0.117946 0.794408
0.155839 -0.117935 0.794329
0.157154 -0.117914 0.794188
0.158484 -0.117904 0.794122
0.159854 -0.117925 0.794263
0.161270 -0.117978 0.794620
0.163832 -0.120219 0.800576
0.162691 -0.118034 0.795001
-0.129891 -0.122647 0.835611
-0.128462 -0.122632 0.835506
-0.127017 -0.122600 0.835288
-0.125567 -0.122564 0.835040
-0.124132 -0.122540 0.834881
-0.122730 -0.122550 0.834947
-0.121322 -0.122553 0.834966
-0.119923 -0.122566 0.835054
-0.118521 -0.122576 0.835128
-0.117108 -0.122575 0.835118
-0.115696 -0.122575 0.835115
-0.114285 -0.122576 0.835124
-0.112855 -0.122556 0.834988
-0.111422 -0.122532 0.834826
-0.110006 -0.122527 0.834792
-0.108584 -0.122515 0.834707
-0.107156 -0.122496 0.834578
-0.105718 -0.122463 0.834358
-0.104246 -0.122392 0.833871
-0.102725 -0.122259 0.832967
-0.101206 -0.122126 0.832059
-0.099702 -0.122007 0.831246
-0.098197 -0.121883 0.830404
-0.096719 -0.121789 0.829766
-0.095232 -0.121681 0.829030
-0.093730 -0.121552 0.828146
-0.092207 -0.121390 0.827043
-0.090696 -0.121238 0.826010
-0.089186 -0.121084 0.824962
-0.087689 -0.120943 0.824002
-0.086198 -0.120805 0.823061
-0.084725 -0.120690 0.822279
-0.083286 -0.120618 0.821787
-0.081851 -0.120551 0.821328
-0.080440 -0.120518 0.821107
-0.079066 -0.120540 0.821253
-0.077680 -0.120543 0.821274
-0.076293 -0.120545 0.821290
-0.074903 -0.120543 0.821274
-0.073513 -0.120540 0.821253
-0.072105 -0.120508 0.821037
-0.070705 -0.120486 0.820888
-0.069303 -0.120462 0.820722
-0.067890 -0.120416 0.820410
-0.066471 -0.120359 0.820019
-0.065060 -0.120313 0.819706
-0.063656 -0.120278 0.819468
-0.062243 -0.120225 0.819106
-0.060839 -0.120188 0.818853
-0.059437 -0.120151 0.818601
-0.058025 -0.120093 0.818209
-0.056615 -0.120037 0.817829
-0.055206 -0.119979 0.817435
-0.053798 -0.119921 0.817039
-0.052396 -0.119874 0.816715
-0.051001 -0.119840 0.816482
-0.049612 -0.119818 0.816334
-0.048236 -0.119829 0.816408
-0.046852 -0.119820 0.816347
-0.045464 -0.119798 0.816201
-0.044079 -0.119785 0.816111
-0.042687 -0.119749 0.815867
-0.041289 -0.119695 0.815500
-0.039895 -0.119648 0.815179
-0.038505 -0.119612 0.814930
-0.037110 -0.119557 0.814553
-0.035726 -0.119534 0.814398
-0.034343 -0.119513 0.814254
-0.032964 -0.119502 0.814182
-0.031587 -0.119502 0.814180
-0.030213 -0.119512 0.814249
-0.028837 -0.119513 0.814256
-0.027459 -0.119504 0.814194
-0.026080 -0.119492 0.814115
-0.024696 -0.119459 0.813888
-0.023314 -0.119425 0.813656
-0.021932 -0.119391 0.813422
-0.020555 -0.119378 0.813336
-0.019178 -0.119367 0.813261
-0.017803 -0.119367 0.813261
-0.016428 -0.119367 0.813261
-0.015052 -0.119356 0.813188
-0.013677 -0.119354 0.813175
-0.012304 -0.119374 0.813312
-0.010933 -0.119409 0.813548
-0.009625 -0.120249 0.819274
-0.005677 -0.124814 0.850371
-0.004285 -0.126164 0.859568
-0.002843 -0.126657 0.862927
-0.001384 -0.126581 0.862413
0.000074 -0.126498 0.861846
0.001530 -0.126436 0.861422
0.002985 -0.126348 0.860821
0.004435 -0.126210 0.859882
0.005884 -0.126105 0.859171
0.007330 -0.125992 0.858401
0.008775 -0.125908 0.857825
0.010217 -0.125810 0.857158
0.011658 -0.125721 0.856553
0.013094 -0.125606 0.855770
0.014528 -0.125493 0.854996
0.015955 -0.125346 0.853999
0.017376 -0.125187 0.852913
0.018799 -0.125058 0.852036
0.020215 -0.124908 0.851011
0.021634 -0.124796 0.850251
0.023054 -0.124699 0.849592
0.024478 -0.124638 0.849171
0.025898 -0.124565 0.848674
0.027322 -0.124514 0.848328
0.028744 -0.124464 0.847987
0.030172 -0.124438 0.847814
0.031602 -0.124426 0.847732
0.033032 -0.124416 0.847659
0.034465 -0.124415 0.847653
0.035891 -0.124392 0.847497
0.037317 -0.124368 0.847332
0.038738 -0.124332 0.847089
0.040162 -0.124307 0.846915
0.041593 -0.124305 0.846907
0.043022 -0.124297 0.846848
0.044454 -0.124298 0.846858
0.045886 -0.124298 0.846854
0.047316 -0.124295 0.846837
0.048744 -0.124284 0.846761
0.050176 -0.124285 0.846769
0.051608 -0.124286 0.846776
0.053034 -0.124274 0.846696
0.054469 -0.124282 0.846749
0.055900 -0.124281 0.846742
0.057347 -0.124316 0.846982
0.058798 -0.124355 0.847248
0.060260 -0.124417 0.847666
0.061724 -0.124478 0.848087
0.063189 -0.124540 0.848507
0.064679 -0.124648 0.849244
0.066181 -0.124773 0.850095
0.067707 -0.124936 0.851205
0.069243 -0.125112 0.852402
0.070775 -0.125273 0.853503
0.072277 -0.125376 0.854203
0.073764 -0.125449 0.854702
0.075089 -0.125250 0.853342
0.077527 -0.117982 0.803825
0.078682 -0.117678 0.801754
0.080024 -0.117658 0.801616
0.081387 -0.117669 0.801695
0.082744 -0.117672 0.801712
0.084100 -0.117672 0.801714
0.085461 -0.117680 0.801771
0.086809 -0.117669 0.801695
0.088134 -0.117629 0.801424
0.089472 -0.117607 0.801270
0.090808 -0.117583 0.801105
0.092129 -0.117541 0.800818
0.093450 -0.117499 0.800536
0.094785 -0.117476 0.800380
0.096118 -0.117452 0.800216
0.097453 -0.117430 0.800067
0.098796 -0.117420 0.799994
0.100149 -0.117420 0.799994
0.101501 -0.117420 0.799994
0.102853 -0.117420 0.799994
0.104206 -0.117420 0.799994
0.105558 -0.117420 0.799994
0.106901 -0.117409 0.799923
0.108243 -0.117398 0.799844
0.109565 -0.117365 0.799624
0.110894 -0.117341 0.799461
0.112253 -0.117349 0.799513
0.113587 -0.117331 0.799392
0.114911 -0.117303 0.799200
0.116260 -0.117301 0.799183
0.117577 -0.117267 0.798956
0.118866 -0.117206 0.798538
0.120213 -0.117203 0.798521
0.121563 -0.117203 0.798519
0.122914 -0.117204 0.798527
0.124287 -0.117226 0.798674
0.125659 -0.117246 0.798812
0.126988 -0.117226 0.798678
0.128324 -0.117214 0.798591
0.129624 -0.117168 0.798283
0.130912 -0.117113 0.797908
0.132176 -0.117038 0.797396
0.133495 -0.117012 0.797218
0.134793 -0.116969 0.796926
0.136165 -0.116991 0.797073
0.137493 -0.116974 0.796956
0.138852 -0.116984 0.797024
0.140171 -0.116960 0.796863
0.141500 -0.116946 0.796765
0.142797 -0.116904 0.796483
0.144143 -0.116904 0.796479
0.145477 -0.116894 0.796412
0.146798 -0.116874 0.796277
0.148116 -0.116852 0.796126
0.149406 -0.116808 0.795826
0.150718 -0.116782 0.795648
0.152033 -0.116759 0.795492
0.153337 -0.116728 0.795283
0.154653 -0.116706 0.795135
0.155953 -0.116673 0.794910
0.157238 -0.116630 0.794614
0.158539 -0.116598 0.794399
0.159910 -0.116619 0.794539
0.161303 -0.116655 0.794782
0.162729 -0.116714 0.795185
0.164185 -0.118142 0.795727
0.164196 -0.116801 0.795782
-0.128463 -0.121216 0.835511
-0.127030 -0.121197 0.835375
-0.125597 -0.121177 0.835237
-0.124180 -0.121171 0.835201
-0.122768 -0.121171 0.835201
-0.121357 -0.121172 0.835209
-0.119935 -0.121163 0.835142
-0.118511 -0.121150 0.835054
-0.117076 -0.121126 0.834887
-0.115652 -0.121113 0.834798
-0.114232 -0.121103 0.834732
-0.112791 -0.121071 0.834512
-0.111346 -0.121035 0.834260
-0.109929 -0.121027 0.834209
-0.108509 -0.121016 0.834132
-0.107095 -0.121012 0.834103
-0.105669 -0.120994 0.833979
-0.104208 -0.120934 0.833565
-0.102695 -0.120812 0.832727
-0.101185 -0.120690 0.831881
-0.099683 -0.120574 0.831086
-0.098188 -0.120464 0.830325
-0.096719 -0.120383 0.829766
-0.095241 -0.120287 0.829106
-0.093756 -0.120180 0.828371
-0.092251 -0.120044 0.827431
-0.090756 -0.119918 0.826560
-0.089263 -0.119790 0.825677
-0.087781 -0.119672 0.824866
-0.086297 -0.119548 0.824012
-0.084831 -0.119445 0.823304
-0.083398 -0.119386 0.822893
-0.081967 -0.119329 0.822500
-0.080555 -0.119296 0.822271
-0.079172 -0.119306 0.822346
-0.077783 -0.119309 0.822362
-0.076387 -0.119300 0.822302
-0.074989 -0.119288 0.822218
-0.073591 -0.119274 0.822124
-0.072181 -0.119241 0.821899
-0.070773 -0.119210 0.821683
-0.069370 -0.119187 0.821521
-0.067961 -0.119150 0.821270
-0.066547 -0.119104 0.820951
-0.065140 -0.119069 0.820710
-0.063740 -0.119045 0.820548
-0.062324 -0.118992 0.820180
-0.060914 -0.118946 0.819865
-0.059510 -0.118909 0.819605
-0.058097 -0.118853 0.819220
-0.056686 -0.118799 0.818849
-0.055280 -0.118753 0.818535
-0.053870 -0.118696 0.818136
-0.052461 -0.118637 0.817731
-0.051064 -0.118602 0.817488
-0.049669 -0.118571 0.817274
-0.048287 -0.118571 0.817276
-0.046902 -0.118560 0.817205
-0.045511 -0.118537 0.817046
-0.044121 -0.118513 0.816880
-0.042724 -0.118468 0.816569
-0.041324 -0.118413 0.816189
-0.039928 -0.118367 0.815869
-0.038538 -0.118332 0.815627
-0.037142 -0.118278 0.815259
-0.035760 -0.118266 0.815178
-0.034376 -0.118245 0.815031
-0.032995 -0.118234 0.814954
-0.031617 -0.118233 0.814949
-0.030242 -0.118244 0.815023
-0.028865 -0.118246 0.815036
-0.027487 -0.118247 0.815044
-0.026109 -0.118246 0.815036
-0.024727 -0.118223 0.814876
-0.023344 -0.118199 0.814713
-0.021963 -0.118176 0.814553
-0.020583 -0.118164 0.814472
-0.019203 -0.118143 0.814330
-0.017825 -0.118133 0.814256
-0.016447 -0.118122 0.814180
-0.015069 -0.118111 0.814107
-0.013693 -0.118112 0.814113
-0.012321 -0.118154 0.814406
-0.010971 -0.118443 0.816397
-0.009681 -0.119553 0.824046
-0.007068 -0.122566 0.844811
-0.005703 -0.123935 0.854251
-0.004294 -0.124954 0.861271
-0.002842 -0.125147 0.862606
-0.001383 -0.125083 0.862163
0.000074 -0.124989 0.861518
0.001530 -0.124928 0.861091
0.002983 -0.124838 0.860473
0.004433 -0.124690 0.859454
0.005880 -0.124575 0.858660
0.007325 -0.124463 0.857888
0.008770 -0.124378 0.857304
0.010210 -0.124273 0.856579
0.011650 -0.124185 0.855971
0.013084 -0.124058 0.855100
0.014515 -0.123933 0.854234
0.015939 -0.123777 0.853163
0.017361 -0.123631 0.852157
0.018782 -0.123504 0.851281
0.020197 -0.123357 0.850264
0.021615 -0.123247 0.849511
0.023036 -0.123164 0.848933
0.024459 -0.123104 0.848520
0.025881 -0.123043 0.848101
0.027303 -0.122991 0.847745
0.028724 -0.122941 0.847401
0.030148 -0.122905 0.847149
0.031574 -0.122882 0.846990
0.033000 -0.122860 0.846837
0.034431 -0.122858 0.846829
0.035860 -0.122847 0.846750
0.037288 -0.122836 0.846675
0.038712 -0.122814 0.846523
0.040139 -0.122801 0.846434
0.041569 -0.122799 0.846421
0.042997 -0.122788 0.846348
0.044424 -0.122778 0.846275
0.045854 -0.122777 0.846268
0.047284 -0.122775 0.846254
0.048710 -0.122763 0.846175
0.050141 -0.122764 0.846180
0.051571 -0.122765 0.846183
0.052992 -0.122742 0.846026
0.054421 -0.122739 0.846004
0.055850 -0.122737 0.845994
0.057298 -0.122773 0.846244
0.058747 -0.122813 0.846518
0.060213 -0.122884 0.847007
0.061675 -0.122944 0.847417
0.063138 -0.123002 0.847823
0.064621 -0.123098 0.848484
0.066115 -0.123209 0.849243
0.067631 -0.123357 0.850263
0.069165 -0.123529 0.851448
0.070703 -0.123701 0.852641
0.072206 -0.123807 0.853365
0.073706 -0.123903 0.854027
0.075199 -0.123984 0.854586
0.075814 -0.124074 0.845329
0.076130 -0.123152 0.848854
0.077946 -0.117250 0.808170
0.078921 -0.116672 0.804186
0.080105 -0.116416 0.802423
0.081470 -0.116429 0.802513
0.082822 -0.116422 0.802463
0.084177 -0.116420 0.802448
0.085531 -0.116416 0.802425
0.086873 -0.116396 0.802289
0.088208 -0.116368 0.802096
0.089561 -0.116365 0.802073
0.090899 -0.116342 0.801912
0.092229 -0.116310 0.801690
0.093560 -0.116279 0.801479
0.094905 -0.116267 0.801395
0.096242 -0.116245 0.801245
0.097587 -0.116234 0.801167
0.098932 -0.116223 0.801095
0.100286 -0.116223 0.801095
0.101641 -0.116223 0.801095
0.102995 -0.116223 0.801095
0.104349 -0.116223 0.801095
0.105695 -0.116214 0.801029
0.107030 -0.116193 0.800884
0.108363 -0.116170 0.800728
0.109675 -0.116126 0.800425
0.110987 -0.116083 0.800131
0.112337 -0.116081 0.800115
0.113682 -0.116073 0.800061
0.115019 -0.116057 0.799947
0.116378 -0.116064 0.799997
0.117717 -0.116051 0.799905
0.119027 -0.116009 0.799619
0.120366 -0.115997 0.799538
0.121717 -0.115997 0.799533
0.123060 -0.115988 0.799475
0.124423 -0.115998 0.799545
0.125774 -0.115998 0.799545
0.127114 -0.115987 0.799469
0.128442 -0.115966 0.799322
0.129746 -0.115924 0.799032
0.131048 -0.115880 0.798732
0.132334 -0.115825 0.798349
0.133645 -0.115791 0.798115
0.134957 -0.115759 0.797898
0.136330 -0.115780 0.798037
0.137659 -0.115763 0.797921
0.139021 -0.115773 0.797994
0.140354 -0.115760 0.797902
0.141688 -0.115748 0.797819
0.142999 -0.115718 0.797612
0.144336 -0.115708 0.797545
0.145669 -0.115696 0.797463
0.146990 -0.115675 0.797318
0.148298 -0.115644 0.797101
0.149590 -0.115601 0.796808
0.150919 -0.115587 0.796710
0.152237 -0.115565 0.796558
0.153545 -0.115536 0.796359
0.154861 -0.115514 0.796204
0.156118 -0.115448 0.795749
0.157383 -0.115389 0.795346
0.158666 -0.115344 0.795034
0.160038 -0.115364 0.795175
0.161435 -0.115402 0.795437
0.162876 -0.115470 0.795905
0.164314 -0.115535 0.796355
0.166905 -0.117763 0.802335
0.165793 -0.115628 0.796990
-0.128501 -0.119835 0.835758
-0.127075 -0.119823 0.835671
-0.125647 -0.119809 0.835573
-0.124243 -0.119817 0.835627
-0.122830 -0.119817 0.835627
-0.121409 -0.119808 0.835570
-0.119986 -0.119797 0.835492
-0.118548 -0.119771 0.835312
-0.117099 -0.119735 0.835054
-0.115654 -0.119699 0.834809
-0.114221 -0.119677 0.834655
-0.112759 -0.119623 0.834278
-0.111304 -0.119575 0.833941
-0.109887 -0.119567 0.833885
-0.108477 -0.119567 0.833885
-0.107074 -0.119575 0.833941
-0.105660 -0.119569 0.833902
-0.104207 -0.119520 0.833560
-0.102694 -0.119400 0.832718
-0.101183 -0.119278 0.831871
-0.099682 -0.119164 0.831077
-0.098187 -0.119056 0.830319
-0.096719 -0.118976 0.829766
-0.095249 -0.118893 0.829184
-0.093774 -0.118800 0.828535
-0.092287 -0.118689 0.827761
-0.090810 -0.118587 0.827048
-0.089333 -0.118483 0.826324
-0.087866 -0.118389 0.825667
-0.086397 -0.118289 0.824970
-0.084939 -0.118200 0.824353
-0.083504 -0.118142 0.823946
-0.082071 -0.118083 0.823537
-0.080648 -0.118039 0.823227
-0.079263 -0.118048 0.823291
-0.077866 -0.118041 0.823242
-0.076469 -0.118032 0.823183
-0.075068 -0.118018 0.823083
-0.073667 -0.118002 0.822975
-0.072249 -0.117959 0.822674
-0.070846 -0.117938 0.822524
-0.069448 -0.117926 0.822441
-0.068044 -0.117902 0.822277
-0.066635 -0.117868 0.822038
-0.065231 -0.117842 0.821858
-0.063824 -0.117810 0.821630
-0.062406 -0.117756 0.821256
-0.060994 -0.117711 0.820942
-0.059588 -0.117674 0.820687
-0.058174 -0.117621 0.820314
-0.056767 -0.117578 0.820014
-0.055364 -0.117544 0.819776
-0.053952 -0.117487 0.819377
-0.052541 -0.117429 0.818978
-0.051141 -0.117394 0.818729
-0.049744 -0.117362 0.818506
-0.048352 -0.117342 0.818366
-0.046964 -0.117330 0.818285
-0.045571 -0.117307 0.818122
-0.044175 -0.117271 0.817875
-0.042772 -0.117217 0.817496
-0.041370 -0.117161 0.817107
-0.039974 -0.117116 0.816789
-0.038582 -0.117081 0.816551
-0.037188 -0.117039 0.816258
-0.035807 -0.117038 0.816248
-0.034424 -0.117025 0.816161
-0.033041 -0.117015 0.816086
-0.031661 -0.117013 0.816075
-0.030284 -0.117024 0.816151
-0.028905 -0.117027 0.816172
-0.027526 -0.117029 0.816182
-0.026146 -0.117027 0.816172
-0.024761 -0.117003 0.816006
-0.023377 -0.116980 0.815847
-0.021992 -0.116949 0.815626
-0.020609 -0.116928 0.815479
-0.019225 -0.116896 0.815260
-0.017843 -0.116874 0.815104
-0.016462 -0.116852 0.814949
-0.015086 -0.116860 0.815010
-0.013711 -0.116883 0.815168
-0.012338 -0.116939 0.815559
-0.011011 -0.117485 0.819366
-0.009736 -0.118835 0.828781
-0.008390 -0.121025 0.834189
-0.008436 -0.120266 0.838762
-0.007103 -0.121725 0.848936
-0.005727 -0.123008 0.857885
-0.004302 -0.123718 0.862833
-0.002842 -0.123662 0.862448
-0.001383 -0.123600 0.862010
0.000074 -0.123506 0.861354
0.001529 -0.123432 0.860840
0.002982 -0.123319 0.860054
0.004430 -0.123160 0.858944
0.005877 -0.123043 0.858129
0.007321 -0.122932 0.857355
0.008763 -0.122839 0.856702
0.010204 -0.122744 0.856042
0.011642 -0.122645 0.855354
0.013073 -0.122509 0.854407
0.014502 -0.122374 0.853462
0.015926 -0.122230 0.852456
0.017345 -0.122075 0.851377
0.018765 -0.121951 0.850514
0.020181 -0.121817 0.849578
0.021600 -0.121720 0.848903
0.023017 -0.121629 0.848266
0.024442 -0.121580 0.847928
0.025863 -0.121521 0.847510
0.027282 -0.121460 0.847089
0.028700 -0.121400 0.846673
0.030122 -0.121364 0.846415
0.031544 -0.121330 0.846180
0.032968 -0.121307 0.846019
0.034398 -0.121305 0.846008
0.035828 -0.121303 0.845996
0.037258 -0.121305 0.846008
0.038686 -0.121295 0.845938
0.040115 -0.121293 0.845927
0.041544 -0.121290 0.845904
0.042966 -0.121268 0.845749
0.044388 -0.121247 0.845601
0.045813 -0.121233 0.845507
0.047237 -0.121220 0.845417
0.048657 -0.121198 0.845263
0.050086 -0.121198 0.845263
0.051515 -0.121198 0.845263
0.052934 -0.121176 0.845105
0.054362 -0.121173 0.845088
0.055795 -0.121183 0.845160
0.057241 -0.121220 0.845414
0.058690 -0.121261 0.845697
0.060155 -0.121332 0.846192
0.061620 -0.121400 0.846671
0.063082 -0.121458 0.847075
0.064563 -0.121551 0.847722
0.066055 -0.121659 0.848473
0.067563 -0.121792 0.849405
0.069088 -0.121949 0.850501
0.070625 -0.122120 0.851688
0.072125 -0.122223 0.852409
0.073624 -0.122319 0.853081
0.075122 -0.122410 0.853711
0.076241 -0.121892 0.850101
0.076795 -0.121930 0.840427
0.077144 -0.121053 0.844247
0.079393 -0.115997 0.808989
0.080380 -0.115451 0.805179
0.081564 -0.115200 0.803430
0.082909 -0.115182 0.803302
0.084256 -0.115167 0.803201
0.085602 -0.115151 0.803091
0.086938 -0.115123 0.802892
0.088274 -0.115096 0.802701
0.089645 -0.115113 0.802826
0.090999 -0.115109 0.802796
0.092339 -0.115088 0.802647
0.093688 -0.115078 0.802575
0.095044 -0.115076 0.802568
0.096383 -0.115056 0.802425
0.097723 -0.115036 0.802285
0.099070 -0.115025 0.802209
0.100409 -0.115006 0.802073
0.101764 -0.115005 0.802070
0.103121 -0.115006 0.802073
0.104486 -0.115015 0.802142
0.105833 -0.115006 0.802076
0.107169 -0.114984 0.801925
0.108493 -0.114951 0.801691
0.109806 -0.114906 0.801382
0.111109 -0.114853 0.801013
0.112451 -0.114840 0.800922
0.113797 -0.114833 0.800868
0.115133 -0.114815 0.800744
0.116476 -0.114804 0.800669
0.117824 -0.114799 0.800633
0.119145 -0.114767 0.800413
0.120487 -0.114757 0.800340
0.121840 -0.114757 0.800340
0.123193 -0.114757 0.800340
0.124546 -0.114757 0.800340
0.125888 -0.114747 0.800269
0.127229 -0.114736 0.800195
0.128558 -0.114715 0.800049
0.129876 -0.114684 0.799831
0.131180 -0.114642 0.799540
0.132471 -0.114590 0.799174
0.133782 -0.114556 0.798937
0.135096 -0.114524 0.798716
0.136448 -0.114526 0.798729
0.137778 -0.114509 0.798611
0.139139 -0.114518 0.798676
0.140475 -0.114506 0.798593
0.141825 -0.114506 0.798591
0.143152 -0.114488 0.798465
0.144489 -0.114478 0.798394
0.145822 -0.114465 0.798304
0.147154 -0.114451 0.798206
0.148451 -0.114411 0.797926
0.149759 -0.114379 0.797707
0.151105 -0.114377 0.797692
0.152440 -0.114368 0.797624
0.153752 -0.114340 0.797435
0.155084 -0.114329 0.797352
0.156343 -0.114263 0.796895
0.157607 -0.114203 0.796477
0.158885 -0.114154 0.796134
0.160258 -0.114173 0.796265
0.161643 -0.114200 0.796458
0.163085 -0.114267 0.796925
0.164490 -0.114307 0.797204
0.165906 -0.114355 0.797534
-0.127134 -0.118461 0.836057
-0.125712 -0.118454 0.836004
-0.124318 -0.118472 0.836132
-0.122916 -0.118483 0.836209
-0.121494 -0.118475 0.836153
-0.120069 -0.118463 0.836073
-0.118619 -0.118426 0.835813
-0.117146 -0.118366 0.835384
-0.115677 -0.118308 0.834975
-0.114242 -0.118283 0.834804
-0.112770 -0.118220 0.834355
-0.111314 -0.118172 0.834020
-0.109897 -0.118164 0.833962
-0.108496 -0.118174 0.834028
-0.107084 -0.118172 0.834018
-0.105670 -0.118167 0.833982
-0.104218 -0.118119 0.833643
-0.102704 -0.117999 0.832798
-0.101185 -0.117869 0.831881
-0.099683 -0.117757 0.831086
-0.098196 -0.117659 0.830395
-0.096728 -0.117581 0.829843
-0.095267 -0.117509 0.829338
-0.093801 -0.117429 0.828774
-0.092331 -0.117341 0.828155
-0.090871 -0.117264 0.827610
-0.089418 -0.117194 0.827112
-0.087968 -0.117124 0.826623
-0.086521 -0.117057 0.826149
-0.085077 -0.116992 0.825686
-0.083640 -0.116934 0.825282
-0.082204 -0.116877 0.824877
-0.080778 -0.116831 0.824549
-0.079382 -0.116829 0.824536
-0.077977 -0.116811 0.824411
-0.076577 -0.116802 0.824345
-0.075174 -0.116788 0.824246
-0.073770 -0.116770 0.824125
-0.072350 -0.116727 0.823816
-0.070944 -0.116706 0.823669
-0.069545 -0.116695 0.823594
-0.068141 -0.116674 0.823442
-0.066736 -0.116651 0.823285
-0.065326 -0.116619 0.823058
-0.063916 -0.116586 0.822824
-0.062496 -0.116532 0.822442
-0.061082 -0.116486 0.822117
-0.059668 -0.116439 0.821788
-0.058262 -0.116406 0.821551
-0.056853 -0.116364 0.821260
-0.055449 -0.116332 0.821034
-0.054036 -0.116277 0.820644
-0.052622 -0.116220 0.820240
-0.051215 -0.116173 0.819912
-0.049815 -0.116141 0.819684
-0.048421 -0.116121 0.819544
-0.047027 -0.116099 0.819388
-0.045632 -0.116076 0.819221
-0.044230 -0.116031 0.818906
-0.042826 -0.115977 0.818522
-0.041422 -0.115921 0.818131
-0.040023 -0.115875 0.817805
-0.038629 -0.115841 0.817565
-0.037234 -0.115800 0.817275
-0.035849 -0.115788 0.817195
-0.034461 -0.115767 0.817045
-0.033076 -0.115756 0.816963
-0.031693 -0.115745 0.816889
-0.030314 -0.115756 0.816963
-0.028934 -0.115757 0.816975
-0.027553 -0.115758 0.816983
-0.026171 -0.115757 0.816975
-0.024788 -0.115745 0.816889
-0.023404 -0.115734 0.816807
-0.022019 -0.115713 0.816659
-0.020637 -0.115701 0.816577
-0.019251 -0.115668 0.816346
-0.017865 -0.115634 0.816103
-0.016482 -0.115608 0.815924
-0.015104 -0.115617 0.815988
-0.013729 -0.115652 0.816231
-0.012356 -0.115721 0.816722
-0.011049 -0.116502 0.822229
-0.009769 -0.117826 0.831578
-0.008463 -0.119230 0.841485
-0.007120 -0.120575 0.850975
-0.005738 -0.121776 0.859450
-0.004300 -0.122217 0.862564
-0.002841 -0.122165 0.862198
-0.001383 -0.122103 0.861764
0.000074 -0.121999 0.861027
0.001528 -0.121902 0.860342
0.002980 -0.121766 0.859385
0.004426 -0.121596 0.858183
0.005871 -0.121469 0.857288
0.007314 -0.121359 0.856512
0.008754 -0.121256 0.855783
0.010193 -0.121162 0.855119
0.011628 -0.121053 0.854348
0.013057 -0.120906 0.853315
0.014483 -0.120772 0.852364
0.015905 -0.120630 0.851364
0.017323 -0.120479 0.850296
0.018743 -0.120367 0.849509
0.020161 -0.120257 0.848734
0.021579 -0.120163 0.848067
0.022997 -0.120083 0.847503
0.024420 -0.120035 0.847168
0.025842 -0.119988 0.846833
0.027260 -0.119930 0.846424
0.028677 -0.119872 0.846015
0.030101 -0.119845 0.845822
0.031524 -0.119820 0.845648
0.032945 -0.119787 0.845417
0.034371 -0.119776 0.845335
0.035799 -0.119774 0.845322
0.037225 -0.119763 0.845248
0.038647 -0.119743 0.845104
0.040076 -0.119742 0.845096
0.041504 -0.119740 0.845082
0.042921 -0.119707 0.844851
0.044336 -0.119673 0.844611
0.045754 -0.119648 0.844434
0.047172 -0.119623 0.844259
0.048586 -0.119590 0.844028
0.050013 -0.119590 0.844028
0.051440 -0.119590 0.844028
0.052857 -0.119569 0.843874
0.054287 -0.119577 0.843930
0.055723 -0.119597 0.844073
0.057179 -0.119656 0.844490
0.058632 -0.119708 0.844854
0.060101 -0.119790 0.845437
0.061565 -0.119858 0.845916
0.063026 -0.119916 0.846329
0.064501 -0.119998 0.846903
0.065985 -0.120094 0.847581
0.067491 -0.120224 0.848500
0.069007 -0.120367 0.849506
0.070541 -0.120532 0.850674
0.072032 -0.120621 0.851303
0.073535 -0.120726 0.852044
0.075031 -0.120816 0.852674
0.076339 -0.120606 0.851193
0.077470 -0.120128 0.847824
0.079876 -0.115325 0.813921
0.080663 -0.114488 0.808017
0.081665 -0.113981 0.804435
0.083012 -0.113962 0.804304
0.084366 -0.113954 0.804246
0.085712 -0.113936 0.804123
0.087049 -0.113907 0.803917
0.088388 -0.113881 0.803734
0.089769 -0.113910 0.803937
0.091120 -0.113899 0.803859
0.092455 -0.113870 0.803657
0.093813 -0.113869 0.803647
0.095180 -0.113879 0.803716
0.096531 -0.113870 0.803654
0.097889 -0.113869 0.803650
0.099254 -0.113877 0.803701
0.100586 -0.113846 0.803486
0.101943 -0.113845 0.803478
0.103302 -0.113845 0.803479
0.104670 -0.113856 0.803557
0.106012 -0.113838 0.803430
0.107358 -0.113826 0.803342
0.108674 -0.113781 0.803028
0.109979 -0.113727 0.802646
0.111274 -0.113664 0.802200
0.112607 -0.113640 0.802035
0.113932 -0.113610 0.801819
0.115250 -0.113572 0.801553
0.116582 -0.113551 0.801401
0.117924 -0.113538 0.801309
0.119247 -0.113507 0.801095
0.120591 -0.113498 0.801029
0.121955 -0.113507 0.801095
0.123309 -0.113507 0.801095
0.124664 -0.113507 0.801095
0.125996 -0.113488 0.800956
0.127337 -0.113476 0.800875
0.128666 -0.113454 0.800717
0.129985 -0.113424 0.800508
0.131291 -0.113383 0.800215
0.132605 -0.113350 0.799983
0.133918 -0.113316 0.799748
0.135245 -0.113295 0.799599
0.136597 -0.113295 0.799598
0.137938 -0.113287 0.799540
0.139290 -0.113287 0.799539
0.140628 -0.113276 0.799462
0.141966 -0.113265 0.799388
0.143306 -0.113256 0.799324
0.144633 -0.113237 0.799191
0.145981 -0.113235 0.799171
0.147327 -0.113231 0.799146
0.148652 -0.113211 0.799003
0.149964 -0.113182 0.798798
0.151323 -0.113189 0.798846
0.152662 -0.113180 0.798786
0.153978 -0.113154 0.798603
0.155302 -0.113136 0.798472
0.156564 -0.113072 0.798025
0.157832 -0.113014 0.797615
0.159114 -0.112967 0.797281
0.160477 -0.112978 0.797358
0.161850 -0.112995 0.797477
0.163249 -0.113030 0.797726
0.164608 -0.113037 0.797777
0.165974 -0.113049 0.797861
0.168520 -0.115220 0.803572
0.167364 -0.113077 0.798056
-0.127238 -0.117140 0.836742
-0.125819 -0.117136 0.836713
-0.124425 -0.117155 0.836850
-0.123032 -0.117176 0.837000
-0.121599 -0.117159 0.836877
-0.120162 -0.117137 0.836722
-0.118699 -0.117089 0.836378
-0.117214 -0.117018 0.835871
-0.115731 -0.116948 0.835371
-0.114295 -0.116923 0.835195
-0.112832 -0.116870 0.834819
-0.111388 -0.116836 0.834571
-0.109971 -0.116829 0.834523
-0.108569 -0.116839 0.834592
-0.107155 -0.116835 0.834567
-0.105729 -0.116818 0.834447
-0.104267 -0.116761 0.834036
-0.102744 -0.116633 0.833122
-0.101215 -0.116494 0.832131
-0.099702 -0.116370 0.831246
-0.098215 -0.116273 0.830551
-0.096746 -0.116196 0.829998
-0.095294 -0.116136 0.829574
-0.093837 -0.116068 0.829089
-0.092375 -0.115993 0.828548
-0.090924 -0.115928 0.828085
-0.089480 -0.115872 0.827686
-0.088046 -0.115825 0.827353
-0.086614 -0.115781 0.827038
-0.085185 -0.115739 0.826736
-0.083755 -0.115695 0.826419
-0.082325 -0.115648 0.826086
-0.080895 -0.115600 0.825746
-0.079504 -0.115608 0.825799
-0.078096 -0.115590 0.825674
-0.076695 -0.115583 0.825620
-0.075290 -0.115568 0.825516
-0.073884 -0.115552 0.825399
-0.072455 -0.115499 0.825021
-0.071054 -0.115488 0.824946
-0.069660 -0.115488 0.824946
-0.068259 -0.115479 0.824876
-0.066859 -0.115468 0.824802
-0.065447 -0.115437 0.824579
-0.064028 -0.115393 0.824267
-0.062605 -0.115337 0.823868
-0.061186 -0.115290 0.823526
-0.059771 -0.115245 0.823205
-0.058363 -0.115212 0.822975
-0.056951 -0.115171 0.822680
-0.055544 -0.115138 0.822444
-0.054128 -0.115083 0.822053
-0.052713 -0.115028 0.821655
-0.051308 -0.114992 0.821399
-0.049905 -0.114959 0.821168
-0.048504 -0.114928 0.820946
-0.047103 -0.114897 0.820720
-0.045702 -0.114863 0.820480
-0.044291 -0.114799 0.820026
-0.042884 -0.114744 0.819633
