1655
-0.062838 -0.059372 0.907710
-0.061309 -0.059377 0.907795
-0.059749 -0.059352 0.907412
-0.058203 -0.059340 0.907227
-0.056669 -0.059340 0.907227
-0.055126 -0.059329 0.907062
-0.053581 -0.059317 0.906876
-0.052041 -0.059310 0.906761
-0.050508 -0.059309 0.906744
-0.048980 -0.059316 0.906850
-0.047477 -0.059353 0.907420
-0.045981 -0.059402 0.908177
-0.044484 -0.059453 0.908954
-0.042988 -0.059509 0.909812
-0.041489 -0.059565 0.910666
-0.039979 -0.059610 0.911349
-0.038471 -0.059659 0.912107
-0.036959 -0.059709 0.912859
-0.035436 -0.059742 0.913368
-0.033897 -0.059751 0.913507
-0.032364 -0.059773 0.913843
-0.064505 -0.057953 0.909584
-0.062951 -0.057938 0.909355
-0.061412 -0.057936 0.909324
-0.059844 -0.057906 0.908858
-0.058291 -0.057889 0.908591
-0.056749 -0.057884 0.908500
-0.055202 -0.057872 0.908318
-0.053655 -0.057859 0.908123
-0.052107 -0.057846 0.907908
-0.050571 -0.057844 0.907876
-0.049036 -0.057844 0.907879
-0.047525 -0.057873 0.908342
-0.046020 -0.057911 0.908932
-0.044521 -0.057960 0.909705
-0.043024 -0.058015 0.910565
-0.041524 -0.058070 0.911428
-0.040009 -0.058108 0.912022
-0.038495 -0.058150 0.912683
-0.036971 -0.058180 0.913161
-0.035439 -0.058199 0.913444
-0.033892 -0.058195 0.913392
-0.032349 -0.058197 0.913419
-0.030795 -0.058178 0.913122
-0.064623 -0.056514 0.911245
-0.063069 -0.056502 0.911052
-0.061527 -0.056500 0.911024
-0.059951 -0.056466 0.910477
-0.058394 -0.056449 0.910199
-0.056843 -0.056437 0.910003
-0.055287 -0.056419 0.909713
-0.053727 -0.056396 0.909340
-0.052172 -0.056377 0.909042
-0.050629 -0.056370 0.908925
-0.049092 -0.056369 0.908914
-0.047575 -0.056393 0.909297
-0.046068 -0.056429 0.909880
-0.044568 -0.056477 0.910661
-0.043065 -0.056526 0.911446
-0.041563 -0.056579 0.912301
-0.040043 -0.056611 0.912808
-0.038521 -0.056641 0.913299
-0.036989 -0.056659 0.913591
-0.035452 -0.056671 0.913780
-0.033896 -0.056653 0.913483
-0.032346 -0.056643 0.913325
-0.030790 -0.056621 0.912975
-0.064765 -0.055090 0.913256
-0.063204 -0.055075 0.913009
-0.061650 -0.055066 0.912850
-0.060076 -0.055038 0.912384
-0.058510 -0.055015 0.912010
-0.056949 -0.054997 0.911703
-0.055383 -0.054972 0.911300
-0.053810 -0.054939 0.910741
-0.052248 -0.054916 0.910359
-0.050703 -0.054909 0.910250
-0.049164 -0.054909 0.910253
-0.047641 -0.054927 0.910552
-0.046135 -0.054968 0.911219
-0.044633 -0.055015 0.912004
-0.043120 -0.055052 0.912613
-0.041613 -0.055098 0.913387
-0.040086 -0.055122 0.913787
-0.038554 -0.055140 0.914075
-0.037012 -0.055146 0.914175
-0.035470 -0.055150 0.914251
-0.033904 -0.055117 0.913702
-0.032348 -0.055098 0.913385
-0.030792 -0.055076 0.913019
-0.029229 -0.055040 0.912419
-0.064871 -0.053629 0.914744
-0.063308 -0.053615 0.914505
-0.061752 -0.053606 0.914352
-0.060176 -0.053580 0.913892
-0.058606 -0.053558 0.913516
-0.057042 -0.053538 0.913190
-0.055478 -0.053519 0.912867
-0.053901 -0.053486 0.912296
-0.052337 -0.053463 0.911913
-0.050789 -0.053456 0.911791
-0.049243 -0.053452 0.911716
-0.047713 -0.053464 0.911927
-0.046205 -0.053504 0.912599
-0.044696 -0.053544 0.913294
-0.043173 -0.053569 0.913721
-0.041662 -0.053613 0.914459
-0.040124 -0.053624 0.914657
-0.038579 -0.053625 0.914671
-0.037028 -0.053619 0.914562
-0.035480 -0.053617 0.914526
-0.033910 -0.053579 0.913878
-0.032353 -0.053558 0.913526
-0.030799 -0.053541 0.913231
-0.029237 -0.053509 0.912687
-0.027676 -0.055019 0.912068
-0.027694 -0.053507 0.912663
-0.026168 -0.053542 0.913251
-0.064963 -0.052153 0.916048
-0.063402 -0.052142 0.915858
-0.061851 -0.052140 0.915817
-0.060279 -0.052120 0.915461
-0.058714 -0.052104 0.915188
-0.057147 -0.052087 0.914881
-0.055581 -0.052068 0.914553
-0.053996 -0.052030 0.913890
-0.052428 -0.052008 0.913498
-0.050877 -0.052001 0.913370
-0.049328 -0.051996 0.913287
-0.047794 -0.052007 0.913487
-0.046280 -0.052040 0.914065
-0.044759 -0.052069 0.914568
-0.043228 -0.052087 0.914891
-0.041706 -0.052118 0.915433
-0.040158 -0.052118 0.915423
-0.038606 -0.052112 0.915323
-0.037050 -0.052100 0.915110
-0.035498 -0.052093 0.914992
-0.033928 -0.052056 0.914346
-0.032368 -0.052034 0.913950
-0.030815 -0.052020 0.913714
-0.029254 -0.051991 0.913207
-0.027713 -0.051998 0.913315
-0.026187 -0.052031 0.913913
-0.024660 -0.052071 0.914608
-0.065032 -0.050654 0.917018
-0.063468 -0.050642 0.916812
-0.061921 -0.050645 0.916862
-0.060355 -0.050631 0.916612
-0.058800 -0.050627 0.916538
-0.057239 -0.050617 0.916348
-0.055676 -0.050605 0.916126
-0.054089 -0.050568 0.915466
-0.052518 -0.050546 0.915063
-0.050959 -0.050534 0.914846
-0.049407 -0.050528 0.914747
-0.047866 -0.050534 0.914849
-0.046343 -0.050560 0.915318
-0.044811 -0.050578 0.915638
-0.043269 -0.050584 0.915758
-0.041740 -0.050608 0.916191
-0.040187 -0.050602 0.916089
-0.038631 -0.050592 0.915904
-0.037074 -0.050581 0.915691
-0.035524 -0.050579 0.915655
-0.033953 -0.050544 0.915025
-0.032396 -0.050527 0.914728
-0.030845 -0.050520 0.914603
-0.029284 -0.050495 0.914146
-0.027741 -0.050500 0.914229
-0.026210 -0.050528 0.914731
-0.024679 -0.050558 0.915283
-0.023124 -0.052093 0.915002
-0.023137 -0.050571 0.915515
-0.021610 -0.050620 0.916407
-0.065077 -0.049133 0.917642
-0.063515 -0.049125 0.917498
-0.061971 -0.049131 0.917603
-0.060415 -0.049127 0.917536
-0.058868 -0.049130 0.917592
-0.057317 -0.049130 0.917596
-0.055758 -0.049123 0.917464
-0.054173 -0.049093 0.916890
-0.052600 -0.049071 0.916489
-0.051034 -0.049055 0.916196
-0.049475 -0.049045 0.916006
-0.047922 -0.049041 0.915924
-0.046391 -0.049060 0.916277
-0.044848 -0.049066 0.916398
-0.043300 -0.049067 0.916420
-0.041767 -0.049086 0.916765
-0.040213 -0.049081 0.916675
-0.038652 -0.049067 0.916410
-0.037095 -0.049056 0.916215
-0.035545 -0.049055 0.916181
-0.033976 -0.049026 0.915643
-0.032421 -0.049015 0.915443
-0.030872 -0.049013 0.915406
-0.029316 -0.048999 0.915134
-0.027772 -0.049004 0.915233
-0.026235 -0.049023 0.915599
-0.024697 -0.049043 0.915975
-0.023151 -0.049048 0.916055
-0.021612 -0.049071 0.916495
-0.020064 -0.049073 0.916523
-0.065104 -0.047598 0.918035
-0.063552 -0.047597 0.918026
-0.062013 -0.047608 0.918230
-0.060466 -0.047612 0.918303
-0.058929 -0.047624 0.918545
-0.057383 -0.047630 0.918651
-0.055822 -0.047623 0.918529
-0.054240 -0.047597 0.918028
-0.052665 -0.047577 0.917630
-0.051093 -0.047557 0.917254
-0.049527 -0.047543 0.916977
-0.047967 -0.047533 0.916786
-0.046426 -0.047541 0.916952
-0.044876 -0.047542 0.916964
-0.043323 -0.047539 0.916899
-0.041789 -0.047557 0.917248
-0.040238 -0.047557 0.917256
-0.038681 -0.047549 0.917096
-0.037126 -0.047544 0.916994
-0.035575 -0.047542 0.916965
-0.034008 -0.047518 0.916504
-0.032451 -0.047508 0.916306
-0.030899 -0.047502 0.916198
-0.029341 -0.047489 0.915933
-0.027795 -0.047493 0.916018
-0.026252 -0.047503 0.916205
-0.024709 -0.047513 0.916401
-0.023160 -0.047513 0.916404
-0.021616 -0.047526 0.916647
-0.020065 -0.047523 0.916596
-0.065161 -0.046082 0.918841
-0.063621 -0.046091 0.919033
-0.062089 -0.046107 0.919348
-0.060555 -0.046123 0.919656
-0.059010 -0.046130 0.919810
-0.057461 -0.046135 0.919909
-0.055893 -0.046124 0.919689
-0.054304 -0.046095 0.919102
-0.052722 -0.046071 0.918615
-0.051147 -0.046051 0.918222
-0.049579 -0.046037 0.917942
-0.048007 -0.046017 0.917555
-0.046459 -0.046020 0.917616
-0.044904 -0.046016 0.917530
-0.043350 -0.046013 0.917470
-0.041811 -0.046027 0.917744
-0.040268 -0.046036 0.917928
-0.038713 -0.046032 0.917857
-0.037161 -0.046032 0.917848
-0.035609 -0.046031 0.917825
-0.034040 -0.046008 0.917361
-0.032478 -0.045993 0.917067
-0.030921 -0.045982 0.916858
-0.029362 -0.045969 0.916586
-0.027810 -0.045965 0.916503
-0.026263 -0.045969 0.916593
-0.024716 -0.045973 0.916681
-0.023164 -0.045970 0.916602
-0.021617 -0.045973 0.916670
-0.020066 -0.045971 0.916636
-0.063682 -0.044576 0.919910
-0.062145 -0.044589 0.920178
-0.060612 -0.044606 0.920522
-0.059065 -0.044613 0.920667
-0.057520 -0.044621 0.920846
-0.055949 -0.044610 0.920618
-0.054357 -0.044581 0.920014
-0.052768 -0.044553 0.919424
-0.051187 -0.044529 0.918937
-0.049612 -0.044510 0.918547
-0.048034 -0.044487 0.918066
-0.046484 -0.044489 0.918112
-0.044924 -0.044480 0.917937
-0.043369 -0.044477 0.917873
-0.041830 -0.044491 0.918150
-0.040286 -0.044500 0.918334
-0.038730 -0.044497 0.918270
-0.037182 -0.044501 0.918361
-0.035629 -0.044500 0.918344
-0.034059 -0.044478 0.917877
-0.032496 -0.044462 0.917558
-0.030934 -0.044447 0.917245
-0.029374 -0.044433 0.916953
-0.027818 -0.044424 0.916774
-0.026269 -0.044424 0.916774
-0.024719 -0.044424 0.916774
-0.023169 -0.044424 0.916774
-0.021619 -0.044424 0.916774
-0.020072 -0.044429 0.916886
-0.018523 -0.044432 0.916939
-0.063786 -0.043087 0.921418
-0.062218 -0.043080 0.921262
-0.060672 -0.043088 0.921429
-0.059111 -0.043086 0.921388
-0.057565 -0.043094 0.921561
-0.055992 -0.043083 0.921327
-0.054400 -0.043055 0.920735
-0.052809 -0.043027 0.920128
-0.051224 -0.043003 0.919616
-0.049639 -0.042976 0.919041
-0.048051 -0.042945 0.918383
-0.046496 -0.042943 0.918339
-0.044930 -0.042930 0.918059
-0.043370 -0.042923 0.917902
-0.041827 -0.042931 0.918086
-0.040283 -0.042940 0.918275
-0.038732 -0.042941 0.918293
-0.037187 -0.042950 0.918486
-0.035638 -0.042954 0.918575
-0.034071 -0.042937 0.918204
-0.032507 -0.042922 0.917877
-0.030941 -0.042902 0.917447
-0.029377 -0.042883 0.917049
-0.027818 -0.042870 0.916774
-0.026269 -0.042870 0.916774
-0.024719 -0.042870 0.916774
-0.023169 -0.042870 0.916774
-0.021619 -0.042870 0.916774
-0.020074 -0.042880 0.916985
-0.018530 -0.042895 0.917313
-0.065469 -0.041604 0.923172
-0.063886 -0.041590 0.922847
-0.062286 -0.041563 0.922267
-0.060725 -0.041562 0.922242
-0.059163 -0.041560 0.922184
-0.057605 -0.041561 0.922207
-0.056033 -0.041551 0.921989
-0.054439 -0.041524 0.921396
-0.052836 -0.041489 0.920608
-0.051246 -0.041461 0.919996
-0.049654 -0.041431 0.919320
-0.048060 -0.041397 0.918568
-0.046496 -0.041387 0.918344
-0.044929 -0.041373 0.918047
-0.043365 -0.041361 0.917783
-0.041817 -0.041365 0.917865
-0.040273 -0.041374 0.918056
-0.038730 -0.041382 0.918251
-0.037189 -0.041396 0.918550
-0.035645 -0.041405 0.918754
-0.034085 -0.041397 0.918575
-0.032524 -0.041387 0.918344
-0.030954 -0.041363 0.917825
-0.029386 -0.041341 0.917331
-0.027824 -0.041324 0.916953
-0.026271 -0.041320 0.916860
-0.024719 -0.041316 0.916774
-0.023169 -0.041316 0.916774
-0.021619 -0.041316 0.916774
-0.020076 -0.041329 0.917071
-0.018536 -0.041353 0.917597
-0.017014 -0.041424 0.919170
-0.067277 -0.040187 0.926577
-0.065603 -0.040121 0.925062
-0.063977 -0.040083 0.924175
-0.062346 -0.040038 0.923149
-0.060773 -0.040030 0.922963
-0.059196 -0.040019 0.922708
-0.057632 -0.040016 0.922637
-0.056061 -0.040008 0.922455
-0.054467 -0.039983 0.921871
-0.052858 -0.039944 0.920986
-0.051261 -0.039913 0.920263
-0.049658 -0.039876 0.919398
-0.048059 -0.039839 0.918550
-0.046490 -0.039824 0.918216
-0.044918 -0.039807 0.917815
-0.043353 -0.039795 0.917533
-0.041802 -0.039795 0.917534
-0.040255 -0.039799 0.917626
-0.038715 -0.039811 0.917911
-0.037180 -0.039828 0.918309
-0.035640 -0.039843 0.918636
-0.034088 -0.039844 0.918666
-0.032534 -0.039843 0.918636
-0.030964 -0.039821 0.918129
-0.029396 -0.039799 0.917629
-0.027830 -0.039778 0.917149
-0.026274 -0.039770 0.916953
-0.024719 -0.039762 0.916774
-0.023169 -0.039762 0.916774
-0.021619 -0.039762 0.916774
-0.020078 -0.039778 0.917155
-0.018543 -0.039813 0.917952
-0.017027 -0.039898 0.919910
-0.015506 -0.039984 0.921908
-0.067354 -0.038661 0.927642
-0.065666 -0.038591 0.925961
-0.064019 -0.038541 0.924773
-0.062374 -0.038491 0.923563
-0.060789 -0.038476 0.923210
-0.059211 -0.038464 0.922931
-0.057646 -0.038461 0.922862
-0.056075 -0.038454 0.922689
-0.054485 -0.038433 0.922180
-0.052875 -0.038396 0.921280
-0.051271 -0.038361 0.920454
-0.049658 -0.038317 0.919398
-0.048058 -0.038281 0.918527
-0.046479 -0.038259 0.918004
-0.044903 -0.038238 0.917510
-0.043334 -0.038223 0.917135
-0.041783 -0.038223 0.917132
-0.040233 -0.038223 0.917135
-0.038698 -0.038238 0.917510
-0.037167 -0.038259 0.918004
-0.035632 -0.038277 0.918440
-0.034088 -0.038287 0.918668
-0.032541 -0.038294 0.918840
-0.030972 -0.038274 0.918361
-0.029403 -0.038253 0.917860
-0.027836 -0.038232 0.917354
-0.026277 -0.038219 0.917049
-0.024716 -0.038204 0.916688
-0.023164 -0.038200 0.916595
-0.021613 -0.038196 0.916500
-0.020071 -0.038211 0.916862
-0.018536 -0.038242 0.917596
-0.017025 -0.038332 0.919758
-0.015504 -0.038418 0.921820
-0.013989 -0.040104 0.924658
-0.013983 -0.038520 0.924257
-0.012449 -0.038608 0.926373
-0.069129 -0.037199 0.930423
-0.067399 -0.037113 0.928262
-0.065704 -0.037042 0.926490
-0.064048 -0.036990 0.925195
-0.062397 -0.036939 0.923913
-0.060806 -0.036921 0.923460
-0.059225 -0.036909 0.923160
-0.057661 -0.036906 0.923096
-0.056090 -0.036900 0.922925
-0.054500 -0.036880 0.922422
-0.052887 -0.036842 0.921494
-0.051277 -0.036805 0.920563
-0.049654 -0.036756 0.919322
-0.048049 -0.036717 0.918354
-0.046465 -0.036692 0.917729
-0.044889 -0.036672 0.917228
-0.043317 -0.036654 0.916774
-0.041767 -0.036654 0.916774
-0.040217 -0.036654 0.916774
-0.038687 -0.036672 0.917228
-0.037156 -0.036692 0.917729
-0.035625 -0.036713 0.918261
-0.034088 -0.036730 0.918675
-0.032548 -0.036744 0.919036
-0.030979 -0.036726 0.918572
-0.029410 -0.036706 0.918072
-0.027842 -0.036685 0.917550
-0.026277 -0.036665 0.917056
-0.024711 -0.036643 0.916503
-0.023157 -0.036635 0.916305
-0.021603 -0.036627 0.916105
-0.020058 -0.036634 0.916284
-0.018527 -0.036669 0.917144
-0.017018 -0.036758 0.919384
-0.015497 -0.036838 0.921393
-0.013973 -0.036927 0.923615
-0.012436 -0.037000 0.925447
-0.010895 -0.038651 0.927400
-0.010881 -0.037031 0.926203
-0.009316 -0.038604 0.926273
-0.009307 -0.036999 0.925398
-0.007739 -0.036981 0.924949
-0.074433 -0.037494 0.937803
-0.076114 -0.035950 0.938982
-0.074401 -0.035889 0.937400
-0.072710 -0.037423 0.936022
-0.072675 -0.035820 0.935581
-0.070925 -0.037317 0.933357
-0.070918 -0.035731 0.933268
-0.069139 -0.035628 0.930568
-0.067409 -0.035545 0.928406
-0.065708 -0.035474 0.926554
-0.064045 -0.035421 0.925159
-0.062395 -0.035372 0.923882
-0.060805 -0.035355 0.923450
-0.059225 -0.035344 0.923165
-0.057661 -0.035342 0.923108
-0.056090 -0.035336 0.922938
-0.054501 -0.035317 0.922438
-0.052888 -0.035281 0.921510
-0.051274 -0.035242 0.920498
-0.049649 -0.035194 0.919234
-0.048044 -0.035157 0.918261
-0.046460 -0.035133 0.917636
-0.044881 -0.035110 0.917056
-0.043313 -0.035096 0.916681
-0.041763 -0.035096 0.916678
-0.040213 -0.035096 0.916681
-0.038679 -0.035110 0.917056
-0.037152 -0.035133 0.917636
-0.035622 -0.035153 0.918165
-0.034088 -0.035172 0.918668
-0.032551 -0.035190 0.919129
-0.030988 -0.035179 0.918848
-0.029419 -0.035160 0.918354
-0.027850 -0.035140 0.917825
-0.026282 -0.035117 0.917229
-0.024711 -0.035089 0.916484
-0.023152 -0.035074 0.916089
-0.021595 -0.035061 0.915769
-0.020047 -0.035060 0.915751
-0.018510 -0.035083 0.916333
-0.016996 -0.035154 0.918185
-0.015478 -0.035232 0.920226
-0.013956 -0.035318 0.922483
-0.012422 -0.035390 0.924349
-0.010869 -0.035421 0.925177
-0.009302 -0.035413 0.924951
-0.077768 -0.034387 0.939782
-0.076090 -0.034347 0.938678
-0.074380 -0.034290 0.937128
-0.072651 -0.034222 0.935268
-0.070894 -0.034138 0.932960
-0.069121 -0.034041 0.930319
-0.067386 -0.033959 0.928080
-0.065675 -0.033886 0.926081
-0.064007 -0.033832 0.924603
-0.062371 -0.033792 0.923519
-0.060782 -0.033777 0.923106
-0.059204 -0.033767 0.922833
-0.057647 -0.033769 0.922873
-0.056071 -0.033760 0.922624
-0.054482 -0.033742 0.922130
-0.052876 -0.033711 0.921304
-0.051262 -0.033674 0.920290
-0.049639 -0.033629 0.919039
-0.048034 -0.033593 0.918064
-0.046446 -0.033567 0.917354
-0.044862 -0.033542 0.916683
-0.043295 -0.033528 0.916305
-0.041745 -0.033528 0.916300
-0.040201 -0.033532 0.916398
-0.038668 -0.033546 0.916778
-0.037141 -0.033567 0.917361
-0.035611 -0.033586 0.917877
-0.034077 -0.033604 0.918376
-0.032538 -0.033618 0.918761
-0.030982 -0.033615 0.918668
-0.029416 -0.033601 0.918275
-0.027851 -0.033585 0.917840
-0.026282 -0.033563 0.917243
-0.024711 -0.033535 0.916479
-0.023146 -0.033513 0.915880
-0.021588 -0.033498 0.915460
-0.020036 -0.033490 0.915246
-0.018493 -0.033497 0.915451
-0.016970 -0.033546 0.916792
-0.015446 -0.033603 0.918338
-0.013925 -0.033680 0.920437
-0.012395 -0.033749 0.922331
-0.010849 -0.033792 0.923496
-0.009290 -0.033800 0.923734
-0.007732 -0.033813 0.924093
-0.079413 -0.034412 0.940455
-0.079369 -0.032800 0.939932
-0.077736 -0.032781 0.939404
-0.076066 -0.032746 0.938391
-0.074356 -0.032691 0.936826
-0.072613 -0.032620 0.934774
-0.070832 -0.032528 0.932141
-0.069060 -0.032436 0.929498
-0.067326 -0.032357 0.927255
-0.065611 -0.032285 0.925185
-0.063952 -0.032237 0.923804
-0.062335 -0.032208 0.922992
-0.060748 -0.032194 0.922590
-0.059172 -0.032185 0.922328
-0.057619 -0.032189 0.922438
-0.056044 -0.032180 0.922180
-0.054456 -0.032163 0.921689
-0.052852 -0.032135 0.920892
-0.051240 -0.032100 0.919888
-0.049622 -0.032060 0.918731
-0.048018 -0.032026 0.917749
-0.046426 -0.031998 0.916965
-0.044843 -0.031974 0.916281
-0.043275 -0.031961 0.915894
-0.041722 -0.031957 0.915794
-0.040183 -0.031964 0.915997
-0.038651 -0.031978 0.916389
-0.037126 -0.031999 0.916974
-0.035595 -0.032016 0.917472
-0.034065 -0.032036 0.918056
-0.032524 -0.032047 0.918361
-0.030975 -0.032051 0.918465
-0.029413 -0.032041 0.918182
-0.027851 -0.032029 0.917860
-0.026283 -0.032008 0.917261
-0.024711 -0.031982 0.916494
-0.023142 -0.031955 0.915716
-0.021582 -0.031936 0.915192
-0.020026 -0.031922 0.914790
-0.018474 -0.031913 0.914531
-0.016942 -0.031939 0.915267
-0.015411 -0.031973 0.916254
-0.013888 -0.032032 0.917944
-0.012360 -0.032096 0.919778
-0.010825 -0.032155 0.921473
-0.009276 -0.032186 0.922351
-0.007725 -0.032220 0.923328
-0.080942 -0.031200 0.939745
-0.079324 -0.031189 0.939398
-0.077688 -0.031169 0.938821
-0.076020 -0.031136 0.937820
-0.074298 -0.031079 0.936105
-0.072543 -0.031005 0.933884
-0.070764 -0.030918 0.931251
-0.068994 -0.030830 0.928611
-0.067255 -0.030753 0.926281
-0.065550 -0.030688 0.924321
-0.063899 -0.030646 0.923040
-0.062291 -0.030622 0.922345
-0.060712 -0.030612 0.922033
-0.059141 -0.030606 0.921852
-0.057589 -0.030609 0.921949
-0.056014 -0.030600 0.921679
-0.054426 -0.030584 0.921186
-0.052823 -0.030557 0.920383
-0.051207 -0.030522 0.919307
-0.049591 -0.030483 0.918151
-0.047987 -0.030451 0.917167
-0.046397 -0.030424 0.916377
-0.044814 -0.030401 0.915687
-0.043251 -0.030391 0.915380
-0.041699 -0.030388 0.915282
-0.040165 -0.030398 0.915574
-0.038634 -0.030411 0.915988
-0.037110 -0.030431 0.916577
-0.035579 -0.030447 0.917067
-0.034050 -0.030466 0.917635
-0.032506 -0.030473 0.917848
-0.030964 -0.030483 0.918149
-0.029407 -0.030477 0.917973
-0.027849 -0.030471 0.917774
-0.026283 -0.030454 0.917275
-0.024714 -0.030432 0.916597
-0.023142 -0.030403 0.915728
-0.021582 -0.030385 0.915202
-0.020024 -0.030369 0.914711
-0.018468 -0.030353 0.914245
-0.016926 -0.030359 0.914403
-0.015386 -0.030371 0.914760
-0.013857 -0.030409 0.915919
-0.012329 -0.030460 0.917439
-0.010800 -0.030522 0.919307
-0.009257 -0.030558 0.920406
-0.007711 -0.030600 0.921679
-0.082445 -0.029576 0.938765
-0.080857 -0.029576 0.938754
-0.079255 -0.029570 0.938581
-0.077620 -0.029552 0.937996
-0.075947 -0.029518 0.936916
-0.074221 -0.029462 0.935126
-0.072467 -0.029391 0.932900
-0.070683 -0.029306 0.930177
-0.068920 -0.029225 0.927619
-0.067191 -0.029155 0.925400
-0.065508 -0.029103 0.923728
-0.063873 -0.029069 0.922659
-0.062273 -0.029050 0.922065
-0.060694 -0.029041 0.921761
-0.059118 -0.029032 0.921488
-0.057560 -0.029032 0.921484
-0.055980 -0.029020 0.921117
-0.054398 -0.029007 0.920710
-0.052796 -0.028982 0.919910
-0.051185 -0.028951 0.918915
-0.049569 -0.028914 0.917739
-0.047966 -0.028883 0.916755
-0.046371 -0.028855 0.915876
-0.044790 -0.028834 0.915195
-0.043228 -0.028824 0.914892
-0.041677 -0.028821 0.914794
-0.040143 -0.028830 0.915087
-0.038614 -0.028843 0.915498
-0.037090 -0.028862 0.916096
-0.035560 -0.028878 0.916587
-0.034032 -0.028895 0.917152
-0.032488 -0.028902 0.917354
-0.030951 -0.028914 0.917742
-0.029397 -0.028912 0.917668
-0.027843 -0.028909 0.917578
-0.026283 -0.028899 0.917268
-0.024717 -0.028881 0.916690
-0.023145 -0.028854 0.915824
-0.021582 -0.028834 0.915209
-0.020022 -0.028816 0.914619
-0.018459 -0.028789 0.913793
-0.016910 -0.028782 0.913568
-0.015365 -0.028781 0.913514
-0.013831 -0.028803 0.914238
-0.012303 -0.028844 0.915518
-0.010779 -0.028907 0.917520
-0.009242 -0.028952 0.918947
-0.007701 -0.028998 0.920412
-0.083953 -0.027958 0.937881
-0.082382 -0.027964 0.938052
-0.080801 -0.027965 0.938102
-0.079196 -0.027958 0.937876
-0.077555 -0.027939 0.937209
-0.075873 -0.027903 0.936010
-0.074147 -0.027849 0.934200
-0.072388 -0.027780 0.931888
-0.070605 -0.027699 0.929157
-0.068852 -0.027625 0.926702
-0.067132 -0.027562 0.924590
-0.065465 -0.027518 0.923116
-0.063845 -0.027493 0.922256
-0.062253 -0.027478 0.921776
-0.060675 -0.027470 0.921481
-0.059104 -0.027464 0.921278
-0.057547 -0.027463 0.921274
-0.055962 -0.027450 0.920831
-0.054387 -0.027441 0.920520
-0.052785 -0.027417 0.919714
-0.051174 -0.027387 0.918715
-0.049557 -0.027352 0.917529
-0.047954 -0.027322 0.916536
-0.046351 -0.027291 0.915486
-0.044771 -0.027271 0.914811
-0.043202 -0.027257 0.914337
-0.041648 -0.027251 0.914152
-0.040115 -0.027260 0.914438
-0.038590 -0.027274 0.914932
-0.037067 -0.027292 0.915535
-0.035542 -0.027310 0.916117
-0.034014 -0.027327 0.916682
-0.032472 -0.027333 0.916884
-0.030934 -0.027344 0.917253
-0.029384 -0.027344 0.917274
-0.027834 -0.027344 0.917280
-0.026277 -0.027338 0.917078
-0.024714 -0.027324 0.916597
-0.023145 -0.027301 0.915824
-0.021582 -0.027283 0.915203
-0.020020 -0.027262 0.914517
-0.018455 -0.027235 0.913593
-0.016903 -0.027222 0.913181
-0.015352 -0.027210 0.912765
-0.013814 -0.027220 0.913091
-0.012286 -0.027253 0.914223
-0.010764 -0.027314 0.916270
-0.009233 -0.027368 0.918083
-0.007699 -0.027430 0.920154
-0.085473 -0.026348 0.937164
-0.083903 -0.026353 0.937333
-0.082332 -0.026357 0.937477
-0.080742 -0.026356 0.937421
-0.079130 -0.026347 0.937094
-0.077479 -0.026324 0.936297
-0.075798 -0.026290 0.935086
-0.074066 -0.026236 0.933174
-0.072307 -0.026171 0.930847
-0.070540 -0.026099 0.928295
-0.068797 -0.026034 0.925958
-0.067093 -0.025980 0.924053
-0.065442 -0.025945 0.922795
-0.063836 -0.025926 0.922130
-0.062240 -0.025910 0.921575
-0.060661 -0.025902 0.921271
-0.059084 -0.025893 0.920961
-0.057521 -0.025890 0.920870
-0.055938 -0.025878 0.920427
-0.054365 -0.025870 0.920145
-0.052764 -0.025848 0.919352
-0.051159 -0.025822 0.918442
-0.049543 -0.025789 0.917260
-0.047936 -0.025759 0.916193
-0.046333 -0.025729 0.915126
-0.044752 -0.025709 0.914433
-0.043179 -0.025693 0.913857
-0.041622 -0.025686 0.913583
-0.040089 -0.025693 0.913857
-0.038569 -0.025709 0.914433
-0.037051 -0.025729 0.915126
-0.035531 -0.025749 0.915825
-0.034007 -0.025767 0.916484
-0.032468 -0.025775 0.916774
-0.030927 -0.025783 0.917049
-0.029377 -0.025783 0.917063
-0.027827 -0.025783 0.917064
-0.026274 -0.025781 0.916970
-0.024714 -0.025770 0.916587
-0.023147 -0.025751 0.915916
-0.021584 -0.025734 0.915295
-0.020020 -0.025712 0.914509
-0.018454 -0.025685 0.913558
-0.016899 -0.025668 0.912968
-0.015349 -0.025657 0.912562
-0.013807 -0.025659 0.912638
-0.012278 -0.025688 0.913671
-0.010758 -0.025747 0.915782
-0.009233 -0.025811 0.918026
-0.007700 -0.025876 0.920371
-0.006161 -0.025947 0.922889
-0.087026 -0.024751 0.936834
-0.085450 -0.024753 0.936919
-0.083874 -0.024756 0.936998
-0.082288 -0.024755 0.936980
-0.080686 -0.024750 0.936776
-0.079069 -0.024739 0.936374
-0.077412 -0.024715 0.935482
-0.075724 -0.024681 0.934165
-0.073992 -0.024630 0.932247
-0.072242 -0.024571 0.930006
-0.070485 -0.024507 0.927575
-0.068759 -0.024450 0.925453
-0.067066 -0.024404 0.923678
-0.065429 -0.024375 0.922607
-0.063829 -0.024360 0.922033
-0.062227 -0.024343 0.921388
-0.060643 -0.024332 0.920984
-0.059070 -0.024326 0.920739
-0.057501 -0.024321 0.920544
-0.055919 -0.024310 0.920122
-0.054347 -0.024302 0.919842
-0.052752 -0.024284 0.919141
-0.051144 -0.024258 0.918161
-0.049523 -0.024225 0.916906
-0.047913 -0.024194 0.915747
-0.046306 -0.024163 0.914586
-0.044716 -0.024140 0.913688
-0.043138 -0.024121 0.912992
-0.041585 -0.024116 0.912785
-0.040051 -0.024121 0.912982
-0.038536 -0.024139 0.913663
-0.037024 -0.024160 0.914457
-0.035509 -0.024181 0.915251
-0.033987 -0.024199 0.915934
-0.032455 -0.024211 0.916405
-0.030915 -0.024219 0.916682
-0.029368 -0.024221 0.916781
-0.027821 -0.024224 0.916870
-0.026271 -0.024224 0.916867
-0.024714 -0.024216 0.916586
-0.023152 -0.024203 0.916105
-0.021589 -0.024187 0.915498
-0.020024 -0.024167 0.914706
-0.018458 -0.024141 0.913747
-0.016902 -0.024125 0.913132
-0.015352 -0.024115 0.912739
-0.013812 -0.024120 0.912924
-0.012283 -0.024148 0.913988
-0.010762 -0.024204 0.916133
-0.009239 -0.024271 0.918647
-0.007707 -0.024337 0.921151
-0.006167 -0.024403 0.923672
-0.004615 -0.024456 0.925670
-0.088595 -0.023159 0.936675
-0.087012 -0.023159 0.936675
-0.085428 -0.023159 0.936675
-0.083845 -0.023159 0.936675
-0.082245 -0.023155 0.936489
-0.080636 -0.023147 0.936186
-0.079010 -0.023134 0.935676
-0.077345 -0.023110 0.934673
-0.075651 -0.023075 0.933267
-0.073928 -0.023030 0.931444
-0.072182 -0.022975 0.929225
-0.070442 -0.022920 0.927006
-0.068733 -0.022873 0.925098
-0.067055 -0.022834 0.923532
-0.065424 -0.022810 0.922547
-0.063831 -0.022798 0.922053
-0.062221 -0.022779 0.921308
-0.060630 -0.022767 0.920797
-0.059052 -0.022758 0.920456
-0.057477 -0.022751 0.920156
-0.055895 -0.022740 0.919725
-0.054323 -0.022733 0.919440
-0.052735 -0.022718 0.918841
-0.051131 -0.022696 0.917935
-0.049512 -0.022665 0.916692
-0.047897 -0.022634 0.915436
-0.046289 -0.022605 0.914248
-0.044690 -0.022578 0.913157
-0.043105 -0.022556 0.912282
-0.041549 -0.022549 0.911981
-0.040012 -0.022551 0.912089
-0.038499 -0.022568 0.912776
-0.036992 -0.022591 0.913683
-0.035483 -0.022613 0.914588
-0.033965 -0.022632 0.915362
-0.032441 -0.022648 0.916012
-0.030902 -0.022656 0.916305
-0.029360 -0.022660 0.916503
-0.027816 -0.022665 0.916688
-0.026269 -0.022667 0.916774
-0.024714 -0.022663 0.916595
-0.023155 -0.022653 0.916219
-0.021592 -0.022639 0.915637
-0.020027 -0.022619 0.914843
-0.018461 -0.022596 0.913875
-0.016903 -0.022578 0.913168
-0.015354 -0.022570 0.912861
-0.013814 -0.022575 0.913066
-0.012286 -0.022604 0.914238
-0.010768 -0.022662 0.916580
-0.009246 -0.022731 0.919378
-0.007714 -0.022798 0.922050
-0.006173 -0.022861 0.924602
-0.004619 -0.022906 0.926440
-0.003054 -0.024491 0.926974
-0.003056 -0.022931 0.927441
-0.001489 -0.022953 0.928317
-0.088608 -0.021574 0.936806
-0.087012 -0.021571 0.936675
-0.085428 -0.021571 0.936675
-0.083845 -0.021571 0.936675
-0.082236 -0.021565 0.936390
-0.080618 -0.021555 0.935977
-0.078974 -0.021539 0.935256
-0.077294 -0.021511 0.934060
-0.075586 -0.021475 0.932471
-0.073866 -0.021433 0.930656
-0.072129 -0.021384 0.928547
-0.070413 -0.021340 0.926627
-0.068721 -0.021301 0.924934
-0.067057 -0.021269 0.923560
-0.065433 -0.021249 0.922666
-0.063837 -0.021237 0.922152
-0.062222 -0.021218 0.921310
-0.060624 -0.021204 0.920710
-0.059046 -0.021196 0.920359
-0.057465 -0.021187 0.919962
-0.055878 -0.021174 0.919443
-0.054301 -0.021166 0.919054
-0.052712 -0.021152 0.918449
-0.051099 -0.021127 0.917367
-0.049480 -0.021098 0.916106
-0.047860 -0.021066 0.914739
-0.046249 -0.021037 0.913461
-0.044647 -0.021010 0.912288
-0.043063 -0.020989 0.911405
-0.041505 -0.020980 0.911016
-0.039973 -0.020985 0.911203
-0.038462 -0.021001 0.911901
-0.036960 -0.021024 0.912892
-0.035456 -0.021047 0.913889
-0.033943 -0.021066 0.914755
-0.032423 -0.021084 0.915505
-0.030892 -0.021095 0.915994
-0.029353 -0.021102 0.916305
-0.027813 -0.021109 0.916595
-0.026269 -0.021113 0.916774
-0.024716 -0.021111 0.916688
-0.023160 -0.021105 0.916410
-0.021599 -0.021094 0.915929
-0.020036 -0.021078 0.915242
-0.018469 -0.021055 0.914267
-0.016908 -0.021037 0.913473
-0.015359 -0.021030 0.913151
-0.013817 -0.021032 0.913277
-0.012288 -0.021059 0.914437
-0.010772 -0.021117 0.916949
-0.009251 -0.021184 0.919835
-0.007720 -0.021249 0.922672
-0.006178 -0.021310 0.925319
-0.004622 -0.021352 0.927161
-0.003058 -0.021374 0.928095
-0.001491 -0.021396 0.929076
0.000080 -0.021410 0.929658
-0.090211 -0.019991 0.937013
-0.088617 -0.019988 0.936907
-0.087012 -0.019984 0.936675
-0.085428 -0.019984 0.936675
-0.083837 -0.019982 0.936585
-0.082219 -0.019973 0.936197
-0.080584 -0.019961 0.935592
-0.078932 -0.019943 0.934755
-0.077237 -0.019913 0.933367
-0.075528 -0.019879 0.931754
-0.073809 -0.019840 0.929942
-0.072082 -0.019797 0.927939
-0.070376 -0.019759 0.926131
-0.068699 -0.019727 0.924634
-0.067043 -0.019700 0.923366
-0.065426 -0.019683 0.922564
-0.063831 -0.019672 0.922060
-0.062215 -0.019654 0.921214
-0.060618 -0.019641 0.920614
-0.059034 -0.019632 0.920176
-0.057448 -0.019621 0.919689
-0.055860 -0.019610 0.919146
-0.054278 -0.019599 0.918669
-0.052685 -0.019584 0.917971
-0.051067 -0.019559 0.916794
-0.049444 -0.019530 0.915430
-0.047819 -0.019499 0.913963
-0.046209 -0.019472 0.912679
-0.044606 -0.019445 0.911435
-0.043024 -0.019427 0.910572
-0.041466 -0.019418 0.910170
-0.039935 -0.019422 0.910344
-0.038425 -0.019436 0.911024
-0.036925 -0.019458 0.912025
-0.035425 -0.019481 0.913108
-0.033917 -0.019501 0.914065
-0.032405 -0.019521 0.914996
-0.030878 -0.019534 0.915591
-0.029347 -0.019545 0.916105
-0.027808 -0.019551 0.916414
-0.026266 -0.019557 0.916681
-0.024716 -0.019557 0.916678
-0.023162 -0.019553 0.916500
-0.021602 -0.019543 0.916035
-0.020042 -0.019532 0.915520
-0.018475 -0.019512 0.914552
-0.016912 -0.019493 0.913667
-0.015362 -0.019486 0.913333
-0.013818 -0.019486 0.913346
-0.012287 -0.019507 0.914323
-0.010770 -0.019560 0.916804
-0.009250 -0.019621 0.919697
-0.007719 -0.019683 0.922563
-0.006179 -0.019746 0.925517
-0.004625 -0.019791 0.927652
-0.003060 -0.019814 0.928726
-0.001492 -0.019839 0.929898
0.000080 -0.019855 0.930650
0.001655 -0.019880 0.931825
-0.091838 -0.018411 0.937445
-0.090221 -0.018404 0.937110
-0.088626 -0.018402 0.936998
-0.087012 -0.018396 0.936675
-0.085428 -0.018396 0.936675
-0.083828 -0.018392 0.936489
-0.082202 -0.018383 0.936000
-0.080558 -0.018368 0.935287
-0.078898 -0.018350 0.934347
-0.077194 -0.018321 0.932853
-0.075486 -0.018289 0.931232
-0.073774 -0.018255 0.929495
-0.072054 -0.018217 0.927579
-0.070356 -0.018184 0.925874
-0.068694 -0.018158 0.924578
-0.067047 -0.018135 0.923417
-0.065430 -0.018120 0.922631
-0.063836 -0.018110 0.922130
-0.062220 -0.018094 0.921285
-0.060617 -0.018080 0.920601
-0.059033 -0.018071 0.920159
-0.057447 -0.018062 0.919673
-0.055853 -0.018049 0.919037
-0.054271 -0.018040 0.918550
-0.052672 -0.018024 0.917746
-0.051045 -0.017997 0.916397
-0.049412 -0.017967 0.914841
-0.047788 -0.017938 0.913360
-0.046175 -0.017911 0.912000
-0.044568 -0.017885 0.910677
-0.042988 -0.017868 0.909818
-0.041432 -0.017860 0.909409
-0.039898 -0.017862 0.909494
-0.038381 -0.017872 0.909996
-0.036883 -0.017891 0.910986
-0.035385 -0.017912 0.912061
-0.033882 -0.017933 0.913117
-0.032375 -0.017954 0.914157
-0.030856 -0.017969 0.914942
-0.029332 -0.017983 0.915643
-0.027796 -0.017990 0.916041
-0.026258 -0.017998 0.916400
-0.024711 -0.017999 0.916485
-0.023162 -0.017999 0.916486
-0.021602 -0.017990 0.916041
-0.020046 -0.017984 0.915716
-0.018480 -0.017967 0.914828
-0.016919 -0.017951 0.914022
-0.015366 -0.017943 0.913602
-0.013820 -0.017941 0.913504
-0.012286 -0.017956 0.914279
-0.010767 -0.018001 0.916557
-0.009246 -0.018056 0.919376
-0.007717 -0.018115 0.922356
-0.006180 -0.018179 0.925618
-0.004627 -0.018227 0.928062
-0.003062 -0.018252 0.929359
-0.001493 -0.018278 0.930689
0.000080 -0.018297 0.931623
0.001657 -0.018321 0.932895
-0.091849 -0.016824 0.937562
-0.090227 -0.016817 0.937176
-0.088633 -0.016815 0.937073
-0.087012 -0.016808 0.936675
-0.085428 -0.016808 0.936675
-0.083819 -0.016803 0.936390
-0.082192 -0.016794 0.935887
-0.080539 -0.016779 0.935060
-0.078871 -0.016761 0.934033
-0.077160 -0.016732 0.932439
-0.075453 -0.016703 0.930825
-0.073741 -0.016672 0.929081
-0.072030 -0.016639 0.927275
-0.070347 -0.016612 0.925756
-0.068693 -0.016591 0.924564
-0.067060 -0.016573 0.923592
-0.065450 -0.016561 0.922912
-0.063855 -0.016552 0.922413
-0.062239 -0.016537 0.921563
-0.060635 -0.016524 0.920862
-0.059039 -0.016513 0.920250
-0.057446 -0.016503 0.919670
-0.055847 -0.016490 0.918934
-0.054254 -0.016478 0.918268
-0.052645 -0.016460 0.917281
-0.051018 -0.016435 0.915912
-0.049381 -0.016406 0.914259
-0.047757 -0.016379 0.912779
-0.046146 -0.016355 0.911420
-0.044544 -0.016333 0.910181
-0.042965 -0.016317 0.909318
-0.041405 -0.016308 0.908814
-0.039871 -0.016309 0.908889
-0.038352 -0.016317 0.909304
-0.036851 -0.016333 0.910195
-0.035354 -0.016352 0.911273
-0.033853 -0.016371 0.912329
-0.032348 -0.016390 0.913390
-0.030834 -0.016406 0.914275
-0.029314 -0.016420 0.915070
-0.027779 -0.016428 0.915472
-0.026246 -0.016437 0.916002
-0.024703 -0.016440 0.916177
-0.023157 -0.016442 0.916299
-0.021600 -0.016436 0.915955
-0.020046 -0.016432 0.915728
-0.018482 -0.016418 0.914930
-0.016921 -0.016403 0.914137
-0.015368 -0.016396 0.913719
-0.013821 -0.016393 0.913532
-0.012285 -0.016405 0.914193
-0.010762 -0.016439 0.916100
-0.009241 -0.016487 0.918793
-0.007712 -0.016541 0.921778
-0.006177 -0.016603 0.925243
-0.004627 -0.016652 0.928003
-0.003064 -0.016684 0.929784
-0.001494 -0.016714 0.931424
0.000080 -0.016735 0.932592
0.001659 -0.016760 0.934012
0.003245 -0.016797 0.936064
-0.093439 -0.015235 0.937615
-0.091815 -0.015229 0.937217
-0.090184 -0.015221 0.936729
-0.088604 -0.015222 0.936767
-0.086985 -0.015216 0.936390
-0.085411 -0.015217 0.936489
-0.083802 -0.015212 0.936203
-0.082175 -0.015204 0.935691
-0.080512 -0.015189 0.934756
-0.078837 -0.015171 0.933632
-0.077127 -0.015145 0.932042
-0.075422 -0.015119 0.930448
-0.073720 -0.015092 0.928819
-0.072024 -0.015066 0.927200
-0.070357 -0.015045 0.925889
-0.068718 -0.015029 0.924899
-0.067105 -0.015018 0.924212
-0.065501 -0.015008 0.923627
-0.063904 -0.015000 0.923116
-0.062291 -0.014987 0.922337
-0.060679 -0.014974 0.921543
-0.059076 -0.014963 0.920830
-0.057476 -0.014952 0.920147
-0.055864 -0.014937 0.919219
-0.054254 -0.014921 0.918262
-0.052628 -0.014900 0.916991
-0.050991 -0.014875 0.915431
-0.049349 -0.014847 0.913681
-0.047727 -0.014822 0.912205
-0.046112 -0.014799 0.910761
-0.044516 -0.014780 0.909611
-0.042937 -0.014766 0.908740
-0.041378 -0.014758 0.908235
-0.039842 -0.014758 0.908223
-0.038323 -0.014764 0.908620
-0.036820 -0.014777 0.909414
-0.035320 -0.014793 0.910387
-0.033820 -0.014810 0.911449
-0.032320 -0.014829 0.912593
-0.030810 -0.014845 0.913582
-0.029294 -0.014859 0.914465
-0.027763 -0.014867 0.914954
-0.026235 -0.014878 0.915588
-0.024692 -0.014881 0.915786
-0.023152 -0.014886 0.916097
-0.021598 -0.014882 0.915860
-0.020046 -0.014880 0.915731
-0.018484 -0.014868 0.915031
-0.016926 -0.014859 0.914425
-0.015372 -0.014851 0.913948
-0.013823 -0.014847 0.913685
-0.012284 -0.014854 0.914140
-0.010755 -0.014876 0.915479
-0.009230 -0.014913 0.917748
-0.007700 -0.014955 0.920340
-0.006169 -0.015015 0.924063
-0.004623 -0.015067 0.927244
-0.003063 -0.015107 0.929725
-0.001499 -0.015185 0.934497
0.000081 -0.015263 0.939340
-0.095082 -0.015245 0.938178
-0.094971 -0.013638 0.937085
-0.093353 -0.013633 0.936753
-0.091748 -0.013630 0.936528
-0.090132 -0.013625 0.936188
-0.088555 -0.013626 0.936254
-0.086939 -0.013621 0.935887
-0.085367 -0.013623 0.936000
-0.083760 -0.013618 0.935725
-0.082133 -0.013611 0.935213
-0.080471 -0.013597 0.934275
-0.078796 -0.013581 0.933142
-0.077095 -0.013559 0.931648
-0.075406 -0.013539 0.930243
-0.073721 -0.013518 0.928827
-0.072041 -0.013498 0.927419
-0.070390 -0.013482 0.926320
-0.068765 -0.013470 0.925524
-0.067159 -0.013462 0.924959
-0.065560 -0.013455 0.924467
-0.063969 -0.013449 0.924056
-0.062360 -0.013439 0.923360
-0.060746 -0.013427 0.922552
-0.059135 -0.013415 0.921748
-0.057521 -0.013402 0.920859
-0.055895 -0.013385 0.919716
-0.054265 -0.013367 0.918452
-0.052622 -0.013344 0.916882
-0.050979 -0.013320 0.915201
-0.049332 -0.013293 0.913360
-0.047712 -0.013272 0.911901
-0.046097 -0.013251 0.910466
-0.044502 -0.013234 0.909319
-0.042919 -0.013220 0.908352
-0.041361 -0.013213 0.907853
-0.039818 -0.013210 0.907667
-0.038300 -0.013216 0.908054
-0.036793 -0.013226 0.908747
-0.035290 -0.013238 0.909614
-0.033791 -0.013254 0.910657
-0.032292 -0.013270 0.911803
-0.030781 -0.013284 0.912704
-0.029272 -0.013299 0.913767
-0.027745 -0.013308 0.914361
-0.026221 -0.013318 0.915096
-0.024684 -0.013324 0.915490
-0.023149 -0.013331 0.915985
-0.021595 -0.013328 0.915762
-0.020046 -0.013327 0.915721
-0.018486 -0.013319 0.915117
-0.016930 -0.013311 0.914619
-0.015376 -0.013305 0.914158
-0.013826 -0.013301 0.913895
-0.012285 -0.013305 0.914155
-0.010748 -0.013315 0.914902
-0.009218 -0.013339 0.916556
-0.007685 -0.013368 0.918502
-0.006175 -0.013462 0.924993
-0.004643 -0.013554 0.931322
-0.003089 -0.013644 0.937468
-0.096322 -0.012021 0.934829
-0.094817 -0.012030 0.935570
-0.093231 -0.012030 0.935526
-0.091638 -0.012028 0.935407
-0.090034 -0.012025 0.935176
-0.088477 -0.012028 0.935420
-0.086880 -0.012026 0.935256
-0.085319 -0.012029 0.935482
-0.083730 -0.012028 0.935396
-0.082104 -0.012022 0.934888
-0.080444 -0.012010 0.933959
-0.078776 -0.011996 0.932909
-0.077091 -0.011979 0.931608
-0.075411 -0.011963 0.930306
-0.073743 -0.011947 0.929102
-0.072078 -0.011932 0.927894
-0.070448 -0.011921 0.927085
-0.068831 -0.011913 0.926413
-0.067231 -0.011907 0.925952
-0.065639 -0.011902 0.925570
-0.064052 -0.011898 0.925252
-0.062435 -0.011888 0.924477
-0.060821 -0.011878 0.923687
-0.059201 -0.011866 0.922787
-0.057573 -0.011852 0.921692
-0.055927 -0.011833 0.920243
-0.054277 -0.011813 0.918658
-0.052617 -0.011789 0.916784
-0.050962 -0.011765 0.914906
-0.049311 -0.011740 0.912973
-0.047687 -0.011720 0.911436
-0.046074 -0.011702 0.910006
-0.044484 -0.011688 0.908947
-0.042906 -0.011677 0.908069
-0.041348 -0.011671 0.907583
-0.039806 -0.011668 0.907391
-0.038288 -0.011673 0.907768
-0.036777 -0.011680 0.908352
-0.035268 -0.011689 0.909048
-0.033769 -0.011703 0.910074
-0.032271 -0.011717 0.911206
-0.030761 -0.011729 0.912111
-0.029256 -0.011744 0.913275
-0.027739 -0.011755 0.914144
-0.026218 -0.011766 0.914994
-0.024684 -0.011772 0.915490
-0.023151 -0.011780 0.916072
-0.021599 -0.011778 0.915919
-0.020050 -0.011777 0.915894
-0.018493 -0.011772 0.915473
-0.016938 -0.011767 0.915077
-0.015383 -0.011761 0.914618
-0.013832 -0.011756 0.914251
-0.012286 -0.011756 0.914222
-0.010741 -0.011757 0.914290
-0.009205 -0.011769 0.915238
-0.007668 -0.011784 0.916444
-0.006158 -0.011861 0.922397
-0.004647 -0.011985 0.932004
-0.001518 -0.013770 0.946113
-0.003105 -0.012116 0.942250
0.000082 -0.013891 0.954474
-0.001533 -0.012284 0.955298
-0.096158 -0.010418 0.933237
-0.094662 -0.010427 0.934036
-0.093104 -0.010430 0.934251
-0.091515 -0.010429 0.934152
-0.089933 -0.010428 0.934129
-0.088397 -0.010433 0.934583
-0.086822 -0.010434 0.934632
-0.085280 -0.010439 0.935045
-0.083708 -0.010440 0.935150
-0.082083 -0.010434 0.934648
-0.080425 -0.010424 0.933737
-0.078766 -0.010413 0.932787
-0.077090 -0.010400 0.931591
-0.075419 -0.010387 0.930404
-0.073766 -0.010375 0.929399
-0.072117 -0.010364 0.928393
-0.070500 -0.010357 0.927765
-0.068889 -0.010351 0.927196
-0.067301 -0.010348 0.926917
-0.065715 -0.010345 0.926639
-0.064127 -0.010341 0.926335
-0.062515 -0.010334 0.925658
-0.060899 -0.010325 0.924878
-0.059272 -0.010314 0.923883
-0.057630 -0.010300 0.922607
-0.055968 -0.010281 0.920931
-0.054295 -0.010259 0.918960
-0.052612 -0.010234 0.916701
-0.050942 -0.010210 0.914536
-0.049286 -0.010187 0.912506
-0.047658 -0.010169 0.910877
-0.046046 -0.010153 0.909454
-0.044461 -0.010142 0.908483
-0.042884 -0.010132 0.907615
-0.041328 -0.010127 0.907133
-0.039786 -0.010125 0.906941
-0.038268 -0.010129 0.907315
-0.036758 -0.010135 0.907895
-0.035250 -0.010143 0.908586
-0.033752 -0.010155 0.909610
-0.032257 -0.010168 0.910828
-0.030754 -0.010180 0.911908
-0.029256 -0.010195 0.913260
-0.027747 -0.010208 0.914422
-0.026232 -0.010220 0.915483
-0.024700 -0.010227 0.916068
-0.023166 -0.010233 0.916644
-0.021614 -0.010232 0.916573
-0.020062 -0.010231 0.916463
-0.018505 -0.010227 0.916054
-0.016949 -0.010222 0.915655
-0.015391 -0.010216 0.915100
-0.013836 -0.010210 0.914534
-0.012285 -0.010206 0.914213
-0.010734 -0.010200 0.913714
-0.009192 -0.010203 0.913970
-0.007651 -0.010209 0.914455
-0.006140 -0.010267 0.919667
-0.097548 -0.008819 0.931440
-0.096017 -0.008823 0.931866
-0.094514 -0.008830 0.932581
-0.092969 -0.008833 0.932893
-0.091384 -0.008832 0.932814
-0.089825 -0.008834 0.933005
-0.088294 -0.008839 0.933492
-0.086732 -0.008840 0.933665
-0.085210 -0.008846 0.934278
-0.083656 -0.008849 0.934573
-0.082042 -0.008845 0.934180
-0.080400 -0.008838 0.933456
-0.078758 -0.008831 0.932698
-0.077091 -0.008821 0.931606
-0.075430 -0.008811 0.930543
-0.073792 -0.008803 0.929727
-0.072157 -0.008795 0.928907
-0.070546 -0.008790 0.928374
-0.068941 -0.008786 0.927899
-0.067359 -0.008784 0.927720
-0.065771 -0.008781 0.927435
-0.064182 -0.008779 0.927127
-0.062574 -0.008773 0.926531
-0.060957 -0.008766 0.925752
-0.059328 -0.008756 0.924762
-0.057679 -0.008743 0.923391
-0.056004 -0.008725 0.921516
-0.054318 -0.008705 0.919339
-0.052617 -0.008681 0.916790
-0.050931 -0.008657 0.914340
-0.049269 -0.008637 0.912201
-0.047636 -0.008621 0.910460
-0.046025 -0.008607 0.909043
-0.044441 -0.008598 0.908077
-0.042866 -0.008590 0.907227
-0.041314 -0.008586 0.906826
-0.039773 -0.008585 0.906641
-0.038252 -0.008587 0.906929
-0.036746 -0.008594 0.907600
-0.035239 -0.008600 0.908297
-0.033742 -0.008610 0.909333
-0.032254 -0.008623 0.910732
-0.030757 -0.008635 0.912009
-0.029266 -0.008650 0.913578
-0.027766 -0.008664 0.915036
-0.026255 -0.008676 0.916287
-0.024724 -0.008682 0.916982
-0.023191 -0.008689 0.917632
-0.021638 -0.008688 0.917560
-0.020084 -0.008687 0.917447
-0.018523 -0.008682 0.916964
-0.016964 -0.008678 0.916465
-0.015402 -0.008670 0.915714
-0.013842 -0.008663 0.914939
-0.012286 -0.008657 0.914240
-0.010731 -0.008649 0.913448
-0.009183 -0.008646 0.913124
-0.007639 -0.008645 0.913029
-0.006124 -0.008685 0.917224
-0.099057 -0.008814 0.930826
-0.100488 -0.007225 0.929505
-0.098961 -0.007229 0.929921
-0.097415 -0.007231 0.930175
-0.095880 -0.007233 0.930539
-0.094364 -0.007238 0.931095
-0.092822 -0.007240 0.931423
-0.091268 -0.007242 0.931627
-0.089738 -0.007246 0.932099
-0.088210 -0.007249 0.932604
-0.086659 -0.007252 0.932873
-0.085146 -0.007257 0.933582
-0.083596 -0.007260 0.933893
-0.081993 -0.007257 0.933625
-0.080369 -0.007253 0.933091
-0.078752 -0.007250 0.932618
-0.077101 -0.007243 0.931721
-0.075455 -0.007236 0.930855
-0.073826 -0.007230 0.930152
-0.072197 -0.007225 0.929421
-0.070586 -0.007221 0.928899
-0.068980 -0.007217 0.928426
-0.067398 -0.007216 0.928249
-0.065815 -0.007214 0.928050
-0.064224 -0.007212 0.927736
-0.062614 -0.007207 0.927127
-0.061001 -0.007201 0.926422
-0.059372 -0.007194 0.925443
-0.057710 -0.007182 0.923892
-0.056029 -0.007167 0.921926
-0.054334 -0.007149 0.919623
-0.052617 -0.007127 0.916793
-0.050920 -0.007106 0.914141
-0.049252 -0.007088 0.911884
-0.047610 -0.007074 0.909965
-0.045995 -0.007062 0.908451
-0.044413 -0.007054 0.907495
-0.042838 -0.007048 0.906649
-0.041291 -0.007045 0.906332
-0.039759 -0.007045 0.906326
-0.038239 -0.007048 0.906622
-0.036738 -0.007054 0.907395
-0.035234 -0.007060 0.908174
-0.033738 -0.007068 0.909227
-0.032251 -0.007079 0.910651
-0.030764 -0.007091 0.912218
-0.029279 -0.007105 0.913996
-0.027788 -0.007119 0.915763
-0.026282 -0.007130 0.917223
-0.024757 -0.007137 0.918186
-0.023221 -0.007143 0.918844
-0.021668 -0.007143 0.918862
-0.020110 -0.007141 0.918663
-0.018547 -0.007137 0.918163
-0.016982 -0.007132 0.917466
-0.015417 -0.007125 0.916593
-0.013853 -0.007118 0.915629
-0.012291 -0.007110 0.914637
-0.010733 -0.007102 0.913655
-0.009182 -0.007097 0.912945
-0.007634 -0.007092 0.912385
-0.006111 -0.007115 0.915317
-0.102036 -0.005648 0.929289
-0.100474 -0.005649 0.929374
-0.098921 -0.005650 0.929547
-0.097367 -0.005651 0.929714
-0.095815 -0.005652 0.929903
-0.094274 -0.005654 0.930209
-0.092723 -0.005655 0.930430
-0.091179 -0.005657 0.930726
-0.089653 -0.005660 0.931211
-0.088135 -0.005664 0.931809
-0.086599 -0.005666 0.932238
-0.085103 -0.005672 0.933113
-0.083555 -0.005674 0.933443
-0.081965 -0.005673 0.933298
-0.080343 -0.005670 0.932791
-0.078735 -0.005667 0.932416
-0.077085 -0.005662 0.931534
-0.075448 -0.005657 0.930769
-0.073827 -0.005654 0.930171
-0.072213 -0.005651 0.929631
-0.070610 -0.005648 0.929210
-0.069011 -0.005646 0.928833
-0.067434 -0.005645 0.928747
-0.065844 -0.005643 0.928463
-0.064246 -0.005641 0.928050
-0.062635 -0.005637 0.927435
-0.061021 -0.005633 0.926726
-0.059386 -0.005626 0.925671
-0.057724 -0.005617 0.924118
-0.056042 -0.005605 0.922138
-0.054335 -0.005590 0.919643
-0.052607 -0.005571 0.916616
-0.050899 -0.005554 0.913776
-0.049227 -0.005540 0.911412
-0.047576 -0.005527 0.909313
-0.045962 -0.005518 0.907789
-0.044380 -0.005512 0.906834
-0.042815 -0.005508 0.906154
-0.041274 -0.005507 0.905944
-0.039750 -0.005508 0.906127
-0.038235 -0.005510 0.906529
-0.036737 -0.005515 0.907384
-0.035234 -0.005520 0.908164
-0.033741 -0.005527 0.909303
-0.032260 -0.005537 0.910911
-0.030786 -0.005549 0.912860
-0.029310 -0.005561 0.914951
-0.027828 -0.005574 0.917096
-0.026325 -0.005584 0.918760
-0.024801 -0.005591 0.919827
-0.023261 -0.005595 0.920416
-0.021705 -0.005595 0.920435
-0.020143 -0.005593 0.920142
-0.018575 -0.005589 0.919532
-0.017004 -0.005584 0.918644
-0.015433 -0.005577 0.917558
-0.013864 -0.005570 0.916396
-0.012297 -0.005562 0.915043
-0.010736 -0.005555 0.913866
-0.009182 -0.005549 0.912960
-0.007631 -0.005544 0.912116
-0.006085 -0.005540 0.911464
-0.103603 -0.004073 0.929261
-0.102030 -0.004073 0.929238
-0.100458 -0.004073 0.929224
-0.098895 -0.004073 0.929305
-0.097333 -0.004074 0.929386
-0.095772 -0.004074 0.929492
-0.094222 -0.004075 0.929693
-0.092670 -0.004076 0.929893
-0.091136 -0.004078 0.930281
-0.089611 -0.004080 0.930779
-0.088087 -0.004082 0.931300
-0.086551 -0.004084 0.931719
-0.085054 -0.004088 0.932577
-0.083499 -0.004089 0.932811
-0.081917 -0.004088 0.932760
-0.080306 -0.004087 0.932361
-0.078700 -0.004085 0.932004
-0.077059 -0.004082 0.931211
-0.075430 -0.004079 0.930542
-0.073817 -0.004076 0.930045
-0.072219 -0.004075 0.929709
-0.070624 -0.004074 0.929396
-0.069031 -0.004072 0.929114
-0.067461 -0.004072 0.929114
-0.065864 -0.004071 0.928747
-0.064259 -0.004069 0.928249
-0.062655 -0.004066 0.927720
-0.061034 -0.004063 0.926924
-0.059393 -0.004058 0.925780
-0.057731 -0.004051 0.924230
-0.056047 -0.004042 0.922229
-0.054335 -0.004031 0.919636
-0.052601 -0.004017 0.916514
-0.050888 -0.004004 0.913580
-0.049207 -0.003993 0.911038
-0.047551 -0.003983 0.908834
-0.045933 -0.003976 0.907216
-0.044352 -0.003972 0.906251
-0.042789 -0.003969 0.905591
-0.041257 -0.003969 0.905577
-0.039739 -0.003971 0.905872
-0.038229 -0.003973 0.906383
-0.036735 -0.003977 0.907326
-0.035238 -0.003981 0.908268
-0.033748 -0.003986 0.909496
-0.032274 -0.003994 0.911290
-0.030809 -0.004004 0.913524
-0.029341 -0.004015 0.915906
-0.027864 -0.004025 0.918283
-0.026365 -0.004033 0.920135
-0.024841 -0.004038 0.921307
-0.023298 -0.004041 0.921886
-0.021738 -0.004040 0.921811
-0.020171 -0.004039 0.921420
-0.018597 -0.004035 0.920629
-0.017022 -0.004031 0.919619
-0.015446 -0.004025 0.918352
-0.013874 -0.004020 0.917075
-0.012303 -0.004013 0.915539
-0.010740 -0.004007 0.914241
-0.009184 -0.004002 0.913147
-0.007631 -0.003998 0.912107
-0.006084 -0.003994 0.911265
-0.004580 -0.005584 0.918629
-0.004560 -0.004009 0.914541
-0.105141 -0.002497 0.928961
-0.103573 -0.002497 0.928990
-0.102005 -0.002497 0.929014
-0.100446 -0.002497 0.929114
-0.098875 -0.002497 0.929114
-0.097304 -0.002497 0.929114
-0.095743 -0.002498 0.929202
-0.094182 -0.002498 0.929298
-0.092620 -0.002498 0.929396
-0.091095 -0.002499 0.929870
-0.089572 -0.002501 0.930377
-0.088042 -0.002502 0.930824
-0.086507 -0.002503 0.931243
-0.085001 -0.002505 0.931994
-0.083437 -0.002505 0.932121
-0.081856 -0.002505 0.932065
