1769
0.079430 0.010007 0.920348
0.081021 0.010012 0.920752
0.082658 0.010021 0.921644
0.084319 0.010034 0.922768
0.086004 0.010048 0.924118
0.087683 0.010062 0.925352
0.089407 0.010080 0.927002
0.091128 0.010097 0.928569
0.092813 0.010109 0.929725
0.094476 0.010119 0.930628
0.096124 0.010127 0.931347
0.097702 0.010127 0.931379
0.099245 0.010124 0.931083
0.100808 0.010123 0.930981
0.102359 0.010121 0.930778
0.103963 0.010123 0.931045
0.105615 0.010131 0.931739
0.107334 0.010145 0.932984
0.109119 0.010164 0.934768
0.111014 0.010193 0.937424
0.112990 0.010228 0.940681
0.114950 0.010261 0.943716
0.116869 0.010290 0.946339
0.118747 0.010314 0.948563
0.120612 0.010336 0.950617
0.122421 0.010353 0.952186
0.124309 0.010377 0.954329
0.126302 0.010408 0.957204
0.128366 0.010444 0.960538
0.130554 0.010490 0.964707
0.133314 0.010579 0.972949
0.136076 0.010667 0.981001
0.138765 0.010747 0.988342
0.141342 0.010816 0.994718
0.143641 0.010863 0.999011
0.145280 0.010859 0.998671
0.146821 0.010848 0.997672
0.148319 0.010834 0.996405
0.149694 0.010812 0.994348
0.151012 0.010786 0.991962
0.152239 0.010754 0.989040
0.153504 0.010726 0.986422
0.154761 0.010697 0.983815
0.156003 0.010668 0.981164
0.157235 0.010640 0.978512
0.158473 0.010612 0.975949
0.159687 0.010583 0.973287
0.160881 0.010553 0.970564
0.162102 0.010526 0.968062
0.163336 0.010500 0.965677
0.164615 0.010478 0.963607
0.165928 0.010458 0.961781
0.167296 0.010441 0.960297
0.168663 0.010426 0.958840
0.170056 0.010412 0.957554
0.171441 0.010398 0.956254
0.173074 0.010398 0.956341
0.175773 0.008832 0.962270
0.174995 0.010417 0.958007
0.183603 0.010634 0.977981
0.186265 0.010692 0.983306
0.188613 0.010731 0.986893
0.190280 0.010731 0.986884
0.191738 0.010719 0.985802
0.193296 0.010713 0.985250
0.194976 0.010714 0.985322
0.196609 0.010712 0.985159
0.198389 0.010718 0.985728
0.200148 0.010723 0.986186
0.201908 0.010728 0.986638
0.203536 0.010726 0.986443
0.205260 0.010729 0.986715
0.206968 0.010731 0.986906
0.208715 0.010735 0.987279
0.210487 0.010740 0.987762
0.212277 0.010746 0.988317
0.214084 0.010753 0.988950
0.215833 0.010757 0.989303
0.217589 0.010761 0.989681
0.219340 0.010765 0.990034
0.221085 0.010768 0.990353
0.222735 0.010767 0.990245
0.224334 0.010764 0.989915
0.225926 0.010760 0.989556
0.227488 0.010754 0.989076
0.229030 0.010748 0.988515
0.230598 0.010743 0.988071
0.232214 0.010741 0.987841
0.233807 0.010738 0.987515
0.235423 0.010735 0.987290
0.237058 0.010734 0.987149
0.238699 0.010732 0.987034
0.240371 0.010732 0.987050
0.242252 0.010742 0.987912
0.246123 0.009149 0.996826
0.246203 0.010842 0.997153
-0.038656 0.012523 0.996380
-0.036918 0.012505 0.994941
-0.035197 0.012491 0.993820
-0.033476 0.012475 0.992610
-0.031761 0.012461 0.991470
-0.021831 0.011636 0.925786
-0.020228 0.011613 0.924013
-0.018632 0.011593 0.922360
-0.017049 0.011577 0.921093
-0.015477 0.011565 0.920170
-0.013905 0.011552 0.919100
-0.012336 0.011537 0.917957
-0.010767 0.011519 0.916521
-0.009205 0.011503 0.915214
-0.007646 0.011485 0.913815
-0.006094 0.011473 0.912838
-0.004545 0.011458 0.911658
-0.003001 0.011447 0.910803
-0.001459 0.011432 0.909545
0.000078 0.011402 0.907202
0.001607 0.011365 0.904273
0.003125 0.011328 0.901271
0.004633 0.011289 0.898227
0.006130 0.011251 0.895187
0.007625 0.011223 0.892957
0.009116 0.011201 0.891170
0.010603 0.011180 0.889505
0.012089 0.011164 0.888221
0.013577 0.011152 0.887300
0.015066 0.011144 0.886674
0.016559 0.011140 0.886328
0.018063 0.011143 0.886605
0.019568 0.011147 0.886914
0.021083 0.011155 0.887570
0.022602 0.011164 0.888293
0.024121 0.011172 0.888928
0.025634 0.011177 0.889289
0.027151 0.011183 0.889735
0.028658 0.011184 0.889837
0.030166 0.011185 0.889932
0.031673 0.011186 0.890008
0.033174 0.011185 0.889916
0.034665 0.011180 0.889563
0.036164 0.011179 0.889434
0.037666 0.011179 0.889415
0.039168 0.011178 0.889367
0.040666 0.011176 0.889236
0.042168 0.011176 0.889221
0.043678 0.011178 0.889345
0.045194 0.011181 0.889612
0.046735 0.011190 0.890305
0.048308 0.011205 0.891555
0.049899 0.011224 0.893069
0.051516 0.011248 0.894916
0.053143 0.011272 0.896854
0.054752 0.011291 0.898373
0.056346 0.011306 0.899572
0.057928 0.011318 0.900517
0.059472 0.011322 0.900856
0.061020 0.011327 0.901216
0.062600 0.011337 0.902032
0.064211 0.011352 0.903244
0.065877 0.011376 0.905151
0.067582 0.011406 0.907508
0.069304 0.011437 0.909975
0.071001 0.011463 0.912010
0.072759 0.011497 0.914726
0.074482 0.011524 0.916899
0.076186 0.011547 0.918755
0.077854 0.011564 0.920118
0.079542 0.011584 0.921650
0.081150 0.011591 0.922220
0.082791 0.011602 0.923128
0.084467 0.011618 0.924389
0.086191 0.011640 0.926124
0.087903 0.011659 0.927666
0.089658 0.011684 0.929611
0.091375 0.011702 0.931091
0.093051 0.011715 0.932113
0.094689 0.011723 0.932720
0.096321 0.011730 0.933252
0.097878 0.011727 0.933061
0.099426 0.011723 0.932779
0.100989 0.011722 0.932655
0.102553 0.011720 0.932538
0.104172 0.011725 0.932924
0.105853 0.011737 0.933839
0.107622 0.011758 0.935493
0.109457 0.011785 0.937661
0.111389 0.011822 0.940588
0.113326 0.011858 0.943481
0.115251 0.011892 0.946188
0.117120 0.011920 0.948372
0.118950 0.011942 0.950180
0.120774 0.011964 0.951899
0.122602 0.011985 0.953601
0.124520 0.012015 0.955946
0.126529 0.012052 0.958926
0.128579 0.012092 0.962131
0.130765 0.012144 0.966264
0.133532 0.012248 0.974541
0.136277 0.012348 0.982455
0.138944 0.012438 0.989620
0.141539 0.012519 0.996104
0.143849 0.012574 1.000460
0.145497 0.012571 1.000170
0.147058 0.012559 0.999284
0.148540 0.012542 0.997890
0.149876 0.012513 0.995559
0.151139 0.012478 0.992796
0.152329 0.012438 0.989624
0.153544 0.012401 0.986682
0.154785 0.012367 0.983965
0.156006 0.012332 0.981186
0.157236 0.012298 0.978513
0.158469 0.012266 0.975923
0.159682 0.012232 0.973258
0.160876 0.012198 0.970538
0.162085 0.012166 0.967958
0.163300 0.012134 0.965469
0.164561 0.012107 0.963295
0.165855 0.012083 0.961354
0.167188 0.012062 0.959678
0.168550 0.012043 0.958200
0.169925 0.012026 0.956818
0.171273 0.012007 0.955315
0.172617 0.011988 0.953819
0.174243 0.011989 0.953893
0.177635 0.010477 0.963542
0.176551 0.012036 0.957663
0.187592 0.012336 0.981552
0.189551 0.012356 0.983102
0.191256 0.012359 0.983327
0.193049 0.012367 0.983993
0.194727 0.012368 0.984066
0.196378 0.012367 0.984002
0.198159 0.012375 0.984584
0.199919 0.012381 0.985058
0.201698 0.012388 0.985612
0.203345 0.012386 0.985519
0.205071 0.012390 0.985805
0.206800 0.012394 0.986105
0.208566 0.012400 0.986570
0.210340 0.012406 0.987069
0.212130 0.012413 0.987635
0.213982 0.012424 0.988478
0.215756 0.012429 0.988950
0.217539 0.012436 0.989455
0.219316 0.012442 0.989926
0.221085 0.012447 0.990353
0.222737 0.012446 0.990253
0.224362 0.012443 0.990037
0.225983 0.012440 0.989807
0.227577 0.012436 0.989463
0.229145 0.012430 0.989010
0.230731 0.012426 0.988641
0.232320 0.012421 0.988290
0.233885 0.012416 0.987845
0.235498 0.012413 0.987607
0.237138 0.012411 0.987482
0.238832 0.012412 0.987582
0.240608 0.012418 0.988022
0.242707 0.012440 0.989770
0.246351 0.012540 0.997752
0.250377 0.010951 1.007160
0.250214 0.012650 1.006510
-0.038855 0.014285 1.001520
-0.037092 0.014258 0.999629
-0.035348 0.014236 0.998087
-0.033606 0.014213 0.996468
-0.031873 0.014191 0.994949
-0.021836 0.013208 0.925976
-0.020241 0.013188 0.924602
-0.018646 0.013166 0.923043
-0.017060 0.013146 0.921668
-0.015484 0.013131 0.920574
-0.013910 0.013114 0.919410
-0.012337 0.013095 0.918072
-0.010768 0.013074 0.916609
-0.009204 0.013054 0.915207
-0.007646 0.013034 0.913825
-0.006094 0.013019 0.912772
-0.004545 0.013004 0.911668
-0.003001 0.012989 0.910634
-0.001459 0.012970 0.909284
0.000078 0.012935 0.906863
0.001606 0.012893 0.903916
0.003123 0.012849 0.900820
0.004631 0.012807 0.897852
0.006129 0.012765 0.894902
0.007622 0.012733 0.892689
0.009114 0.012709 0.890994
0.010601 0.012685 0.889334
0.012084 0.012664 0.887886
0.013569 0.012649 0.886779
0.015054 0.012637 0.885952
0.016538 0.012626 0.885223
0.018035 0.012627 0.885279
0.019536 0.012630 0.885472
0.021047 0.012638 0.886056
0.022566 0.012650 0.886881
0.024088 0.012662 0.887709
0.025605 0.012670 0.888270
0.027126 0.012679 0.888898
0.028637 0.012683 0.889177
0.030144 0.012684 0.889284
0.031647 0.012684 0.889264
0.033137 0.012679 0.888908
0.034615 0.012670 0.888275
0.036097 0.012663 0.887791
0.037581 0.012657 0.887394
0.039065 0.012652 0.887038
0.040549 0.012647 0.886693
0.042038 0.012644 0.886478
0.043534 0.012644 0.886429
0.045042 0.012646 0.886599
0.046571 0.012654 0.887186
0.048129 0.012670 0.888253
0.049700 0.012687 0.889507
0.051296 0.012710 0.891108
0.052900 0.012734 0.892740
0.054523 0.012760 0.894615
0.056147 0.012786 0.896393
0.057761 0.012808 0.897933
0.059338 0.012820 0.898815
0.060907 0.012831 0.899553
0.062457 0.012837 0.899983
0.064024 0.012846 0.900613
0.065647 0.012866 0.901991
0.067321 0.012894 0.903997
0.069023 0.012927 0.906285
0.070718 0.012957 0.908374
0.072485 0.012998 0.911275
0.074289 0.013044 0.914517
0.076069 0.013085 0.917344
0.077813 0.013117 0.919633
0.079583 0.013153 0.922124
0.081274 0.013174 0.923622
0.082924 0.013188 0.924609
0.084624 0.013210 0.926110
0.086376 0.013238 0.928116
0.088120 0.013264 0.929955
0.089865 0.013290 0.931751
0.091569 0.013309 0.933066
0.093228 0.013321 0.933885
0.094868 0.013329 0.934483
0.096488 0.013335 0.934878
0.098072 0.013335 0.934904
0.099642 0.013334 0.934811
0.101210 0.013332 0.934697
0.102787 0.013332 0.934671
0.104443 0.013341 0.935345
0.106153 0.013357 0.936480
0.107950 0.013384 0.938340
0.109833 0.013420 0.940879
0.111740 0.013458 0.943556
0.113649 0.013496 0.946165
0.115552 0.013531 0.948659
0.117388 0.013558 0.950536
0.119188 0.013580 0.952081
0.121029 0.013606 0.953904
0.122887 0.013633 0.955812
0.124800 0.013666 0.958093
0.126813 0.013708 0.961078
0.128825 0.013750 0.963974
0.130970 0.013804 0.967779
0.133686 0.013916 0.975664
0.136452 0.014031 0.983715
0.139098 0.014131 0.990716
0.141710 0.014225 0.997311
0.144067 0.014292 1.001980
0.145751 0.014291 1.001910
0.147319 0.014279 1.001060
0.148786 0.014257 0.999542
0.150101 0.014221 0.997048
0.151306 0.014177 0.993895
0.152443 0.014126 0.990366
0.153607 0.014079 0.987085
0.154831 0.014039 0.984259
0.156021 0.013996 0.981276
0.157234 0.013957 0.978505
0.158455 0.013919 0.975833
0.159669 0.013881 0.973182
0.160864 0.013842 0.970467
0.162086 0.013807 0.967967
0.163285 0.013770 0.965378
0.164526 0.013737 0.963092
0.165800 0.013708 0.961036
0.167113 0.013682 0.959245
0.168441 0.013658 0.957577
0.169779 0.013636 0.955999
0.171107 0.013613 0.954391
0.172431 0.013590 0.952790
0.173792 0.013571 0.951422
0.175798 0.013601 0.953581
0.179265 0.012110 0.963547
0.178206 0.013662 0.957855
0.186248 0.013900 0.974517
0.188519 0.013946 0.977750
0.190529 0.013972 0.979589
0.192612 0.014004 0.981766
0.194531 0.014022 0.983076
0.196181 0.014021 0.983012
0.197958 0.014029 0.983585
0.199712 0.014036 0.984038
0.201469 0.014042 0.984492
0.203118 0.014041 0.984420
0.204844 0.014046 0.984717
0.206575 0.014050 0.985030
0.208340 0.014057 0.985502
0.210135 0.014065 0.986110
0.211969 0.014077 0.986885
0.213868 0.014092 0.987953
0.215689 0.014101 0.988643
0.217539 0.014113 0.989455
0.219363 0.014123 0.990135
0.221156 0.014131 0.990673
0.222856 0.014132 0.990781
0.224508 0.014131 0.990681
0.226133 0.014128 0.990465
0.227755 0.014124 0.990236
0.229351 0.014120 0.989898
0.230945 0.014115 0.989558
0.232533 0.014109 0.989196
0.234096 0.014103 0.988736
0.235733 0.014101 0.988590
0.237404 0.014101 0.988589
0.239158 0.014106 0.988932
0.241047 0.014118 0.989825
0.243320 0.014153 0.992271
0.246568 0.014244 0.998630
0.250017 0.014345 1.005710
-0.039042 0.016059 1.006320
-0.037252 0.016021 1.003940
-0.035487 0.015991 1.002010
-0.033725 0.015958 0.999988
-0.031977 0.015930 0.998220
-0.021910 0.014827 0.929098
-0.020250 0.014762 0.925029
-0.018658 0.014740 0.923638
-0.017073 0.014720 0.922347
-0.015494 0.014701 0.921175
-0.013917 0.014681 0.919911
-0.012341 0.014656 0.918368
-0.010771 0.014632 0.916874
-0.009205 0.014607 0.915295
-0.007646 0.014584 0.913849
-0.006093 0.014566 0.912710
-0.004545 0.014548 0.911582
-0.003000 0.014528 0.910351
-0.001458 0.014506 0.908983
0.000078 0.014467 0.906552
0.001606 0.014422 0.903690
0.003123 0.014374 0.900682
0.004631 0.014328 0.897792
0.006128 0.014281 0.894855
0.007622 0.014246 0.892666
0.009114 0.014219 0.890985
0.010601 0.014193 0.889334
0.012083 0.014168 0.887799
0.013565 0.014148 0.886516
0.015046 0.014131 0.885487
0.016524 0.014115 0.884469
0.018012 0.014110 0.884153
0.019506 0.014109 0.884074
0.021009 0.014115 0.884472
0.022524 0.014127 0.885224
0.024046 0.014142 0.886149
0.025565 0.014154 0.886910
0.027090 0.014167 0.887726
0.028605 0.014174 0.888186
0.030113 0.014177 0.888362
0.031611 0.014176 0.888267
0.033096 0.014168 0.887812
0.034565 0.014155 0.886999
0.036037 0.014144 0.886316
0.037507 0.014134 0.885648
0.038976 0.014124 0.885015
0.040448 0.014115 0.884480
0.041929 0.014110 0.884177
0.043413 0.014107 0.883961
0.044912 0.014108 0.884042
0.046431 0.014116 0.884517
0.047967 0.014128 0.885269
0.049510 0.014141 0.886106
0.051072 0.014159 0.887216
0.052636 0.014176 0.888296
0.054225 0.014199 0.889719
0.055813 0.014220 0.891060
0.057382 0.014236 0.892041
0.059000 0.014262 0.893695
0.060617 0.014287 0.895269
0.062212 0.014306 0.896447
0.063810 0.014325 0.897605
0.065472 0.014356 0.899598
0.067103 0.014380 0.901067
0.068765 0.014409 0.902891
0.070429 0.014437 0.904666
0.072184 0.014482 0.907494
0.074001 0.014538 0.910975
0.075860 0.014599 0.914826
0.077696 0.014654 0.918243
0.079546 0.014709 0.921694
0.081321 0.014748 0.924154
0.083022 0.014773 0.925708
0.084715 0.014795 0.927106
0.086469 0.014827 0.929108
0.088222 0.014858 0.931034
0.089973 0.014887 0.932871
0.091688 0.014910 0.934279
0.093358 0.014924 0.935184
0.095009 0.014935 0.935876
0.096634 0.014942 0.936289
0.098221 0.014942 0.936326
0.099803 0.014942 0.936322
0.101382 0.014942 0.936285
0.102985 0.014945 0.936464
0.104679 0.014961 0.937457
0.106427 0.014984 0.938904
0.108264 0.015018 0.941072
0.110156 0.015059 0.943650
0.112049 0.015100 0.946162
0.113937 0.015138 0.948567
0.115819 0.015174 0.950850
0.117635 0.015201 0.952536
0.119453 0.015228 0.954196
0.121312 0.015259 0.956137
0.123189 0.015291 0.958165
0.125121 0.015329 0.960557
0.127127 0.015375 0.963453
0.129103 0.015417 0.966051
0.131188 0.015470 0.969395
0.133856 0.015590 0.976908
0.136577 0.015713 0.984613
0.139229 0.015825 0.991647
0.141850 0.015932 0.998298
0.144243 0.016010 1.003200
0.145930 0.016009 1.003140
0.147518 0.015997 1.002400
0.148973 0.015971 1.000800
0.150260 0.015928 0.998106
0.151411 0.015872 0.994581
0.152524 0.015813 0.990892
0.153635 0.015756 0.987266
0.154844 0.015709 0.984339
0.156033 0.015661 0.981357
0.157250 0.015617 0.978602
0.158457 0.015573 0.975849
0.159674 0.015531 0.973207
0.160869 0.015488 0.970492
0.162090 0.015448 0.967985
0.163286 0.015406 0.965385
0.164509 0.015368 0.962987
0.165747 0.015332 0.960730
0.167020 0.015300 0.958713
0.168328 0.015271 0.956933
0.169629 0.015243 0.955153
0.170957 0.015217 0.953555
0.172281 0.015192 0.951962
0.173658 0.015172 0.950688
0.175361 0.015180 0.951207
0.177451 0.015221 0.953800
0.180634 0.013724 0.962163
0.179555 0.015263 0.956419
0.187500 0.015519 0.972469
0.189864 0.015578 0.976167
0.192244 0.015638 0.979889
0.194405 0.015678 0.982438
0.196052 0.015677 0.982366
0.197822 0.015686 0.982912
0.199573 0.015693 0.983352
0.201328 0.015700 0.983803
0.203018 0.015702 0.983932
0.204745 0.015707 0.984240
0.206498 0.015714 0.984663
0.208284 0.015723 0.985239
0.210124 0.015736 0.986058
0.211987 0.015751 0.986967
0.213914 0.015770 0.988164
0.215760 0.015783 0.988969
0.217635 0.015797 0.989891
0.219462 0.015808 0.990583
0.221260 0.015817 0.991136
0.222985 0.015821 0.991356
0.224661 0.015821 0.991356
0.226309 0.015819 0.991236
0.227958 0.015817 0.991118
0.229584 0.015813 0.990903
0.231209 0.015810 0.990691
0.232806 0.015805 0.990358
0.234396 0.015799 0.990002
0.236082 0.015800 0.990054
0.237811 0.015804 0.990284
0.239633 0.015813 0.990896
0.241614 0.015834 0.992153
0.243985 0.015879 0.994979
0.246857 0.015956 0.999802
0.249869 0.016040 1.005120
0.253576 0.014451 1.013140
0.253007 0.016132 1.010860
-0.040975 0.016151 1.012060
-0.042974 0.016260 1.018870
-0.042972 0.017986 1.018830
-0.041046 0.017898 1.013810
-0.039170 0.017824 1.009630
-0.037359 0.017774 1.006820
-0.035575 0.017733 1.004490
-0.033808 0.017698 1.002480
-0.032064 0.017670 1.000910
-0.030103 0.015832 0.992075
-0.030267 0.017609 0.997466
-0.021990 0.016463 0.932519
-0.020254 0.016334 0.925228
-0.018667 0.016313 0.924059
-0.017081 0.016291 0.922771
-0.015499 0.016268 0.921499
-0.013921 0.016244 0.920148
-0.012343 0.016215 0.918485
-0.010771 0.016186 0.916884
-0.009204 0.016157 0.915207
-0.007644 0.016130 0.913679
-0.006092 0.016108 0.912434
-0.004543 0.016088 0.911291
-0.002998 0.016064 0.909938
-0.001458 0.016037 0.908401
0.000078 0.015995 0.906045
0.001605 0.015947 0.903285
0.003122 0.015895 0.900380
0.004630 0.015848 0.897695
0.006129 0.015799 0.894941
0.007623 0.015761 0.892757
0.009115 0.015731 0.891073
0.010602 0.015702 0.889416
0.012082 0.015671 0.887710
0.013562 0.015647 0.886335
0.015038 0.015624 0.885038
0.016510 0.015602 0.883762
0.017993 0.015591 0.883175
0.019480 0.015587 0.882913
0.020976 0.015589 0.883043
0.022487 0.015602 0.883771
0.024006 0.015618 0.884676
0.025523 0.015632 0.885447
0.027048 0.015648 0.886360
0.028568 0.015659 0.887012
0.030076 0.015664 0.887283
0.031573 0.015662 0.887188
0.033058 0.015655 0.886788
0.034522 0.015639 0.885884
0.035985 0.015624 0.885032
0.037446 0.015609 0.884199
0.038909 0.015597 0.883478
0.040370 0.015584 0.882778
0.041845 0.015578 0.882407
0.043323 0.015573 0.882129
0.044810 0.015572 0.882044
0.046311 0.015575 0.882227
0.047821 0.015581 0.882582
0.049333 0.015587 0.882930
0.050860 0.015598 0.883524
0.052386 0.015607 0.884069
0.053933 0.015622 0.884930
0.055482 0.015638 0.885783
0.057017 0.015648 0.886358
0.058608 0.015672 0.887757
0.060276 0.015716 0.890236
0.061939 0.015756 0.892515
0.063615 0.015798 0.894865
0.065317 0.015844 0.897467
0.066978 0.015878 0.899388
0.068590 0.015899 0.900591
0.070195 0.015918 0.901654
0.071887 0.015955 0.903764
0.073697 0.016016 0.907237
0.075541 0.016082 0.910982
0.077391 0.016147 0.914642
0.079248 0.016211 0.918241
0.081089 0.016268 0.921520
0.082849 0.016308 0.923776
0.084624 0.016349 0.926110
0.086446 0.016398 0.928867
0.088285 0.016448 0.931696
0.090054 0.016484 0.933710
0.091788 0.016512 0.935300
0.093459 0.016528 0.936195
0.095112 0.016540 0.936885
0.096738 0.016547 0.937298
0.098336 0.016549 0.937429
0.099930 0.016551 0.937515
0.101542 0.016555 0.937760
0.103191 0.016565 0.938340
0.104904 0.016585 0.939472
0.106674 0.016614 0.941075
0.108538 0.016656 0.943453
0.110425 0.016700 0.945954
0.112299 0.016741 0.948274
0.114190 0.016783 0.950674
0.116074 0.016823 0.952941
0.117894 0.016853 0.954640
0.119718 0.016883 0.956318
0.121585 0.016918 0.958289
0.123480 0.016955 0.960428
0.125429 0.016999 0.962927
0.127469 0.017055 0.966049
0.129478 0.017104 0.968862
0.131585 0.017165 0.972329
0.134211 0.017292 0.979495
0.136868 0.017419 0.986715
0.139450 0.017534 0.993223
0.142005 0.017643 0.999387
0.144341 0.017722 1.003880
0.146025 0.017721 1.003790
0.147631 0.017710 1.003170
0.149076 0.017680 1.001490
0.150365 0.017633 0.998804
0.151500 0.017569 0.995169
0.152610 0.017503 0.991452
0.153690 0.017435 0.987617
0.154881 0.017382 0.984579
0.156070 0.017329 0.981584
0.157299 0.017282 0.978906
0.158505 0.017233 0.976144
0.159724 0.017186 0.973517
0.160935 0.017140 0.970893
0.162140 0.017094 0.968289
0.163320 0.017046 0.965587
0.164509 0.017000 0.962989
0.165727 0.016958 0.960612
0.166945 0.016917 0.958282
0.168230 0.016884 0.956377
0.169511 0.016850 0.954486
0.170821 0.016820 0.952791
0.172144 0.016792 0.951204
0.173540 0.016772 0.950041
0.174958 0.016754 0.949023
0.176735 0.016770 0.949949
0.178553 0.016790 0.951080
0.181966 0.015330 0.960611
0.180639 0.016835 0.953605
0.186461 0.017073 0.967080
0.189212 0.017174 0.972817
0.191912 0.017269 0.978198
0.194362 0.017340 0.982222
0.196027 0.017340 0.982241
0.197773 0.017348 0.982669
0.199524 0.017356 0.983112
0.201278 0.017364 0.983557
0.202989 0.017368 0.983793
0.204738 0.017375 0.984204
0.206513 0.017384 0.984735
0.208321 0.017396 0.985414
0.210186 0.017413 0.986348
0.212076 0.017431 0.987382
0.214012 0.017453 0.988614
0.215886 0.017469 0.989544
0.217762 0.017485 0.990467
0.219591 0.017498 0.991166
0.221394 0.017508 0.991737
0.223123 0.017512 0.991972
0.224800 0.017512 0.991972
0.226449 0.017510 0.991846
0.228118 0.017509 0.991814
0.229772 0.017508 0.991714
0.231430 0.017506 0.991638
0.233059 0.017503 0.991434
0.234678 0.017498 0.991193
0.236394 0.017501 0.991365
0.238156 0.017508 0.991722
0.240042 0.017523 0.992587
0.242089 0.017550 0.994103
0.244512 0.017603 0.997130
0.247033 0.017663 1.000510
0.249665 0.017730 1.004300
-0.037418 0.019512 1.008400
-0.035640 0.019471 1.006330
-0.033876 0.019436 1.004470
-0.032132 0.019408 1.003050
-0.030415 0.019394 1.002340
-0.020260 0.017908 0.925500
-0.018674 0.017887 0.924444
-0.017088 0.017862 0.923151
-0.015503 0.017834 0.921706
-0.013924 0.017808 0.920350
-0.012346 0.017776 0.918675
-0.010772 0.017742 0.916971
-0.009204 0.017708 0.915191
-0.007643 0.017677 0.913565
-0.006090 0.017649 0.912134
-0.004541 0.017625 0.910881
-0.002996 0.017595 0.909345
-0.001456 0.017562 0.907625
0.000078 0.017518 0.905361
0.001604 0.017469 0.902810
0.003121 0.017415 0.900049
0.004630 0.017369 0.897655
0.006130 0.017319 0.895082
0.007625 0.017278 0.892965
0.009117 0.017245 0.891268
0.010604 0.017213 0.889595
0.012082 0.017176 0.887711
0.013560 0.017148 0.886240
0.015034 0.017119 0.884771
0.016502 0.017092 0.883332
0.017979 0.017075 0.882493
0.019461 0.017067 0.882049
0.020948 0.017064 0.881892
0.022452 0.017074 0.882416
0.023966 0.017089 0.883216
0.025481 0.017104 0.883978
0.027004 0.017122 0.884906
0.028526 0.017138 0.885721
0.030033 0.017143 0.886016
0.031528 0.017142 0.885927
0.033011 0.017134 0.885539
0.034473 0.017117 0.884623
0.035931 0.017099 0.883700
0.037389 0.017082 0.882864
0.038854 0.017070 0.882233
0.040318 0.017059 0.881632
0.041795 0.017053 0.881355
0.043276 0.017050 0.881160
0.044760 0.017048 0.881066
0.046246 0.017046 0.880989
0.047735 0.017046 0.880986
0.049214 0.017043 0.880802
0.050695 0.017040 0.880663
0.052166 0.017034 0.880365
0.053663 0.017037 0.880496
0.055158 0.017039 0.880606
0.056638 0.017036 0.880476
0.058192 0.017055 0.881456
0.059842 0.017101 0.883824
0.061580 0.017169 0.887344
0.063337 0.017239 0.890949
0.065133 0.017316 0.894935
0.066847 0.017368 0.897630
0.068486 0.017399 0.899229
0.070025 0.017404 0.899474
0.071636 0.017426 0.900611
0.073373 0.017477 0.903245
0.075176 0.017541 0.906575
0.077006 0.017609 0.910097
0.078861 0.017680 0.913753
0.080709 0.017747 0.917204
0.082448 0.017788 0.919301
0.084192 0.017828 0.921379
0.086093 0.017899 0.925071
0.088030 0.017975 0.929010
0.089909 0.018037 0.932205
0.091760 0.018091 0.935008
0.093559 0.018134 0.937194
0.095204 0.018145 0.937795
0.096823 0.018152 0.938117
0.098421 0.018154 0.938232
0.100035 0.018159 0.938494
0.101672 0.018168 0.938964
0.103360 0.018186 0.939881
0.105114 0.018214 0.941356
0.106911 0.018249 0.943167
0.108789 0.018297 0.945636
0.110678 0.018345 0.948123
0.112556 0.018390 0.950447
0.114451 0.018437 0.952842
0.116350 0.018482 0.955214
0.118189 0.018518 0.957029
0.120045 0.018554 0.958926
0.121958 0.018599 0.961227
0.123887 0.018645 0.963594
0.125857 0.018695 0.966209
0.127944 0.018762 0.969649
0.130009 0.018823 0.972835
0.132016 0.018875 0.975510
0.134560 0.019002 0.982040
0.137136 0.019129 0.988644
0.139594 0.019238 0.994248
0.142019 0.019339 0.999485
0.144380 0.019429 1.004150
0.146062 0.019427 1.004050
0.147664 0.019415 1.003400
0.149094 0.019380 1.001610
0.150387 0.019329 0.998948
0.151525 0.019259 0.995335
0.152635 0.019187 0.991614
0.153685 0.019109 0.987587
0.154874 0.019050 0.984534
0.156060 0.018992 0.981523
0.157287 0.018939 0.978833
0.158493 0.018886 0.976069
0.159741 0.018839 0.973619
0.160970 0.018790 0.971102
0.162193 0.018741 0.968605
0.163392 0.018691 0.966008
0.164580 0.018641 0.963407
0.165762 0.018591 0.960819
0.166924 0.018539 0.958164
0.168151 0.018496 0.955928
0.169393 0.018455 0.953821
0.170669 0.018419 0.951948
0.171993 0.018389 0.950368
0.173405 0.018368 0.949302
0.174837 0.018350 0.948368
0.176329 0.018338 0.947767
0.177872 0.018332 0.947450
0.179650 0.018350 0.948384
0.191001 0.018837 0.973550
0.193776 0.018948 0.979259
0.195762 0.018980 0.980917
0.197795 0.019016 0.982776
0.199549 0.019025 0.983234
0.201326 0.019035 0.983793
0.203060 0.019042 0.984138
0.204813 0.019050 0.984564
0.206591 0.019061 0.985106
0.208421 0.019076 0.985888
0.210288 0.019094 0.986828
0.212181 0.019114 0.987874
0.214120 0.019138 0.989113
0.216015 0.019158 0.990138
0.217892 0.019176 0.991058
0.219724 0.019190 0.991765
0.221526 0.019201 0.992327
0.223255 0.019205 0.992558
0.224933 0.019205 0.992558
0.226584 0.019203 0.992438
0.228257 0.019202 0.992420
0.229935 0.019202 0.992420
0.231617 0.019203 0.992438
0.233274 0.019201 0.992350
0.234923 0.019199 0.992231
0.236697 0.019206 0.992633
0.238489 0.019216 0.993110
0.240428 0.019236 0.994183
0.242529 0.019270 0.995911
0.244824 0.019318 0.998403
0.247040 0.019359 1.000540
-0.035663 0.021191 1.006990
-0.033914 0.021163 1.005620
-0.032180 0.021140 1.004540
-0.030459 0.021124 1.003780
-0.020268 0.019484 0.925880
-0.018682 0.019462 0.924813
-0.017094 0.019434 0.923487
-0.015505 0.019400 0.921871
-0.013925 0.019370 0.920437
-0.012347 0.019335 0.918769
-0.010773 0.019298 0.917049
-0.009203 0.019257 0.915090
-0.007642 0.019221 0.913351
-0.006087 0.019187 0.911740
-0.004538 0.019156 0.910291
-0.002994 0.019122 0.908670
-0.001455 0.019086 0.906945
0.000078 0.019039 0.904706
0.001603 0.018991 0.902424
0.003120 0.018939 0.899961
0.004630 0.018893 0.897775
0.006131 0.018841 0.895310
0.007628 0.018800 0.893356
0.009120 0.018762 0.891556
0.010606 0.018725 0.889788
0.012082 0.018682 0.887727
0.013559 0.018648 0.886155
0.015030 0.018615 0.884587
0.016497 0.018583 0.883059
0.017970 0.018562 0.882051
0.019449 0.018550 0.881501
0.020931 0.018543 0.881154
0.022425 0.018547 0.881327
0.023929 0.018558 0.881859
0.025436 0.018570 0.882426
0.026953 0.018587 0.883260
0.028473 0.018605 0.884080
0.029981 0.018613 0.884479
0.031474 0.018612 0.884404
0.032958 0.018605 0.884105
0.034420 0.018588 0.883272
0.035879 0.018570 0.882443
0.037340 0.018555 0.881706
0.038810 0.018545 0.881249
0.040280 0.018536 0.880812
0.041761 0.018532 0.880625
0.043236 0.018526 0.880353
0.044715 0.018522 0.880168
0.046193 0.018519 0.879992
0.047672 0.018515 0.879821
0.049135 0.018506 0.879395
0.050581 0.018491 0.878688
0.052007 0.018470 0.877678
0.053448 0.018455 0.876969
0.054883 0.018439 0.876210
0.056301 0.018419 0.875233
0.057820 0.018431 0.875829
0.059444 0.018476 0.877943
0.061157 0.018545 0.881238
0.062981 0.018644 0.885938
0.064863 0.018755 0.891218
0.066667 0.018839 0.895219
0.068388 0.018896 0.897940
0.070005 0.018923 0.899209
0.071573 0.018936 0.899812
0.073221 0.018969 0.901372
0.074933 0.019017 0.903648
0.076681 0.019071 0.906247
0.078442 0.019127 0.908908
0.080253 0.019193 0.912027
0.081974 0.019235 0.914024
0.083700 0.019276 0.916000
0.085559 0.019347 0.919337
0.087596 0.019454 0.924426
0.089583 0.019546 0.928828
0.091565 0.019635 0.933024
0.093493 0.019709 0.936537
0.095277 0.019750 0.938511
0.096895 0.019757 0.938822
0.098514 0.019763 0.939120
0.100172 0.019777 0.939786
0.101849 0.019794 0.940595
0.103577 0.019820 0.941847
0.105369 0.019858 0.943638
0.107178 0.019898 0.945528
0.109037 0.019945 0.947791
0.110927 0.019997 0.950259
0.112810 0.020046 0.952590
0.114702 0.020096 0.954931
0.116609 0.020146 0.957341
0.118489 0.020191 0.959453
0.120378 0.020236 0.961585
0.122327 0.020289 0.964139
0.124292 0.020344 0.966741
0.126284 0.020402 0.969486
0.128382 0.020475 0.972967
0.130475 0.020546 0.976319
0.132520 0.020607 0.979234
0.134969 0.020729 0.985024
0.137451 0.020853 0.990915
0.139792 0.020953 0.995659
0.142084 0.021043 0.999940
0.148982 0.021062 1.000850
0.150270 0.021006 0.998171
0.151425 0.020932 0.994675
0.152572 0.020859 0.991201
0.153685 0.020783 0.987588
0.154894 0.020721 0.984658
0.156094 0.020660 0.981738
0.157320 0.020603 0.979041
0.158510 0.020543 0.976175
0.159760 0.020491 0.973734
0.161008 0.020441 0.971331
0.162267 0.020393 0.969044
0.163504 0.020343 0.966673
0.164711 0.020290 0.964173
0.165875 0.020233 0.961471
0.167014 0.020175 0.958678
0.168183 0.020121 0.956112
0.169370 0.020070 0.953695
0.170609 0.020026 0.951611
0.171914 0.019991 0.949933
0.173306 0.019966 0.948762
0.174723 0.019945 0.947750
0.176195 0.019930 0.947051
0.177719 0.019921 0.946639
0.179224 0.019911 0.946133
0.182222 0.018448 0.953451
0.181499 0.019985 0.949669
0.184912 0.018556 0.959042
0.183868 0.020068 0.953628
0.193143 0.020540 0.976060
0.195485 0.020613 0.979529
0.197846 0.020687 0.983029
0.199604 0.020697 0.983504
0.201382 0.020709 0.984066
0.203139 0.020718 0.984519
0.204897 0.020728 0.984971
0.206679 0.020740 0.985528
0.208513 0.020756 0.986320
0.210374 0.020776 0.987231
0.212266 0.020797 0.988269
0.214180 0.020821 0.989394
0.216075 0.020842 0.990412
0.217948 0.020861 0.991317
0.219775 0.020876 0.991999
0.221577 0.020887 0.992558
0.223329 0.020894 0.992886
0.225032 0.020897 0.992995
0.226686 0.020894 0.992886
0.228360 0.020894 0.992868
0.230038 0.020894 0.992864
0.231720 0.020894 0.992879
0.233402 0.020895 0.992894
0.235103 0.020897 0.992987
0.236906 0.020908 0.993508
0.238726 0.020920 0.994094
0.240664 0.020942 0.995161
0.242712 0.020974 0.996661
-0.032187 0.022848 1.004760
-0.030467 0.022831 1.004040
-0.028560 0.020976 0.996737
-0.028662 0.022746 1.000320
-0.020325 0.021113 0.928474
-0.018675 0.021022 0.924476
-0.017090 0.020995 0.923299
-0.015504 0.020960 0.921767
-0.013924 0.020928 0.920343
-0.012347 0.020892 0.918769
-0.010772 0.020851 0.916963
-0.009201 0.020805 0.914913
-0.007639 0.020763 0.913073
-0.006084 0.020724 0.911359
-0.004536 0.020686 0.909726
-0.002992 0.020647 0.908003
-0.001454 0.020608 0.906277
0.000078 0.020559 0.904128
0.001603 0.020512 0.902036
0.003120 0.020462 0.899851
0.004631 0.020419 0.897943
0.006133 0.020365 0.895582
0.007631 0.020321 0.893638
0.009121 0.020276 0.891670
0.010606 0.020232 0.889735
0.012079 0.020181 0.887486
0.013554 0.020143 0.885813
0.015023 0.020105 0.884151
0.016489 0.020070 0.882605
0.017959 0.020045 0.881514
0.019435 0.020030 0.880859
0.020913 0.020020 0.880418
0.022400 0.020018 0.880333
0.023895 0.020024 0.880600
0.025394 0.020033 0.880976
0.026903 0.020047 0.881612
0.028415 0.020062 0.882263
0.029922 0.020073 0.882741
0.031415 0.020073 0.882758
0.032903 0.020070 0.882628
0.034367 0.020054 0.881903
0.035828 0.020037 0.881171
0.037290 0.020023 0.880527
0.038763 0.020014 0.880161
0.040231 0.020005 0.879741
0.041714 0.020002 0.879646
0.043188 0.019996 0.879382
0.044665 0.019992 0.879187
0.046137 0.019986 0.878920
0.047609 0.019980 0.878664
0.049066 0.019969 0.878154
0.050510 0.019952 0.877442
0.051929 0.019928 0.876353
0.053328 0.019897 0.874998
0.054711 0.019862 0.873476
0.056071 0.019821 0.871662
0.057524 0.019814 0.871339
0.059075 0.019840 0.872496
0.060749 0.019905 0.875365
0.064499 0.020152 0.886218
0.066398 0.020274 0.891606
0.068214 0.020367 0.895658
0.069926 0.020424 0.898199
0.071581 0.020464 0.899917
0.073158 0.020479 0.900602
0.074788 0.020508 0.901892
0.076450 0.020545 0.903525
0.078110 0.020580 0.905057
0.079810 0.020624 0.906990
0.081494 0.020663 0.908672
0.083144 0.020691 0.909909
0.084933 0.020752 0.912605
0.089038 0.020993 0.923182
0.091158 0.021122 0.928871
0.093259 0.021243 0.934194
0.095211 0.021326 0.937859
0.096988 0.021369 0.939719
0.098600 0.021374 0.939943
0.100274 0.021392 0.940740
0.101968 0.021413 0.941697
0.103704 0.021443 0.943002
0.105516 0.021488 0.944960
0.107336 0.021532 0.946923
0.109207 0.021586 0.949270
0.111101 0.021642 0.951749
0.113012 0.021700 0.954297
0.114910 0.021754 0.956666
0.116836 0.021812 0.959199
0.118758 0.021867 0.961636
0.120693 0.021923 0.964106
0.122681 0.021987 0.966928
0.124683 0.022052 0.969784
0.126708 0.022119 0.972740
0.128799 0.022196 0.976129
0.130886 0.022271 0.979398
0.132927 0.022336 0.982245
0.135211 0.022439 0.986791
0.137482 0.022538 0.991142
0.151228 0.022589 0.993383
0.152442 0.022520 0.990359
0.153611 0.022446 0.987109
0.154854 0.022385 0.984405
0.156104 0.022326 0.981803
0.157368 0.022270 0.979339
0.158577 0.022207 0.976589
0.159847 0.022154 0.974263
0.161128 0.022104 0.972058
0.162395 0.022053 0.969808
0.163654 0.022002 0.967558
0.164868 0.021945 0.965089
0.166015 0.021882 0.962283
0.167117 0.021813 0.959271
0.168244 0.021749 0.956460
0.169392 0.021689 0.953818
0.170608 0.021639 0.951607
0.171896 0.021598 0.949831
0.173268 0.021569 0.948554
0.174666 0.021544 0.947440
0.176117 0.021526 0.946632
0.177621 0.021514 0.946116
0.179102 0.021500 0.945490
0.181091 0.021546 0.947536
0.183117 0.021596 0.949732
0.192171 0.022083 0.971150
0.194898 0.022207 0.976586
0.203254 0.022400 0.985076
0.205038 0.022413 0.985648
0.206824 0.022426 0.986217
0.208655 0.022443 0.986995
0.210492 0.022462 0.987784
-0.018724 0.022649 0.926922
-0.017087 0.022556 0.923108
-0.015502 0.022521 0.921673
-0.013923 0.022486 0.920256
-0.012347 0.022450 0.918769
-0.010771 0.022403 0.916881
-0.009200 0.022351 0.914735
-0.007636 0.022302 0.912722
-0.006081 0.022255 0.910807
-0.004532 0.022210 0.908985
-0.002989 0.022168 0.907243
-0.001453 0.022124 0.905436
0.000078 0.022072 0.903298
0.001601 0.022023 0.901298
0.003118 0.021971 0.899201
0.004629 0.021928 0.897403
0.006131 0.021874 0.895227
0.007629 0.021831 0.893468
0.009119 0.021783 0.891501
0.010603 0.021736 0.889552
0.012075 0.021678 0.887202
0.013548 0.021635 0.885434
0.015015 0.021592 0.883686
0.016480 0.021555 0.882142
0.017949 0.021528 0.881052
0.019423 0.021510 0.880318
0.020898 0.021497 0.879792
0.022379 0.021491 0.879531
0.023864 0.021489 0.879447
0.025353 0.021491 0.879534
0.026853 0.021502 0.879970
0.028356 0.021513 0.880440
0.029858 0.021523 0.880838
0.031356 0.021529 0.881099
0.032845 0.021528 0.881073
0.034313 0.021515 0.880526
0.035779 0.021502 0.879975
0.037244 0.021489 0.879434
0.038711 0.021478 0.878994
0.040178 0.021467 0.878576
0.041655 0.021463 0.878406
0.043124 0.021455 0.878066
0.044598 0.021450 0.877871
0.046067 0.021443 0.877589
0.047541 0.021439 0.877401
0.048996 0.021426 0.876893
0.050442 0.021411 0.876264
0.051864 0.021387 0.875266
0.053272 0.021358 0.874082
0.054666 0.021325 0.872756
0.056057 0.021293 0.871433
0.057454 0.021265 0.870288
0.058935 0.021268 0.870426
0.060520 0.021308 0.872058
0.062541 0.020005 0.879751
0.062211 0.021383 0.875109
0.066139 0.021701 0.888124
0.068053 0.021833 0.893542
0.069862 0.021927 0.897376
0.071611 0.021998 0.900296
0.073169 0.022009 0.900739
0.074720 0.022017 0.901078
0.076301 0.022034 0.901753
0.077865 0.022045 0.902219
0.079457 0.022064 0.902976
0.081039 0.022079 0.903593
0.082625 0.022094 0.904233
0.084335 0.022142 0.906183
0.094723 0.022799 0.933058
0.096694 0.022892 0.936869
0.098508 0.022946 0.939065
0.100386 0.023012 0.941791
0.102102 0.023040 0.942930
0.103838 0.023072 0.944223
0.105662 0.023121 0.946262
0.107496 0.023172 0.948334
0.109375 0.023230 0.950724
0.111288 0.023294 0.953347
0.113238 0.023364 0.956201
0.115152 0.023425 0.958680
0.117084 0.023487 0.961234
0.119035 0.023552 0.963879
0.121004 0.023618 0.966590
0.123017 0.023691 0.969576
0.125041 0.023764 0.972571
0.127073 0.023837 0.975545
0.129138 0.023914 0.978694
0.131179 0.023985 0.981592
0.133183 0.024047 0.984132
0.135261 0.024121 0.987162
0.153466 0.024097 0.986180
0.154781 0.024042 0.983944
0.156072 0.023985 0.981598
0.157371 0.023930 0.979355
0.158616 0.023868 0.976827
0.159920 0.023817 0.974712
0.161238 0.023768 0.972721
0.162541 0.023718 0.970683
0.163821 0.023666 0.968549
0.165056 0.023608 0.966191
0.166205 0.023540 0.963383
0.167305 0.023466 0.960350
0.168399 0.023392 0.957339
0.169509 0.023322 0.954475
0.170687 0.023263 0.952045
0.171934 0.023214 0.950044
0.173271 0.023178 0.948571
0.174649 0.023148 0.947349
0.176079 0.023125 0.946425
0.177557 0.023109 0.945778
0.179001 0.023090 0.944958
0.180696 0.023102 0.945466
0.182390 0.023114 0.945964
0.185812 0.021724 0.955337
0.184734 0.023208 0.949793
0.203274 0.024072 0.985175
-0.018730 0.024227 0.927207
-0.017088 0.024122 0.923184
-0.015503 0.024085 0.921761
-0.013923 0.024046 0.920256
-0.012347 0.024007 0.918769
-0.010771 0.023958 0.916878
-0.009199 0.023899 0.914635
-0.007635 0.023844 0.912509
-0.006078 0.023789 0.910405
-0.004529 0.023736 0.908396
-0.002987 0.023686 0.906472
-0.001451 0.023638 0.904658
0.000078 0.023580 0.902433
0.001600 0.023528 0.900450
0.003115 0.023476 0.898443
0.004625 0.023429 0.896654
0.006126 0.023375 0.894574
0.007625 0.023334 0.892996
0.009115 0.023283 0.891042
0.010597 0.023229 0.888999
0.012068 0.023169 0.886708
0.013539 0.023121 0.884853
0.015004 0.023074 0.883041
0.016470 0.023036 0.881604
0.017939 0.023008 0.880519
0.019409 0.022986 0.879714
0.020880 0.022968 0.879018
0.022355 0.022957 0.878575
0.023828 0.022945 0.878137
0.025307 0.022940 0.877936
0.026796 0.022944 0.878095
0.028290 0.022952 0.878386
0.029785 0.022960 0.878691
0.031286 0.022971 0.879127
0.032775 0.022973 0.879206
0.034248 0.022964 0.878857
0.035718 0.022954 0.878483
0.037184 0.022942 0.878018
0.038649 0.022931 0.877574
0.040120 0.022924 0.877308
0.041595 0.022919 0.877135
0.043061 0.022910 0.876794
0.044533 0.022905 0.876600
0.046000 0.022898 0.876316
0.047468 0.022891 0.876057
0.048925 0.022880 0.875623
0.050374 0.022866 0.875088
0.051801 0.022842 0.874198
0.053218 0.022816 0.873196
0.054627 0.022788 0.872130
0.056034 0.022761 0.871078
0.057443 0.022736 0.870125
0.058865 0.022717 0.869400
0.060370 0.022730 0.869902
0.061963 0.022775 0.871627
0.064145 0.021535 0.881353
0.063795 0.022904 0.876555
0.067801 0.023262 0.890238
0.069716 0.023399 0.895500
0.071567 0.023510 0.899738
0.073207 0.023548 0.901208
0.074744 0.023552 0.901365
0.076295 0.023561 0.901690
0.077842 0.023567 0.901946
0.079340 0.023560 0.901650
0.080821 0.023547 0.901157
0.082276 0.023527 0.900414
0.083857 0.023544 0.901042
0.086233 0.022236 0.910049
0.085590 0.023602 0.903261
0.103002 0.024474 0.936626
0.105071 0.024587 0.940972
0.107171 0.024705 0.945467
0.109313 0.024828 0.950187
0.111498 0.024958 0.955146
0.113485 0.025040 0.958293
0.115404 0.025105 0.960778
0.117339 0.025171 0.963329
0.119297 0.025241 0.965996
0.121296 0.025317 0.968919
0.123316 0.025396 0.971930
0.125346 0.025475 0.974943
0.127368 0.025550 0.977807
0.129365 0.025618 0.980414
0.131290 0.025670 0.982417
0.133191 0.025717 0.984196
0.154645 0.025687 0.983074
0.155989 0.025635 0.981076
0.157341 0.025585 0.979168
0.158641 0.025528 0.976982
0.159981 0.025479 0.975082
0.161318 0.025430 0.973205
0.162669 0.025384 0.971448
0.163986 0.025333 0.969521
0.165239 0.025274 0.967262
0.166407 0.025203 0.964556
0.167525 0.025127 0.961611
0.168586 0.025043 0.958405
0.169645 0.024960 0.955240
0.170802 0.024893 0.952689
0.172028 0.024838 0.950564
0.173331 0.024794 0.948901
0.174671 0.024757 0.947468
0.176079 0.024730 0.946425
0.177535 0.024710 0.945656
0.178977 0.024688 0.944832
0.180437 0.024669 0.944113
0.181856 0.024645 0.943192
0.183857 0.024700 0.945282
-0.018786 0.025876 0.929981
-0.017129 0.025748 0.925374
-0.015499 0.025641 0.921500
-0.013920 0.025601 0.920067
-0.012344 0.025559 0.918579
-0.010769 0.025507 0.916692
-0.009197 0.025444 0.914447
-0.007633 0.025385 0.912301
-0.006076 0.025323 0.910088
-0.004526 0.025259 0.907802
-0.002984 0.025201 0.905689
-0.001450 0.025147 0.903779
0.000078 0.025081 0.901394
0.001598 0.025021 0.899237
0.003111 0.024967 0.897307
0.004619 0.024918 0.895517
0.006119 0.024862 0.893539
0.007617 0.024822 0.892069
0.009106 0.024770 0.890221
0.010587 0.024713 0.888176
0.012058 0.024652 0.885962
0.013528 0.024600 0.884116
0.014993 0.024553 0.882404
0.016460 0.024516 0.881073
0.017929 0.024488 0.880077
0.019398 0.024463 0.879190
0.020863 0.024439 0.878312
0.022330 0.024419 0.877595
0.023792 0.024397 0.876795
0.025260 0.024384 0.876325
0.026738 0.024380 0.876211
0.028223 0.024384 0.876327
0.029718 0.024394 0.876705
0.031222 0.024411 0.877321
0.032712 0.024417 0.877512
0.034192 0.024414 0.877436
0.035671 0.024411 0.877307
0.037135 0.024398 0.876857
0.038597 0.024386 0.876406
0.040066 0.024378 0.876122
0.041534 0.024370 0.875854
0.042994 0.024359 0.875430
0.044464 0.024353 0.875237
0.045930 0.024346 0.874966
0.047395 0.024339 0.874707
0.048855 0.024329 0.874373
0.050308 0.024317 0.873939
0.051743 0.024297 0.873223
0.053170 0.024275 0.872415
0.054594 0.024252 0.871601
0.056017 0.024230 0.870823
0.057439 0.024209 0.870052
0.058868 0.024192 0.869433
0.060299 0.024176 0.868879
0.061804 0.024191 0.869392
0.063528 0.024288 0.872880
0.067537 0.024674 0.886774
0.069555 0.024860 0.893440
0.071509 0.025015 0.899008
0.073245 0.025089 0.901669
0.074759 0.025085 0.901553
0.076295 0.025089 0.901684
0.077825 0.025091 0.901748
0.079314 0.025080 0.901350
0.080794 0.025066 0.900860
0.082249 0.025046 0.900124
0.083709 0.025027 0.899458
0.085280 0.025042 0.899985
0.087529 0.023713 0.907528
0.087017 0.025104 0.902219
0.089483 0.023825 0.911810
0.088747 0.025162 0.904310
0.111199 0.026505 0.952583
0.113452 0.026656 0.958011
0.115600 0.026779 0.962409
0.117501 0.026841 0.964660
0.119447 0.026912 0.967211
0.121446 0.026993 0.970123
0.125488 0.027158 0.976047
0.127507 0.027237 0.978875
0.129448 0.027298 0.981049
0.131284 0.027334 0.982371
0.155918 0.027286 0.980630
0.157337 0.027245 0.979146
0.158673 0.027190 0.977178
0.160035 0.027141 0.975413
0.161409 0.027094 0.973750
0.162797 0.027051 0.972210
0.164131 0.027000 0.970379
0.165403 0.026941 0.968225
0.166607 0.026871 0.965713
0.167746 0.026792 0.962879
0.168827 0.026705 0.959772
0.169903 0.026620 0.956692
0.171075 0.026551 0.954209
0.172284 0.026488 0.951977
0.173552 0.026437 0.950111
0.174838 0.026388 0.948375
0.176207 0.026353 0.947113
0.177626 0.026326 0.946144
0.179072 0.026304 0.945332
0.180558 0.026287 0.944743
0.181982 0.026262 0.943849
0.183667 0.026275 0.944305
0.186272 0.024809 0.949448
0.185709 0.026338 0.946579
-0.018796 0.027467 0.930451
-0.017130 0.027319 0.925441
-0.015497 0.027199 0.921394
-0.013918 0.027157 0.919942
-0.012341 0.027110 0.918367
-0.010766 0.027052 0.916409
-0.009194 0.026986 0.914177
-0.007631 0.026923 0.912024
-0.006072 0.026850 0.909543
-0.004521 0.026771 0.906893
-0.002980 0.026698 0.904411
-0.001448 0.026633 0.902209
0.000077 0.026557 0.899639
0.001594 0.026491 0.897407
0.003105 0.026437 0.895567
0.004611 0.026389 0.893933
0.006110 0.026338 0.892223
0.007607 0.026298 0.890863
0.009096 0.026250 0.889220
0.010576 0.026192 0.887270
0.012048 0.026132 0.885220
0.013517 0.026077 0.883385
0.014983 0.026030 0.881784
0.016451 0.025994 0.880547
0.017919 0.025964 0.879552
0.019382 0.025933 0.878486
0.020840 0.025899 0.877330
0.022298 0.025869 0.876340
0.023750 0.025838 0.875262
0.025211 0.025818 0.874611
0.026683 0.025812 0.874405
0.028165 0.025815 0.874508
0.029659 0.025829 0.874973
0.031166 0.025852 0.875765
0.032661 0.025864 0.876150
0.034146 0.025867 0.876254
0.035630 0.025868 0.876301
0.037096 0.025858 0.875936
0.038557 0.025844 0.875490
0.040021 0.025834 0.875135
0.041483 0.025823 0.874776
0.042941 0.025811 0.874343
0.044409 0.025805 0.874141
0.045873 0.025797 0.873883
0.047341 0.025792 0.873713
0.048809 0.025787 0.873548
0.050266 0.025777 0.873208
0.051706 0.025759 0.872598
0.053143 0.025740 0.871964
0.054577 0.025721 0.871325
0.056006 0.025702 0.870652
0.057434 0.025682 0.869977
0.058868 0.025666 0.869444
0.060300 0.025650 0.868894
0.061732 0.025634 0.868373
0.063357 0.025698 0.870533
0.065515 0.024479 0.879747
0.065338 0.025900 0.877374
0.067352 0.026106 0.884343
0.069389 0.026311 0.891306
0.071428 0.026509 0.897991
0.073253 0.026620 0.901776
0.074745 0.026608 0.901374
0.076263 0.026607 0.901310
0.077784 0.026606 0.901282
0.079265 0.026591 0.900792
0.080745 0.026577 0.900312
0.082200 0.026556 0.899585
0.083653 0.026534 0.898849
0.085083 0.026506 0.897908
0.086642 0.026519 0.898338
0.088169 0.026521 0.898423
0.113065 0.028184 0.954741
0.115508 0.028388 0.961646
0.117356 0.028441 0.963467
0.119235 0.028501 0.965492
0.158653 0.028842 0.977053
0.160069 0.028800 0.975617
0.161494 0.028760 0.974264
0.162887 0.028715 0.972746
0.164225 0.028662 0.970937
0.165519 0.028602 0.968899
0.166742 0.028531 0.966497
0.167901 0.028450 0.963769
0.169037 0.028368 0.960965
0.170168 0.028286 0.958187
0.171380 0.028218 0.955912
0.172609 0.028155 0.953775
0.173861 0.028097 0.951801
0.175127 0.028042 0.949941
0.176437 0.027995 0.948351
0.177801 0.027958 0.947076
0.179249 0.027934 0.946264
0.180780 0.027923 0.945907
0.182271 0.027906 0.945345
0.183705 0.027882 0.944504
0.185507 0.027912 0.945548
0.188678 0.026531 0.953498
0.188183 0.028073 0.950992
-0.018806 0.029061 0.930982
-0.017134 0.028895 0.925684
-0.015498 0.028763 0.921462
-0.013917 0.028715 0.919897
-0.012341 0.028665 0.918317
-0.010766 0.028605 0.916390
-0.009195 0.028539 0.914263
-0.007631 0.028472 0.912117
-0.006069 0.028378 0.909118
-0.004516 0.028275 0.905819
-0.002975 0.028182 0.902828
-0.001444 0.028098 0.900136
0.000077 0.028007 0.897233
0.001590 0.027940 0.895093
0.003098 0.027891 0.893517
0.004601 0.027844 0.891994
0.006098 0.027796 0.890477
0.007594 0.027760 0.889315
0.009084 0.027720 0.888022
0.010564 0.027665 0.886270
0.012039 0.027610 0.884505
0.013508 0.027558 0.882845
0.014975 0.027511 0.881334
0.016442 0.027472 0.880089
0.017906 0.027436 0.878937
0.019364 0.027397 0.877676
0.020814 0.027352 0.876253
0.022265 0.027315 0.875054
0.023711 0.027276 0.873804
0.025167 0.027253 0.873072
0.026634 0.027244 0.872793
0.028116 0.027250 0.872979
0.029610 0.027267 0.873528
0.031121 0.027297 0.874494
0.032621 0.027315 0.875070
0.034114 0.027327 0.875430
0.035604 0.027334 0.875660
0.037072 0.027325 0.875388
0.038534 0.027312 0.874962
0.039996 0.027301 0.874600
0.041454 0.027287 0.874155
0.042910 0.027273 0.873710
0.044373 0.027264 0.873433
0.045836 0.027256 0.873177
0.047307 0.027254 0.873093
0.048779 0.027251 0.873014
0.050236 0.027241 0.872681
0.051680 0.027224 0.872157
0.053120 0.027207 0.871600
0.054560 0.027190 0.871062
0.055995 0.027172 0.870475
0.057428 0.027154 0.869890
0.058868 0.027139 0.869433
0.060299 0.027122 0.868885
0.061737 0.027108 0.868444
0.063275 0.027138 0.869400
0.065155 0.027310 0.874910
0.067159 0.027525 0.881803
0.069195 0.027744 0.888807
0.071230 0.027953 0.895501
0.073142 0.028106 0.900404
0.074713 0.028125 0.900995
0.076207 0.028114 0.900647
0.077719 0.028110 0.900522
0.079192 0.028093 0.899969
0.080679 0.028080 0.899579
0.082142 0.028061 0.898947
0.083601 0.028040 0.898297
0.085032 0.028011 0.897366
0.086423 0.027971 0.896065
0.087773 0.027918 0.894384
0.089937 0.026595 0.900911
0.089337 0.027935 0.894909
0.091741 0.026677 0.903681
0.090915 0.027955 0.895545
0.114641 0.029793 0.954426
0.116467 0.029847 0.956172
0.118264 0.029893 0.957632
0.161496 0.030412 0.974279
0.162911 0.030369 0.972893
0.164285 0.030319 0.971288
0.165594 0.030258 0.969340
0.166836 0.030186 0.967042
0.168018 0.030105 0.964444
0.169212 0.030028 0.961962
0.170404 0.029951 0.959515
0.171661 0.029888 0.957479
0.172935 0.029828 0.955577
0.174205 0.029769 0.953684
0.175484 0.029713 0.951878
0.176791 0.029662 0.950250
0.178170 0.029624 0.949041
0.179619 0.029599 0.948222
0.181173 0.029591 0.947962
0.182711 0.029580 0.947626
0.184193 0.029561 0.947012
0.185768 0.029557 0.946882
0.188182 0.029685 0.950987
0.191154 0.028275 0.957827
0.190863 0.029853 0.956369
0.194416 0.028516 0.965986
0.193799 0.030058 0.962921
-0.018739 0.030530 0.927672
-0.017134 0.030463 0.925634
-0.015497 0.030323 0.921384
-0.013914 0.030268 0.919705
-0.012337 0.030213 0.918032
-0.010761 0.030147 0.916033
-0.009192 0.030080 0.914005
-0.007626 0.029996 0.911454
-0.006062 0.029882 0.907973
-0.004507 0.029753 0.904070
-0.002967 0.029637 0.900545
-0.001440 0.029533 0.897389
0.000077 0.029443 0.894635
0.001586 0.029377 0.892634
0.003090 0.029332 0.891279
0.004590 0.029289 0.889957
0.006085 0.029242 0.888549
