1761
0.018116 0.012683 0.889211
0.019693 0.012731 0.892585
0.021287 0.012782 0.896151
0.022876 0.012824 0.899082
0.024425 0.012839 0.900137
0.025947 0.012839 0.900150
0.027432 0.012822 0.898931
0.028862 0.012782 0.896147
0.030264 0.012735 0.892818
0.031660 0.012690 0.889646
0.033051 0.012646 0.886612
0.034450 0.012610 0.884049
0.035872 0.012584 0.882263
0.037301 0.012563 0.880787
0.038715 0.012539 0.879084
0.040140 0.012520 0.877732
0.041576 0.012505 0.876731
0.043015 0.012493 0.875849
0.044468 0.012485 0.875306
0.045920 0.012478 0.874783
0.047379 0.012472 0.874417
0.048833 0.012466 0.873975
0.050294 0.012462 0.873695
0.051745 0.012456 0.873262
0.053210 0.012453 0.873076
0.054655 0.012446 0.872574
0.056107 0.012441 0.872218
0.057552 0.012435 0.871771
0.059002 0.012429 0.871420
0.060469 0.012428 0.871325
0.061954 0.012431 0.871500
0.063447 0.012435 0.871770
0.064954 0.012441 0.872211
0.066462 0.012447 0.872648
0.067972 0.012454 0.873104
0.069484 0.012460 0.873556
0.070992 0.012465 0.873933
0.072498 0.012470 0.874285
0.074011 0.012476 0.874701
0.075542 0.012485 0.875299
0.077093 0.012496 0.876109
0.078688 0.012514 0.877376
0.080312 0.012537 0.878924
0.082006 0.012568 0.881155
0.083704 0.012600 0.883359
0.085395 0.012629 0.885400
0.087087 0.012657 0.887393
0.088747 0.012680 0.888992
0.090335 0.012692 0.889830
0.091888 0.012699 0.890301
0.093438 0.012705 0.890728
0.094925 0.012703 0.890559
0.096411 0.012700 0.890375
0.097895 0.012697 0.890183
0.099350 0.012691 0.889740
0.100794 0.012683 0.889204
0.102252 0.012678 0.888809
0.103720 0.012673 0.888514
0.105191 0.012670 0.888255
0.106694 0.012670 0.888264
0.108206 0.012671 0.888351
0.109718 0.012672 0.888432
0.111210 0.012671 0.888351
0.112711 0.012671 0.888345
0.114191 0.012668 0.888175
0.115690 0.012668 0.888162
0.117192 0.012668 0.888160
0.118716 0.012671 0.888330
0.120277 0.012677 0.888766
0.121899 0.012689 0.889642
0.123542 0.012704 0.890645
0.125204 0.012720 0.891753
0.126954 0.012744 0.893462
0.128760 0.012773 0.895521
0.130655 0.012811 0.898140
0.132636 0.012855 0.901282
0.134632 0.012901 0.904451
0.136602 0.012943 0.907381
0.138505 0.012977 0.909810
0.140307 0.013002 0.911525
0.141988 0.013014 0.912425
0.143646 0.013025 0.913155
0.145316 0.013036 0.913952
0.146914 0.013041 0.914280
0.148544 0.013048 0.914798
0.150183 0.013056 0.915364
0.151804 0.013063 0.915807
0.153355 0.013063 0.915824
0.154966 0.013068 0.916197
0.156550 0.013071 0.916400
0.158086 0.013070 0.916324
0.159611 0.013068 0.916184
0.161100 0.013063 0.915847
0.162562 0.013056 0.915361
-0.070991 0.015604 0.977741
-0.068676 0.015454 0.968401
-0.066895 0.015421 0.966327
-0.065100 0.015383 0.963931
-0.063289 0.015339 0.961172
-0.061532 0.015306 0.959116
-0.059825 0.015284 0.957742
-0.058130 0.015264 0.956501
-0.044103 0.014381 0.901169
-0.042572 0.014379 0.901011
-0.041018 0.014368 0.900325
-0.039439 0.014347 0.899024
-0.037843 0.014318 0.897221
-0.036256 0.014291 0.895489
-0.034670 0.014261 0.893649
-0.033106 0.014239 0.892208
-0.031553 0.014218 0.890939
-0.030009 0.014200 0.889823
-0.028461 0.014178 0.888441
-0.026917 0.014156 0.887062
-0.025385 0.014139 0.885952
-0.023863 0.014124 0.885036
-0.022347 0.014111 0.884236
-0.020837 0.014101 0.883609
-0.019333 0.014094 0.883133
-0.017831 0.014086 0.882675
-0.016332 0.014081 0.882325
-0.014837 0.014078 0.882159
-0.013340 0.014071 0.881740
-0.011847 0.014070 0.881618
-0.010352 0.014062 0.881163
-0.008858 0.014055 0.880722
-0.007365 0.014048 0.880273
-0.005877 0.014048 0.880248
-0.004387 0.014044 0.880015
-0.002900 0.014046 0.880129
-0.001412 0.014044 0.880055
0.000076 0.014043 0.879948
0.001563 0.014041 0.879820
0.003050 0.014039 0.879720
0.004537 0.014039 0.879726
0.006026 0.014044 0.879994
0.007516 0.014048 0.880268
0.009007 0.014052 0.880546
0.010503 0.014062 0.881153
0.012006 0.014078 0.882130
0.013513 0.014094 0.883172
0.015031 0.014118 0.884644
0.016580 0.014163 0.887476
0.018143 0.014212 0.890539
0.019718 0.014263 0.893713
0.021314 0.014319 0.897274
0.022907 0.014368 0.900298
0.024464 0.014388 0.901574
0.026001 0.014395 0.902025
0.027503 0.014383 0.901259
0.028949 0.014345 0.898855
0.030360 0.014294 0.895667
0.031767 0.014245 0.892647
0.033162 0.014197 0.889589
0.034562 0.014154 0.886914
0.035988 0.014125 0.885106
0.037421 0.014101 0.883626
0.038836 0.014073 0.881828
0.040264 0.014051 0.880457
0.041701 0.014034 0.879372
0.043136 0.014017 0.878317
0.044589 0.014007 0.877694
0.046040 0.013997 0.877068
0.047494 0.013988 0.876531
0.048944 0.013979 0.875977
0.050404 0.013973 0.875602
0.051853 0.013965 0.875072
0.053320 0.013962 0.874881
0.054761 0.013952 0.874276
0.056210 0.013945 0.873813
0.057656 0.013937 0.873343
0.059108 0.013932 0.872977
0.060572 0.013929 0.872814
0.062061 0.013932 0.873004
0.063558 0.013937 0.873290
0.065056 0.013941 0.873583
0.066559 0.013947 0.873933
0.068064 0.013952 0.874281
0.069570 0.013958 0.874639
0.071072 0.013963 0.874920
0.072580 0.013968 0.875265
0.074087 0.013973 0.875597
0.075612 0.013981 0.876106
0.077156 0.013993 0.876824
0.078743 0.014012 0.877998
0.080354 0.014034 0.879377
0.082031 0.014066 0.881429
0.083713 0.014099 0.883449
0.085393 0.014130 0.885387
0.087069 0.014159 0.887213
0.088729 0.014184 0.888811
0.090317 0.014198 0.889659
0.091879 0.014207 0.890213
0.093429 0.014214 0.890647
0.094935 0.014214 0.890647
0.096431 0.014212 0.890559
0.097926 0.014211 0.890469
0.099384 0.014204 0.890036
0.100835 0.014196 0.889571
0.102292 0.014190 0.889161
0.103751 0.014184 0.888778
0.105212 0.014178 0.888432
0.106714 0.014178 0.888432
0.108216 0.014178 0.888432
0.109718 0.014178 0.888432
0.111220 0.014178 0.888432
0.112722 0.014178 0.888432
0.114213 0.014177 0.888351
0.115714 0.014177 0.888345
0.117216 0.014177 0.888342
0.118718 0.014177 0.888345
0.120221 0.014177 0.888352
0.121757 0.014181 0.888601
0.123308 0.014187 0.888957
0.124888 0.014195 0.889508
0.126558 0.014214 0.890675
0.128325 0.014243 0.892493
0.130178 0.014281 0.894859
0.132141 0.014329 0.897915
0.134216 0.014389 0.901657
0.136289 0.014447 0.905302
0.138303 0.014498 0.908480
0.140246 0.014540 0.911129
0.142033 0.014566 0.912710
0.143691 0.014577 0.913440
0.145330 0.014587 0.914039
0.146923 0.014592 0.914335
0.148509 0.014596 0.914585
0.150117 0.014602 0.914959
0.151721 0.014607 0.915305
0.153298 0.014610 0.915483
0.154911 0.014616 0.915871
0.156501 0.014620 0.916111
0.158039 0.014619 0.916048
0.159551 0.014616 0.915838
0.161005 0.014607 0.915306
0.162460 0.014599 0.914785
0.163847 0.014585 0.913893
0.165367 0.013033 0.913754
0.165241 0.014571 0.913060
-0.068693 0.017100 0.968640
-0.066928 0.017068 0.966802
-0.065133 0.017026 0.964419
-0.063306 0.016973 0.961434
-0.061550 0.016937 0.959396
-0.059823 0.016907 0.957716
-0.058111 0.016880 0.956180
-0.044132 0.015919 0.901760
-0.042597 0.015916 0.901538
-0.041042 0.015904 0.900864
-0.039469 0.015883 0.899707
-0.037884 0.015857 0.898192
-0.036299 0.015827 0.896546
-0.034715 0.015796 0.894781
-0.033151 0.015772 0.893404
-0.031595 0.015750 0.892139
-0.030050 0.015730 0.891027
-0.028502 0.015707 0.889741
-0.026959 0.015684 0.888441
-0.025424 0.015664 0.887312
-0.023900 0.015648 0.886396
-0.022379 0.015633 0.885517
-0.020865 0.015620 0.884803
-0.019359 0.015612 0.884317
-0.017854 0.015603 0.883852
-0.016354 0.015597 0.883500
-0.014859 0.015596 0.883414
-0.013360 0.015590 0.883079
-0.011864 0.015586 0.882877
-0.010366 0.015578 0.882415
-0.008870 0.015570 0.881959
-0.007375 0.015562 0.881517
-0.005885 0.015562 0.881492
-0.004394 0.015559 0.881335
-0.002904 0.015561 0.881435
-0.001414 0.015558 0.881276
0.000076 0.015554 0.881081
0.001565 0.015551 0.880867
0.003053 0.015547 0.880686
0.004542 0.015545 0.880546
0.006032 0.015550 0.880811
0.007523 0.015554 0.881081
0.009017 0.015561 0.881436
0.010516 0.015575 0.882221
0.012023 0.015595 0.883393
0.013536 0.015617 0.884624
0.015058 0.015645 0.886205
0.016606 0.015692 0.888867
0.018167 0.015743 0.891738
0.019744 0.015798 0.894878
0.021337 0.015858 0.898266
0.022931 0.015910 0.901227
0.024496 0.015937 0.902761
0.026041 0.015949 0.903411
0.027557 0.015942 0.903028
0.029022 0.015908 0.901110
0.030453 0.015860 0.898394
0.031875 0.015812 0.895691
0.033281 0.015761 0.892764
0.034681 0.015711 0.889964
0.036110 0.015679 0.888113
0.037545 0.015651 0.886538
0.038961 0.015618 0.884661
0.040393 0.015593 0.883278
0.041830 0.015572 0.882090
0.043257 0.015549 0.880780
0.044705 0.015535 0.879973
0.046154 0.015522 0.879244
0.047602 0.015510 0.878534
0.049053 0.015499 0.877913
0.050515 0.015492 0.877532
0.051967 0.015482 0.876999
0.053432 0.015477 0.876712
0.054876 0.015467 0.876106
0.056327 0.015458 0.875633
0.057774 0.015450 0.875138
0.059228 0.015443 0.874762
0.060696 0.015440 0.874599
0.062183 0.015442 0.874714
0.063677 0.015446 0.874935
0.065164 0.015448 0.875036
0.066657 0.015451 0.875207
0.068154 0.015455 0.875438
0.069661 0.015461 0.875785
0.071165 0.015466 0.876071
0.072676 0.015472 0.876425
0.074185 0.015478 0.876755
0.075697 0.015484 0.877101
0.077228 0.015494 0.877644
0.078801 0.015511 0.878636
0.080394 0.015532 0.879814
0.082039 0.015562 0.881514
0.083701 0.015594 0.883329
0.085365 0.015625 0.885096
0.087024 0.015655 0.886755
0.088676 0.015682 0.888286
0.090272 0.015698 0.889214
0.091834 0.015708 0.889777
0.093392 0.015717 0.890294
0.094916 0.015720 0.890469
0.096431 0.015722 0.890559
0.097946 0.015723 0.890647
0.099413 0.015717 0.890301
0.100865 0.015709 0.889830
0.102312 0.015700 0.889330
0.103760 0.015692 0.888859
0.105212 0.015684 0.888432
0.106714 0.015684 0.888432
0.108216 0.015684 0.888432
0.109718 0.015684 0.888432
0.111220 0.015684 0.888432
0.112722 0.015684 0.888432
0.114224 0.015684 0.888432
0.115726 0.015684 0.888432
0.117228 0.015684 0.888432
0.118719 0.015683 0.888351
0.120197 0.015680 0.888177
0.121696 0.015679 0.888160
0.123220 0.015682 0.888323
0.124775 0.015689 0.888699
0.126371 0.015701 0.889356
0.128054 0.015723 0.890609
0.129811 0.015753 0.892334
0.131675 0.015796 0.894752
0.133670 0.015853 0.897989
0.135738 0.015918 0.901642
0.137733 0.015972 0.904738
0.139717 0.016024 0.907687
0.141595 0.016063 0.909895
0.143323 0.016084 0.911103
0.145035 0.016104 0.912184
0.146747 0.016122 0.913239
0.148368 0.016131 0.913717
0.149961 0.016136 0.914009
0.151578 0.016143 0.914443
0.153184 0.016150 0.914805
0.154800 0.016157 0.915213
0.156405 0.016163 0.915550
0.157971 0.016165 0.915658
0.159482 0.016161 0.915443
0.160925 0.016151 0.914848
0.162378 0.016141 0.914324
0.163755 0.016125 0.913383
0.165132 0.016108 0.912457
-0.068733 0.018753 0.969200
-0.066982 0.018722 0.967574
-0.065186 0.018676 0.965208
-0.063343 0.018614 0.961999
-0.061575 0.018571 0.959791
-0.059832 0.018534 0.957861
-0.044167 0.017462 0.902465
-0.042633 0.017459 0.902302
-0.041082 0.017448 0.901737
-0.039518 0.017430 0.900838
-0.037939 0.017404 0.899496
-0.036356 0.017375 0.897955
-0.034769 0.017340 0.896186
-0.033199 0.017312 0.894701
-0.031640 0.017286 0.893403
-0.030087 0.017262 0.892133
-0.028538 0.017237 0.890851
-0.026995 0.017214 0.889650
-0.025462 0.017194 0.888607
-0.023937 0.017177 0.887765
-0.022416 0.017162 0.886968
-0.020899 0.017148 0.886256
-0.019390 0.017139 0.885774
-0.017883 0.017129 0.885293
-0.016379 0.017121 0.884858
-0.014881 0.017119 0.884768
-0.013380 0.017113 0.884435
-0.011880 0.017106 0.884071
-0.010379 0.017095 0.883522
-0.008881 0.017086 0.883051
-0.007384 0.017076 0.882521
-0.005891 0.017074 0.882417
-0.004399 0.017072 0.882331
-0.002908 0.017074 0.882413
-0.001415 0.017067 0.882087
0.000076 0.017062 0.881805
0.001566 0.017056 0.881513
0.003056 0.017053 0.881326
0.004545 0.017050 0.881181
0.006037 0.017057 0.881530
0.007531 0.017065 0.881963
0.009028 0.017077 0.882574
0.010531 0.017094 0.883470
0.012043 0.017121 0.884831
0.013559 0.017146 0.886155
0.015084 0.017177 0.887724
0.016630 0.017223 0.890130
0.018190 0.017276 0.892885
0.019765 0.017334 0.895848
0.021358 0.017398 0.899147
0.022952 0.017454 0.902045
0.024523 0.017487 0.903754
0.026076 0.017503 0.904604
0.027602 0.017501 0.904504
0.029084 0.017473 0.903063
0.030535 0.017430 0.900819
0.031972 0.017383 0.898391
0.033388 0.017330 0.895653
0.034795 0.017277 0.892905
0.036222 0.017237 0.890862
0.037657 0.017205 0.889181
0.039076 0.017168 0.887289
0.040509 0.017140 0.885820
0.041946 0.017115 0.884529
0.043371 0.017087 0.883102
0.044812 0.017067 0.882085
0.046256 0.017050 0.881184
0.047702 0.017035 0.880384
0.049152 0.017021 0.879686
0.050617 0.017014 0.879308
0.052073 0.017004 0.878787
0.053537 0.016997 0.878431
0.054984 0.016985 0.877827
0.056438 0.016976 0.877360
0.057890 0.016967 0.876886
0.059347 0.016960 0.876519
0.060823 0.016958 0.876431
0.062312 0.016960 0.876527
0.063806 0.016963 0.876705
0.065288 0.016963 0.876703
0.066775 0.016965 0.876762
0.068262 0.016966 0.876822
0.069759 0.016969 0.877014
0.071252 0.016972 0.877140
0.072758 0.016977 0.877416
0.074263 0.016982 0.877674
0.075769 0.016987 0.877937
0.077286 0.016994 0.878309
0.078842 0.017010 0.879099
0.080410 0.017027 0.879995
0.082023 0.017053 0.881338
0.083659 0.017083 0.882876
0.085311 0.017115 0.884536
0.086952 0.017143 0.886015
0.088603 0.017173 0.887553
0.090206 0.017193 0.888559
0.091775 0.017205 0.889214
0.093343 0.017217 0.889828
0.094885 0.017224 0.890183
0.096411 0.017228 0.890375
0.097936 0.017231 0.890559
0.099413 0.017226 0.890301
0.100865 0.017217 0.889830
0.102312 0.017208 0.889330
0.103760 0.017198 0.888859
0.105212 0.017190 0.888432
0.106704 0.017189 0.888351
0.108205 0.017189 0.888345
0.109707 0.017189 0.888342
0.111209 0.017189 0.888345
0.112712 0.017189 0.888351
0.114224 0.017190 0.888432
0.115726 0.017190 0.888432
0.117228 0.017190 0.888432
0.118718 0.017189 0.888345
0.120195 0.017185 0.888159
0.121681 0.017183 0.888046
0.123190 0.017184 0.888104
0.124732 0.017190 0.888392
0.126302 0.017199 0.888876
0.127888 0.017210 0.889455
0.129543 0.017230 0.890496
0.131298 0.017263 0.892188
0.133182 0.017312 0.894715
0.135125 0.017367 0.897575
0.137083 0.017423 0.900469
0.139042 0.017478 0.903306
0.140934 0.017523 0.905648
0.142765 0.017560 0.907558
0.144586 0.017595 0.909362
0.146419 0.017631 0.911197
0.148137 0.017652 0.912295
0.149799 0.017666 0.913022
0.151419 0.017675 0.913484
0.153057 0.017686 0.914044
0.154688 0.017696 0.914550
0.156306 0.017704 0.914974
0.157872 0.017706 0.915083
0.159363 0.017700 0.914760
0.160801 0.017688 0.914145
0.162255 0.017678 0.913628
0.163624 0.017659 0.912653
0.165023 0.017644 0.911854
-0.071097 0.020606 0.979191
-0.068771 0.020407 0.969740
-0.067034 0.020378 0.968336
-0.065246 0.020330 0.966088
-0.063393 0.020260 0.962757
-0.061608 0.020209 0.960306
-0.059834 0.020158 0.957889
-0.042729 0.019031 0.904331
-0.041166 0.019015 0.903588
-0.039579 0.018986 0.902218
-0.037990 0.018955 0.900712
-0.036402 0.018921 0.899111
-0.034817 0.018885 0.897417
-0.033244 0.018854 0.895916
-0.031683 0.018826 0.894600
-0.030127 0.018799 0.893309
-0.028578 0.018774 0.892115
-0.027034 0.018749 0.890919
-0.025501 0.018729 0.889983
-0.023978 0.018715 0.889319
-0.022457 0.018700 0.888616
-0.020940 0.018687 0.887986
-0.019430 0.018678 0.887575
-0.017918 0.018667 0.887020
-0.016411 0.018657 0.886579
-0.014909 0.018654 0.886408
-0.013405 0.018646 0.886068
-0.011900 0.018635 0.885533
-0.010396 0.018623 0.884953
-0.008895 0.018611 0.884389
-0.007395 0.018600 0.883858
-0.005899 0.018595 0.883601
-0.004404 0.018591 0.883429
-0.002911 0.018589 0.883333
-0.001417 0.018580 0.882903
0.000076 0.018572 0.882535
0.001567 0.018566 0.882232
0.003058 0.018563 0.882122
0.004549 0.018562 0.882051
0.006043 0.018569 0.882406
0.007539 0.018581 0.882936
0.009039 0.018596 0.883670
0.010545 0.018617 0.884678
0.012060 0.018646 0.886053
0.013578 0.018674 0.887365
0.015104 0.018706 0.888903
0.016648 0.018753 0.891135
0.018207 0.018807 0.893712
0.019785 0.018872 0.896762
0.021378 0.018940 0.899986
0.022969 0.018997 0.902731
0.024544 0.019035 0.904515
0.026102 0.019056 0.905533
0.027629 0.019053 0.905386
0.029127 0.019032 0.904374
0.030595 0.018994 0.902580
0.032042 0.018947 0.900359
0.033466 0.018892 0.897727
0.034885 0.018839 0.895218
0.036312 0.018794 0.893073
0.037746 0.018757 0.891299
0.039170 0.018717 0.889400
0.040605 0.018685 0.887916
0.042036 0.018654 0.886437
0.043455 0.018620 0.884815
0.044885 0.018593 0.883520
0.046329 0.018573 0.882576
0.047773 0.018554 0.881690
0.049230 0.018542 0.881081
0.050698 0.018534 0.880718
0.052165 0.018526 0.880348
0.053632 0.018519 0.879994
0.055083 0.018506 0.879404
0.056535 0.018495 0.878875
0.057991 0.018486 0.878418
0.059446 0.018476 0.877983
0.060919 0.018473 0.877818
0.062404 0.018473 0.877821
0.063892 0.018474 0.877889
0.065368 0.018472 0.877780
0.066850 0.018471 0.877746
0.068333 0.018471 0.877738
0.069831 0.018475 0.877921
0.071326 0.018478 0.878052
0.072833 0.018484 0.878321
0.074339 0.018489 0.878573
0.075839 0.018492 0.878747
0.077341 0.018496 0.878932
0.078874 0.018507 0.879453
0.080418 0.018521 0.880079
0.081998 0.018541 0.881067
0.083599 0.018566 0.882252
0.085231 0.018597 0.883707
0.086852 0.018624 0.885005
0.088492 0.018654 0.886445
0.090103 0.018678 0.887545
0.091688 0.018695 0.888367
0.093265 0.018710 0.889085
0.094834 0.018723 0.889707
0.096372 0.018730 0.890012
0.097907 0.018736 0.890294
0.099394 0.018732 0.890129
0.100855 0.018724 0.889742
0.102302 0.018714 0.889249
0.103760 0.018705 0.888859
0.105212 0.018696 0.888432
0.106704 0.018694 0.888345
0.108204 0.018694 0.888336
0.109705 0.018694 0.888331
0.111208 0.018694 0.888336
0.112711 0.018694 0.888345
0.114224 0.018696 0.888432
0.115726 0.018696 0.888432
0.117228 0.018696 0.888432
0.118718 0.018694 0.888342
0.120194 0.018690 0.888154
0.121678 0.018688 0.888030
0.123177 0.018687 0.888012
0.124704 0.018691 0.888198
0.126250 0.018698 0.888507
0.127807 0.018706 0.888888
0.129349 0.018712 0.889161
0.131014 0.018735 0.890257
0.132788 0.018773 0.892068
0.134589 0.018814 0.894010
0.136396 0.018855 0.895955
0.138300 0.018908 0.898483
0.140142 0.018951 0.900558
0.141971 0.018993 0.902508
0.143863 0.019041 0.904812
0.145830 0.019098 0.907534
0.147699 0.019142 0.909593
0.149495 0.019175 0.911172
0.151232 0.019200 0.912356
0.152943 0.019221 0.913363
0.154573 0.019232 0.913872
0.156173 0.019238 0.914192
0.157736 0.019241 0.914294
0.159227 0.019234 0.913983
0.160682 0.019223 0.913468
0.162151 0.019214 0.913044
0.163531 0.019195 0.912133
0.164934 0.019179 0.911367
0.168063 0.017802 0.920058
0.167091 0.019250 0.914740
-0.068809 0.022063 0.970271
-0.067066 0.022030 0.968797
-0.065276 0.021978 0.966536
-0.063417 0.021901 0.963119
-0.061624 0.021842 0.960553
-0.059826 0.021779 0.957757
-0.042813 0.020604 0.906105
-0.041243 0.020585 0.905268
-0.039649 0.020552 0.903822
-0.038056 0.020517 0.902287
-0.036462 0.020479 0.900577
-0.034871 0.020438 0.898811
-0.033299 0.020406 0.897394
-0.031735 0.020376 0.896082
-0.030179 0.020348 0.894853
-0.028630 0.020323 0.893736
-0.027085 0.020297 0.892620
-0.025550 0.020277 0.891704
-0.024026 0.020262 0.891070
-0.022502 0.020247 0.890375
-0.020982 0.020232 0.889749
-0.019467 0.020221 0.889260
-0.017951 0.020206 0.888618
-0.016440 0.020196 0.888167
-0.014934 0.020190 0.887906
-0.013428 0.020182 0.887556
-0.011920 0.020170 0.887009
-0.010413 0.020157 0.886419
-0.008909 0.020143 0.885831
-0.007407 0.020131 0.885293
-0.005908 0.020123 0.884963
-0.004411 0.020118 0.884702
-0.002914 0.020113 0.884507
-0.001418 0.020101 0.883972
0.000076 0.020090 0.883507
0.001569 0.020080 0.883036
0.003061 0.020077 0.882923
0.004553 0.020076 0.882854
0.006049 0.020086 0.883311
0.007548 0.020101 0.883952
0.009052 0.020123 0.884947
0.010562 0.020149 0.886068
0.012079 0.020180 0.887446
0.013597 0.020207 0.888650
0.015124 0.020240 0.890090
0.016666 0.020285 0.892062
0.018223 0.020340 0.894486
0.019802 0.020409 0.897531
0.021395 0.020481 0.900689
0.022985 0.020541 0.903345
0.024563 0.020584 0.905215
0.026125 0.020609 0.906306
0.027655 0.020607 0.906233
0.029157 0.020586 0.905321
0.030638 0.020553 0.903869
0.032095 0.020507 0.901847
0.033528 0.020452 0.899401
0.034954 0.020397 0.896982
0.036387 0.020350 0.894916
0.037817 0.020305 0.892967
0.039242 0.020262 0.891044
0.040677 0.020226 0.889475
0.042106 0.020190 0.887905
0.043526 0.020153 0.886259
0.044953 0.020121 0.884860
0.046390 0.020096 0.883739
0.047831 0.020073 0.882756
0.049280 0.020056 0.881978
0.050745 0.020045 0.881530
0.052214 0.020037 0.881167
0.053682 0.020029 0.880811
0.055144 0.020019 0.880381
0.056613 0.020013 0.880087
0.058082 0.020006 0.879799
0.059546 0.019998 0.879451
0.061021 0.019994 0.879280
0.062495 0.019990 0.879113
0.063969 0.019986 0.878935
0.065435 0.019980 0.878675
0.066918 0.019980 0.878648
0.068404 0.019980 0.878651
0.069904 0.019984 0.878836
0.071406 0.019988 0.879028
0.072913 0.019994 0.879281
0.074413 0.019998 0.879445
0.075907 0.020000 0.879530
0.077395 0.020000 0.879539
0.078904 0.020006 0.879792
0.080431 0.020016 0.880229
0.081979 0.020030 0.880872
0.083548 0.020049 0.881704
0.085150 0.020076 0.882869
0.086743 0.020099 0.883888
0.088363 0.020128 0.885149
0.089980 0.020155 0.886335
0.091583 0.020178 0.887355
0.093179 0.020199 0.888268
0.094784 0.020221 0.889237
0.096340 0.020232 0.889719
0.097886 0.020240 0.890101
0.099392 0.020241 0.890111
0.100864 0.020234 0.889820
0.102312 0.020223 0.889333
0.103770 0.020214 0.888947
0.105222 0.020204 0.888513
0.106703 0.020200 0.888342
0.108204 0.020200 0.888331
0.109704 0.020200 0.888317
0.111207 0.020200 0.888331
0.112710 0.020200 0.888342
0.114224 0.020202 0.888432
0.115726 0.020202 0.888432
0.117228 0.020202 0.888432
0.118718 0.020200 0.888345
0.120196 0.020196 0.888168
0.121682 0.020194 0.888060
0.123182 0.020194 0.888048
0.124696 0.020196 0.888141
0.126226 0.020200 0.888337
0.127766 0.020206 0.888604
0.129305 0.020212 0.888859
0.130884 0.020224 0.889375
0.132558 0.020250 0.890519
0.134209 0.020272 0.891486
0.135858 0.020293 0.892418
0.137595 0.020327 0.893900
0.139359 0.020364 0.895528
0.141144 0.020403 0.897248
0.143042 0.020457 0.899647
0.145076 0.020530 0.902843
0.147095 0.020599 0.905876
0.149036 0.020656 0.908371
0.150914 0.020703 0.910436
0.152743 0.020742 0.912170
0.154441 0.020763 0.913090
0.156023 0.020768 0.913315
0.157583 0.020770 0.913407
0.159060 0.020761 0.913021
0.160515 0.020750 0.912519
0.161986 0.020741 0.912117
0.163397 0.020724 0.911387
0.164834 0.020711 0.910811
0.166295 0.020701 0.910379
0.169321 0.019328 0.918449
0.167759 0.020692 0.909971
-0.068847 0.023721 0.970809
-0.067096 0.023683 0.969229
-0.065297 0.023625 0.966854
-0.063443 0.023543 0.963520
-0.061630 0.023473 0.960638
-0.059816 0.023398 0.957596
-0.058076 0.023350 0.955610
-0.044564 0.022250 0.910591
-0.042973 0.022223 0.909488
-0.041361 0.022183 0.907852
-0.039741 0.022135 0.905912
-0.038132 0.022091 0.904074
-0.036526 0.022044 0.902153
-0.034928 0.021998 0.900289
-0.033351 0.021962 0.898800
-0.031789 0.021932 0.897596
-0.030231 0.021903 0.896394
-0.028682 0.021877 0.895341
-0.027139 0.021854 0.894392
-0.025603 0.021834 0.893560
-0.024076 0.021818 0.892928
-0.022551 0.021803 0.892318
-0.021027 0.021788 0.891688
-0.019507 0.021774 0.891114
-0.017988 0.021758 0.890461
-0.016474 0.021747 0.890000
-0.014965 0.021740 0.889716
-0.013454 0.021729 0.889291
-0.011942 0.021714 0.888653
-0.010433 0.021699 0.888066
-0.008926 0.021685 0.887473
-0.007421 0.021672 0.886939
-0.005920 0.021666 0.886681
-0.004420 0.021661 0.886499
-0.002920 0.021654 0.886211
-0.001421 0.021636 0.885488
0.000076 0.021622 0.884917
0.001571 0.021609 0.884360
0.003066 0.021604 0.884177
0.004560 0.021603 0.884122
0.006059 0.021618 0.884742
0.007561 0.021636 0.885480
0.009069 0.021663 0.886581
0.010581 0.021691 0.887707
0.012099 0.021722 0.888989
0.013619 0.021749 0.890096
0.015147 0.021782 0.891442
0.016688 0.021826 0.893253
0.018246 0.021884 0.895605
0.019827 0.021958 0.898632
0.021417 0.022031 0.901621
0.023004 0.022091 0.904109
0.024583 0.022137 0.905965
0.026144 0.022161 0.906964
0.027674 0.022159 0.906888
0.029184 0.022141 0.906149
0.030670 0.022108 0.904800
0.032131 0.022061 0.902875
0.033573 0.022006 0.900606
0.035008 0.021951 0.898356
0.036439 0.021899 0.896216
0.037872 0.021851 0.894264
0.039298 0.021803 0.892324
0.040734 0.021765 0.890730
0.042162 0.021724 0.889085
0.043585 0.021685 0.887460
0.045014 0.021650 0.886060
0.046452 0.021623 0.884924
0.047890 0.021596 0.883850
0.049336 0.021575 0.882978
0.050797 0.021562 0.882428
0.052261 0.021550 0.881966
0.053720 0.021537 0.881441
0.055183 0.021527 0.881006
0.056654 0.021520 0.880726
0.058130 0.021515 0.880518
0.059600 0.021508 0.880247
0.061081 0.021506 0.880149
0.062557 0.021502 0.879979
0.064032 0.021497 0.879804
0.065506 0.021493 0.879625
0.066992 0.021493 0.879616
0.068480 0.021493 0.879626
0.069982 0.021498 0.879811
0.071484 0.021502 0.879994
0.072986 0.021506 0.880165
0.074480 0.021508 0.880244
0.075969 0.021508 0.880244
0.077449 0.021506 0.880158
0.078943 0.021508 0.880229
0.080455 0.021514 0.880483
0.081978 0.021523 0.880851
0.083520 0.021537 0.881412
0.085088 0.021557 0.882218
0.086650 0.021574 0.882945
0.088234 0.021597 0.883858
0.089832 0.021621 0.884876
0.091435 0.021647 0.885914
0.093049 0.021674 0.887022
0.094673 0.021703 0.888196
0.096255 0.021721 0.888935
0.097828 0.021736 0.889573
0.099351 0.021740 0.889749
0.100835 0.021736 0.889566
0.102294 0.021726 0.889173
0.103762 0.021719 0.888875
0.105213 0.021708 0.888439
0.106683 0.021702 0.888177
0.108173 0.021700 0.888078
0.109663 0.021697 0.887986
0.111155 0.021696 0.887911
0.112667 0.021698 0.888001
0.114191 0.021702 0.888175
0.115704 0.021704 0.888264
0.117217 0.021706 0.888351
0.118719 0.021706 0.888351
0.120209 0.021704 0.888264
0.121698 0.021702 0.888175
0.123199 0.021702 0.888169
0.124701 0.021702 0.888175
0.126215 0.021704 0.888264
0.127730 0.021706 0.888351
0.129256 0.021711 0.888520
0.130822 0.021721 0.888956
0.132396 0.021733 0.889433
0.133935 0.021739 0.889669
0.135466 0.021743 0.889843
0.137052 0.021756 0.890376
0.138677 0.021775 0.891145
0.140432 0.021813 0.892722
0.142303 0.021869 0.895001
0.144331 0.021947 0.898206
0.146469 0.022040 0.902022
0.148542 0.022122 0.905364
0.150541 0.022191 0.908187
0.152466 0.022248 0.910516
0.154234 0.022281 0.911868
0.155825 0.022288 0.912156
0.157382 0.022290 0.912242
0.158874 0.022283 0.911953
0.160362 0.022276 0.911647
0.161850 0.022268 0.911348
0.163292 0.022255 0.910802
0.164762 0.022246 0.910416
0.166243 0.022238 0.910094
0.167726 0.022230 0.909794
0.169248 0.020686 0.909709
0.169246 0.022228 0.909700
0.171653 0.020791 0.914329
0.170838 0.022235 0.909987
0.174146 0.020905 0.919328
0.172417 0.022240 0.910201
-0.073636 0.024217 0.991090
-0.075875 0.026090 0.998500
-0.073517 0.025855 0.989490
-0.071205 0.023963 0.980689
-0.071204 0.025625 0.980669
-0.068950 0.025405 0.972267
-0.067147 0.025345 0.969961
-0.065331 0.025277 0.967352
-0.063474 0.025188 0.963980
-0.061634 0.025103 0.960712
-0.059808 0.025019 0.957479
-0.058063 0.024964 0.955392
-0.056350 0.023304 0.953744
-0.056352 0.024922 0.953769
-0.044712 0.023872 0.913614
-0.043109 0.023840 0.912367
-0.041475 0.023788 0.910366
-0.039839 0.023730 0.908154
-0.038213 0.023674 0.906008
-0.036591 0.023615 0.903777
-0.034990 0.023566 0.901872
-0.033407 0.023525 0.900309
-0.031843 0.023494 0.899121
-0.030286 0.023465 0.898023
-0.028734 0.023438 0.896987
-0.027190 0.023413 0.896045
-0.025653 0.023393 0.895282
-0.024122 0.023377 0.894641
-0.022594 0.023360 0.894008
-0.021069 0.023345 0.893437
-0.019544 0.023328 0.892781
-0.018020 0.023309 0.892042
-0.016503 0.023296 0.891558
-0.014989 0.023286 0.891186
-0.013476 0.023275 0.890753
-0.011963 0.023261 0.890219
-0.010452 0.023248 0.889732
-0.008943 0.023235 0.889235
-0.007436 0.023224 0.888787
-0.005931 0.023215 0.888451
-0.004428 0.023208 0.888184
-0.002925 0.023198 0.887802
-0.001423 0.023177 0.886984
0.000076 0.023159 0.886319
0.001574 0.023144 0.885747
0.003070 0.023139 0.885560
0.004568 0.023140 0.885587
0.006069 0.023157 0.886228
0.007574 0.023176 0.886967
0.009083 0.023203 0.887984
0.010597 0.023229 0.889005
0.012116 0.023261 0.890198
0.013638 0.023289 0.891294
0.015168 0.023325 0.892659
0.016709 0.023370 0.894394
0.018268 0.023431 0.896717
0.019849 0.023508 0.899651
0.021438 0.023583 0.902529
0.023025 0.023645 0.904930
0.024605 0.023694 0.906786
0.026165 0.023718 0.907699
0.027695 0.023714 0.907544
0.029205 0.023694 0.906800
0.030696 0.023662 0.905552
0.032159 0.023612 0.903643
0.033608 0.023557 0.901546
0.035051 0.023503 0.899464
0.036485 0.023447 0.897327
0.037912 0.023391 0.895201
0.039342 0.023342 0.893317
0.040775 0.023298 0.891628
0.042201 0.023253 0.889917
0.043626 0.023211 0.888306
0.045062 0.023177 0.887010
0.046502 0.023147 0.885875
0.047941 0.023119 0.884785
0.049387 0.023096 0.883899
0.050849 0.023081 0.883335
0.052313 0.023068 0.882846
0.053768 0.023052 0.882226
0.055227 0.023039 0.881704
0.056694 0.023029 0.881346
0.058166 0.023022 0.881074
0.059633 0.023013 0.880731
0.061115 0.023011 0.880634
0.062596 0.023008 0.880532
0.064079 0.023006 0.880446
0.065559 0.023003 0.880344
0.067053 0.023005 0.880420
0.068543 0.023005 0.880432
0.070040 0.023008 0.880546
0.071537 0.023011 0.880646
0.073033 0.023013 0.880734
0.074522 0.023013 0.880734
0.076011 0.023013 0.880734
0.077492 0.023011 0.880646
0.078979 0.023010 0.880625
0.080481 0.023014 0.880771
0.081987 0.023019 0.880955
0.083504 0.023027 0.881245
0.085045 0.023040 0.881773
0.086579 0.023052 0.882217
0.088132 0.023068 0.882838
0.089708 0.023090 0.883661
0.091309 0.023117 0.884697
0.092915 0.023144 0.885744
0.094548 0.023177 0.887019
0.096139 0.023200 0.887863
0.097729 0.023221 0.888677
0.099264 0.023228 0.888963
0.100766 0.023228 0.888954
0.102235 0.023220 0.888667
0.103722 0.023217 0.888529
0.105172 0.023206 0.888097
0.106642 0.023199 0.887832
0.108130 0.023196 0.887722
0.109617 0.023193 0.887617
0.111097 0.023189 0.887452
0.112609 0.023191 0.887545
0.114132 0.023196 0.887722
0.115646 0.023199 0.887824
0.117171 0.023203 0.888001
0.118695 0.023208 0.888175
0.120209 0.023210 0.888264
0.121722 0.023212 0.888351
0.123235 0.023214 0.888432
0.124737 0.023214 0.888432
0.126239 0.023214 0.888432
0.127741 0.023214 0.888432
0.129268 0.023219 0.888603
0.130836 0.023231 0.889049
0.132386 0.023239 0.889367
0.133908 0.023242 0.889489
0.135421 0.023244 0.889550
0.136915 0.023242 0.889486
0.138401 0.023239 0.889371
0.140052 0.023263 0.890311
0.141805 0.023304 0.891866
0.143717 0.023370 0.894384
0.145815 0.023464 0.897990
0.147980 0.023567 0.901933
0.150067 0.023656 0.905326
0.152089 0.023733 0.908264
0.153953 0.023783 0.910203
0.155627 0.023804 0.910997
0.157197 0.023809 0.911173
0.158718 0.023806 0.911058
0.160220 0.023800 0.910842
0.161725 0.023795 0.910643
0.163200 0.023785 0.910287
0.164704 0.023780 0.910094
0.166206 0.023775 0.909893
0.167709 0.023770 0.909700
0.169229 0.023768 0.909608
0.170801 0.023773 0.909791
0.172359 0.023775 0.909895
0.173978 0.022243 0.910316
0.173900 0.023775 0.909907
0.175565 0.022249 0.910563
0.175470 0.023780 0.910072
0.177121 0.022251 0.910652
0.177026 0.023782 0.910161
0.179495 0.022355 0.914903
0.178586 0.023785 0.910273
0.181942 0.022466 0.919457
0.180168 0.023791 0.910488
-0.073381 0.027482 0.987663
-0.071200 0.027285 0.980608
-0.069062 0.027097 0.973838
-0.067215 0.027016 0.970938
-0.065367 0.026931 0.967887
-0.063494 0.026831 0.964288
-0.061635 0.026732 0.960720
-0.059799 0.026637 0.957326
-0.058047 0.026576 0.955124
-0.056332 0.026529 0.953443
-0.046487 0.025548 0.918159
-0.044840 0.025494 0.916234
-0.043225 0.025455 0.914823
-0.041585 0.025398 0.912777
-0.039941 0.025334 0.910483
-0.038303 0.025269 0.908138
-0.036669 0.025201 0.905698
-0.035056 0.025142 0.903586
-0.033466 0.025095 0.901902
-0.031896 0.025059 0.900617
-0.030339 0.025031 0.899602
-0.028788 0.025005 0.898666
-0.027243 0.024981 0.897813
-0.025704 0.024961 0.897067
-0.024170 0.024942 0.896411
-0.022638 0.024924 0.895752
-0.021108 0.024906 0.895094
-0.019578 0.024885 0.894340
-0.018049 0.024862 0.893508
-0.016530 0.024848 0.893022
-0.015012 0.024836 0.892570
-0.013498 0.024826 0.892218
-0.011984 0.024814 0.891781
-0.010472 0.024803 0.891387
-0.008960 0.024790 0.890920
-0.007451 0.024780 0.890558
-0.005943 0.024770 0.890219
-0.004437 0.024763 0.889955
-0.002931 0.024752 0.889579
-0.001426 0.024732 0.888844
0.000076 0.024713 0.888165
0.001577 0.024697 0.887588
0.003076 0.024687 0.887236
0.004576 0.024685 0.887170
0.006080 0.024703 0.887794
0.007587 0.024723 0.888530
0.009099 0.024749 0.889470
0.010615 0.024780 0.890560
0.012137 0.024812 0.891737
0.013660 0.024841 0.892755
0.015190 0.024874 0.893960
0.016729 0.024916 0.895453
0.018290 0.024980 0.897751
0.019871 0.025061 0.900665
0.021461 0.025139 0.903464
0.023047 0.025203 0.905796
0.024633 0.025260 0.907806
0.026189 0.025280 0.908542
0.027715 0.025271 0.908213
0.029223 0.025248 0.907381
0.030718 0.025215 0.906212
0.032182 0.025162 0.904307
0.033636 0.025106 0.902299
0.035087 0.025053 0.900398
0.036530 0.024999 0.898434
0.037958 0.024940 0.896309
0.039390 0.024887 0.894406
0.040824 0.024839 0.892696
0.042251 0.024791 0.890976
0.043679 0.024747 0.889378
0.045121 0.024713 0.888167
0.046568 0.024684 0.887119
0.048013 0.024656 0.886123
0.049458 0.024629 0.885161
0.050916 0.024611 0.884504
0.052377 0.024595 0.883925
0.053827 0.024575 0.883197
0.055282 0.024558 0.882582
0.056745 0.024545 0.882138
0.058213 0.024535 0.881782
0.059675 0.024524 0.881355
0.061153 0.024519 0.881180
0.062630 0.024514 0.881009
0.064113 0.024511 0.880919
0.065596 0.024509 0.880829
0.067090 0.024511 0.880905
0.068580 0.024511 0.880914
0.070078 0.024514 0.881014
0.071575 0.024517 0.881109
0.073071 0.024519 0.881195
0.074561 0.024519 0.881195
0.076051 0.024519 0.881195
0.077533 0.024517 0.881109
0.079014 0.024514 0.881014
0.080509 0.024516 0.881080
0.082007 0.024518 0.881165
0.083499 0.024519 0.881188
0.085005 0.024524 0.881363
0.086511 0.024528 0.881526
0.088035 0.024538 0.881862
0.089580 0.024553 0.882400
0.091166 0.024578 0.883306
0.092766 0.024606 0.884327
0.094407 0.024644 0.885696
0.096008 0.024671 0.886650
0.097607 0.024696 0.887564
0.099159 0.024709 0.888026
0.100679 0.024714 0.888195
0.102160 0.024709 0.888009
0.103657 0.024708 0.887978
0.105108 0.024696 0.887552
0.106576 0.024688 0.887282
0.108050 0.024683 0.887073
0.109526 0.024677 0.886875
0.110993 0.024670 0.886618
0.112503 0.024672 0.886708
0.114026 0.024678 0.886890
0.115551 0.024683 0.887091
0.117087 0.024691 0.887369
0.118624 0.024698 0.887642
0.120149 0.024704 0.887824
0.121663 0.024706 0.887920
0.123176 0.024709 0.888007
0.124689 0.024711 0.888088
0.126203 0.024713 0.888175
0.127717 0.024716 0.888264
0.129257 0.024723 0.888526
0.130825 0.024735 0.888972
0.132360 0.024741 0.889188
0.133868 0.024742 0.889220
0.135365 0.024741 0.889182
0.136834 0.024735 0.888963
0.138281 0.024725 0.888601
0.139824 0.024732 0.888859
0.141468 0.024757 0.889747
0.143250 0.024805 0.891481
0.145240 0.024888 0.894451
0.147361 0.024991 0.898161
0.149508 0.025097 0.901958
0.151611 0.025193 0.905407
0.153569 0.025263 0.907936
0.155323 0.025299 0.909220
0.156952 0.025314 0.909752
0.158503 0.025316 0.909825
0.160022 0.025313 0.909718
0.161557 0.025312 0.909702
0.163065 0.025308 0.909531
0.164586 0.025305 0.909443
0.166106 0.025302 0.909345
0.167625 0.025300 0.909247
0.169131 0.025295 0.909078
0.170684 0.025297 0.909163
0.172222 0.025297 0.909169
0.173759 0.025298 0.909172
0.175312 0.025300 0.909254
0.176866 0.025302 0.909339
0.178423 0.025305 0.909440
0.180015 0.025313 0.909718
0.181856 0.023810 0.911235
0.181682 0.025331 0.910364
0.184250 0.023921 0.915476
0.183306 0.025342 0.910785
0.186736 0.024042 0.920101
0.184949 0.025357 0.911296
0.197675 0.024048 0.920337
0.194494 0.025396 0.912711
0.196004 0.025392 0.912556
0.198459 0.023955 0.916769
0.197639 0.025403 0.912981
0.199223 0.023861 0.913167
0.199207 0.025407 0.913096
0.200639 0.023846 0.912589
0.200661 0.025395 0.912686
0.203073 0.023951 0.916610
0.202296 0.025407 0.913100
0.205566 0.024061 0.920835
0.203911 0.025416 0.913422
-0.073272 0.029112 0.986191
-0.071208 0.028951 0.980721
-0.069176 0.028795 0.975448
-0.067280 0.028690 0.971878
-0.065400 0.028586 0.968372
-0.063510 0.028473 0.964526
-0.061649 0.028367 0.960940
-0.059807 0.028264 0.957456
-0.058046 0.028195 0.955120
-0.056324 0.028141 0.953294
-0.054514 0.028039 0.949840
-0.046652 0.027200 0.921428
-0.044982 0.027133 0.919135
-0.043347 0.027082 0.917404
-0.041699 0.027019 0.915280
-0.040058 0.026956 0.913136
-0.038411 0.026884 0.910702
-0.036769 0.026809 0.908163
-0.035140 0.026738 0.905756
-0.033535 0.026679 0.903762
-0.031954 0.026635 0.902273
-0.030394 0.026604 0.901228
-0.028838 0.026574 0.900213
-0.027296 0.026554 0.899539
-0.025754 0.026532 0.898799
-0.024214 0.026511 0.898069
-0.022680 0.026492 0.897414
-0.021147 0.026472 0.896737
-0.019612 0.026447 0.895899
-0.018083 0.026425 0.895153
-0.016560 0.026410 0.894663
-0.015039 0.026394 0.894127
-0.013522 0.026384 0.893771
-0.012005 0.026371 0.893330
-0.010490 0.026360 0.892953
-0.008977 0.026349 0.892580
-0.007466 0.026341 0.892307
-0.005955 0.026333 0.892047
-0.004446 0.026325 0.891781
-0.002937 0.026314 0.891402
-0.001429 0.026293 0.890677
0.000077 0.026273 0.890014
0.001580 0.026254 0.889360
0.003082 0.026240 0.888897
0.004584 0.026235 0.888725
0.006090 0.026251 0.889247
0.007598 0.026268 0.889831
0.009113 0.026298 0.890839
0.010631 0.026328 0.891858
0.012155 0.026362 0.893027
0.013681 0.026395 0.894143
0.015213 0.026431 0.895354
0.016750 0.026467 0.896586
0.018317 0.026542 0.899111
0.019902 0.026628 0.902037
0.021492 0.026710 0.904806
0.023082 0.026779 0.907164
0.024672 0.026841 0.909247
0.026220 0.026852 0.909614
0.027741 0.026836 0.909073
0.029245 0.026805 0.908047
0.030740 0.026770 0.906857
0.032205 0.026714 0.904957
0.033664 0.026658 0.903062
0.035120 0.026605 0.901250
0.036568 0.026550 0.899388
0.037999 0.026487 0.897260
0.039436 0.026433 0.895445
0.040871 0.026383 0.893724
0.042299 0.026331 0.891987
0.043732 0.026286 0.890452
0.045176 0.026250 0.889239
0.046620 0.026217 0.888119
0.048072 0.026190 0.887212
0.049524 0.026165 0.886341
0.050981 0.026144 0.885628
0.052444 0.026126 0.885045
0.053890 0.026102 0.884229
0.055340 0.026081 0.883508
0.056798 0.026065 0.882951
0.058265 0.026053 0.882572
0.059728 0.026041 0.882137
0.061212 0.026038 0.882035
0.062691 0.026033 0.881867
0.064170 0.026028 0.881704
0.065648 0.026023 0.881536
0.067137 0.026022 0.881520
0.068621 0.026020 0.881440
0.070112 0.026020 0.881449
0.071609 0.026023 0.881534
0.073106 0.026025 0.881614
0.074597 0.026025 0.881614
0.076087 0.026025 0.881614
0.077570 0.026023 0.881534
0.079053 0.026020 0.881449
0.080542 0.026020 0.881440
0.082032 0.026020 0.881440
0.083515 0.026018 0.881363
0.085004 0.026018 0.881354
0.086484 0.026014 0.881254
0.087989 0.026019 0.881399
0.089505 0.026027 0.881659
0.091060 0.026045 0.882288
0.092647 0.026072 0.883196
0.094275 0.026109 0.884459
0.095882 0.026139 0.885487
0.097491 0.026170 0.886508
0.099061 0.026189 0.887146
0.100592 0.026197 0.887422
0.102090 0.026196 0.887402
0.103579 0.026193 0.887309
0.105019 0.026178 0.886804
0.106466 0.026166 0.886368
0.107917 0.026154 0.885977
0.109369 0.026143 0.885606
0.110823 0.026133 0.885263
0.112331 0.026135 0.885350
0.113861 0.026143 0.885613
0.115385 0.026149 0.885817
0.116921 0.026158 0.886106
0.118456 0.026166 0.886388
0.119981 0.026172 0.886584
0.121494 0.026175 0.886685
0.123029 0.026182 0.886941
0.124565 0.026190 0.887203
0.126103 0.026198 0.887475
0.127631 0.026204 0.887663
0.129181 0.026214 0.888005
0.130735 0.026224 0.888366
0.132268 0.026231 0.888574
0.133786 0.026234 0.888679
0.135309 0.026238 0.888812
0.136794 0.026234 0.888697
0.138267 0.026229 0.888513
0.139811 0.026237 0.888778
0.141400 0.026253 0.889324
0.143067 0.026283 0.890341
0.144923 0.026346 0.892501
0.146907 0.026432 0.895394
0.148959 0.026528 0.898645
0.151063 0.026631 0.902133
0.153100 0.026720 0.905161
0.154955 0.026776 0.907061
0.156677 0.026809 0.908157
0.158290 0.026822 0.908600
0.159840 0.026824 0.908680
0.161391 0.026827 0.908764
0.162914 0.026824 0.908688
0.164451 0.026825 0.908694
0.165971 0.026822 0.908604
0.167488 0.026819 0.908504
0.168990 0.026813 0.908319
0.170508 0.026811 0.908229
0.172044 0.026811 0.908229
0.173596 0.026813 0.908319
0.175150 0.026816 0.908413
0.176703 0.026819 0.908503
0.178272 0.026824 0.908672
0.179845 0.026829 0.908855
0.181474 0.026843 0.909322
0.183112 0.026858 0.909819
0.184770 0.026875 0.910413
0.186586 0.025370 0.911768
0.186408 0.026889 0.910895
0.188241 0.025385 0.912317
0.188061 0.026906 0.911444
0.189772 0.025384 0.912263
0.189626 0.026909 0.911561
0.191354 0.025389 0.912453
0.191207 0.026915 0.911752
0.192968 0.025398 0.912788
0.192826 0.026926 0.912118
0.194392 0.026929 0.912231
0.195922 0.026927 0.912174
0.197557 0.026940 0.912604
0.199141 0.026946 0.912794
0.200634 0.026939 0.912564
0.202211 0.026943 0.912718
0.203784 0.026947 0.912852
0.205464 0.025417 0.913462
0.205285 0.026942 0.912664
0.207739 0.025507 0.916685
0.206808 0.026939 0.912576
-0.073151 0.030733 0.984564
-0.071195 0.030608 0.980548
-0.069265 0.030488 0.976705
-0.067335 0.030362 0.972678
-0.065431 0.030242 0.968826
-0.063531 0.030118 0.964854
-0.061662 0.030002 0.961150
-0.059813 0.029890 0.957563
-0.058033 0.029808 0.954909
-0.056285 0.029737 0.952636
-0.054439 0.029609 0.948540
-0.052548 0.029448 0.943384
-0.048609 0.029000 0.929052
-0.046794 0.028850 0.924232
-0.045111 0.028773 0.921761
-0.043459 0.028711 0.919780
-0.041803 0.028642 0.917566
-0.040152 0.028570 0.915280
-0.038502 0.028495 0.912857
-0.036856 0.028415 0.910312
-0.035216 0.028334 0.907707
-0.033599 0.028265 0.905495
-0.032005 0.028209 0.903689
-0.030432 0.028167 0.902370
-0.028871 0.028133 0.901250
-0.027330 0.028114 0.900665
-0.025786 0.028092 0.899945
-0.024248 0.028072 0.899310
-0.022713 0.028054 0.898740
-0.021178 0.028033 0.898067
-0.019643 0.028010 0.897319
-0.018115 0.027992 0.896738
-0.016591 0.027980 0.896349
-0.015067 0.027963 0.895811
-0.013547 0.027951 0.895444
-0.012027 0.027937 0.894981
-0.010510 0.027925 0.894599
-0.008993 0.027913 0.894223
-0.007480 0.027907 0.894038
-0.005967 0.027899 0.893777
-0.004455 0.027891 0.893502
-0.002943 0.027877 0.893047
-0.001432 0.027851 0.892242
0.000077 0.027828 0.891499
0.001583 0.027808 0.890836
0.003086 0.027788 0.890200
0.004590 0.027781 0.890001
0.006098 0.027794 0.890416
0.007608 0.027812 0.890994
0.009125 0.027845 0.892033
0.010646 0.027880 0.893159
0.012172 0.027917 0.894349
0.013705 0.027960 0.895710
0.015243 0.028003 0.897098
0.016786 0.028046 0.898492
0.018360 0.028132 0.901222
0.019951 0.028226 0.904254
0.021545 0.028312 0.907002
0.023134 0.028381 0.909198
0.024720 0.028437 0.911015
0.026262 0.028439 0.911063
0.027774 0.028410 0.910139
0.029267 0.028366 0.908715
0.030753 0.028320 0.907242
0.032215 0.028257 0.905245
0.033673 0.028196 0.903280
0.035133 0.028143 0.901578
0.036589 0.028090 0.899893
0.038031 0.028032 0.898034
0.039475 0.027979 0.896331
0.040916 0.027928 0.894711
0.042345 0.027874 0.892956
0.043778 0.027825 0.891388
0.045223 0.027787 0.890168
0.046669 0.027752 0.889053
0.048124 0.027724 0.888159
0.049586 0.027702 0.887452
0.051050 0.027682 0.886823
0.052511 0.027662 0.886176
0.053959 0.027637 0.885359
0.055409 0.027613 0.884619
0.056857 0.027590 0.883880
0.058314 0.027573 0.883319
0.059776 0.027558 0.882854
0.061256 0.027553 0.882667
0.062736 0.027547 0.882498
0.064222 0.027545 0.882412
0.065700 0.027539 0.882237
0.067178 0.027533 0.882050
0.068654 0.027527 0.881866
0.070132 0.027522 0.881694
0.071616 0.027520 0.881614
0.073106 0.027520 0.881614
0.074597 0.027520 0.881614
0.076087 0.027520 0.881614
0.077577 0.027520 0.881614
0.079068 0.027520 0.881614
0.080558 0.027520 0.881614
0.082048 0.027520 0.881614
0.083531 0.027517 0.881526
0.085011 0.027514 0.881426
0.086482 0.027508 0.881227
0.087969 0.027507 0.881206
0.089460 0.027507 0.881212
0.090995 0.027521 0.881657
0.092561 0.027543 0.882376
0.094160 0.027575 0.883376
0.095755 0.027604 0.884318
0.097361 0.027635 0.885325
0.098920 0.027653 0.885888
0.100449 0.027662 0.886165
0.101957 0.027664 0.886246
0.103445 0.027661 0.886157
0.104872 0.027643 0.885562
0.106303 0.027626 0.885009
0.107728 0.027608 0.884429
0.109156 0.027591 0.883883
0.110598 0.027577 0.883461
0.112101 0.027580 0.883542
0.113629 0.027588 0.883804
0.115149 0.027594 0.884004
0.116682 0.027603 0.884297
0.118213 0.027612 0.884570
0.119744 0.027620 0.884831
0.121254 0.027623 0.884934
0.122799 0.027634 0.885285
0.124347 0.027646 0.885654
0.125899 0.027658 0.886034
0.127428 0.027664 0.886251
0.128988 0.027678 0.886677
0.130550 0.027691 0.887106
0.132092 0.027700 0.887394
0.133635 0.027709 0.887678
0.135200 0.027722 0.888096
0.136726 0.027727 0.888256
0.138229 0.027727 0.888264
0.139797 0.027741 0.888691
0.141386 0.027757 0.889233
0.143009 0.027781 0.889979
0.144732 0.027823 0.891324
0.146581 0.027888 0.893406
0.148499 0.027965 0.895867
0.150511 0.028057 0.898842
0.152550 0.028153 0.901910
0.154500 0.028231 0.904399
0.156335 0.028286 0.906174
0.158057 0.028320 0.907268
0.159685 0.028337 0.907801
0.161269 0.028346 0.908076
0.162806 0.028346 0.908089
0.164327 0.028344 0.908012
0.165826 0.028337 0.907814
0.167323 0.028331 0.907611
0.168805 0.028322 0.907327
0.170320 0.028319 0.907227
0.171854 0.028319 0.907227
0.173423 0.028325 0.907411
0.174995 0.028331 0.907608
0.176567 0.028337 0.907801
0.178137 0.028343 0.907983
0.179707 0.028348 0.908161
0.181299 0.028357 0.908443
0.182916 0.028370 0.908848
0.184535 0.028383 0.909257
0.186170 0.028397 0.909734
0.187821 0.028415 0.910283
0.189422 0.028424 0.910581
0.191007 0.028430 0.910796
0.192661 0.028447 0.911339
0.194265 0.028457 0.911636
0.195814 0.028458 0.911669
0.197452 0.028472 0.912117
0.199052 0.028480 0.912386
0.200563 0.028476 0.912243
0.202122 0.028478 0.912318
0.203679 0.028480 0.912384
0.205160 0.028471 0.912108
0.206662 0.028466 0.911935
0.208970 0.027019 0.915289
0.208080 0.028449 0.911390
-0.073117 0.032387 0.984109
-0.071197 0.032271 0.980568
-0.069294 0.032157 0.977120
-0.067342 0.032014 0.972782
-0.065423 0.031881 0.968714
-0.063523 0.031750 0.964735
-0.061656 0.031628 0.961048
-0.059813 0.031514 0.957560
-0.058022 0.031420 0.954713
-0.056257 0.031336 0.952169
-0.054401 0.031195 0.947871
-0.052524 0.031033 0.942948
-0.050536 0.029206 0.935651
-0.050604 0.030834 0.936910
-0.048719 0.030644 0.931148
-0.046901 0.030486 0.926343
-0.045203 0.030397 0.923643
-0.043539 0.030326 0.921481
-0.041884 0.030256 0.919342
-0.040234 0.030184 0.917150
-0.038589 0.030110 0.914915
-0.036943 0.030030 0.912471
-0.035299 0.029943 0.909834
-0.033674 0.029866 0.907504
-0.032065 0.029797 0.905402
-0.030483 0.029747 0.903877
-0.028916 0.029706 0.902649
-0.027370 0.029685 0.901984
-0.025824 0.029661 0.901256
-0.024286 0.029643 0.900714
-0.022749 0.029624 0.900140
-0.021213 0.029605 0.899562
-0.019678 0.029584 0.898916
-0.018149 0.029568 0.898446
-0.016624 0.029556 0.898084
-0.015096 0.029538 0.897530
-0.013573 0.029525 0.897141
-0.012049 0.029509 0.896650
-0.010529 0.029496 0.896266
-0.009011 0.029487 0.895982
-0.007496 0.029484 0.895884
-0.005979 0.029473 0.895543
-0.004463 0.029460 0.895176
-0.002948 0.029445 0.894699
-0.001434 0.029417 0.893869
0.000077 0.029390 0.893039
0.001585 0.029368 0.892372
0.003091 0.029344 0.891641
0.004597 0.029334 0.891339
0.006106 0.029343 0.891592
0.007617 0.029359 0.892078
0.009135 0.029390 0.893047
0.010658 0.029428 0.894176
0.012187 0.029468 0.895398
0.013725 0.029521 0.897025
0.015271 0.029577 0.898709
0.016820 0.029630 0.900333
0.018406 0.029733 0.903449
0.020002 0.029836 0.906597
0.021599 0.029924 0.909274
0.023189 0.029993 0.911357
0.024773 0.030046 0.912964
0.026307 0.030035 0.912626
0.027812 0.029994 0.911387
0.029297 0.029937 0.909651
0.030777 0.029881 0.907963
0.032237 0.029812 0.905865
0.033692 0.029745 0.903811
0.035154 0.029689 0.902109
0.036614 0.029636 0.900505
0.038062 0.029578 0.898757
0.039512 0.029526 0.897171
0.040956 0.029474 0.895581
0.042391 0.029419 0.893911
0.043828 0.029369 0.892413
0.045270 0.029326 0.891103
0.046719 0.029290 0.889997
0.048183 0.029265 0.889250
0.049647 0.029242 0.888542
0.051112 0.029221 0.887913
0.052580 0.029203 0.887356
0.054036 0.029179 0.886619
0.055484 0.029152 0.885803
0.056933 0.029127 0.885054
0.058386 0.029106 0.884403
0.059839 0.029085 0.883778
