1682
0.051873 -0.106296 0.901131
0.053698 -0.106895 0.906211
0.055635 -0.107679 0.912857
0.057607 -0.108486 0.919699
0.059612 -0.109312 0.926704
0.061435 -0.109770 0.930588
0.063195 -0.110096 0.933351
0.064895 -0.110304 0.935110
0.067044 -0.112845 0.943099
0.066642 -0.110578 0.937437
0.077325 -0.116319 0.972131
0.075424 -0.115923 0.968823
0.074986 -0.113616 0.963190
0.077126 -0.114375 0.969625
0.079058 -0.114800 0.973227
0.080840 -0.114995 0.974877
0.082439 -0.114926 0.974298
0.084020 -0.114836 0.973533
0.085606 -0.114756 0.972857
0.087181 -0.114665 0.972083
0.088755 -0.114575 0.971319
0.090317 -0.114474 0.970461
0.091894 -0.114395 0.969793
0.093490 -0.114341 0.969334
0.095098 -0.114304 0.969019
0.096717 -0.114282 0.968832
0.098335 -0.114259 0.968637
0.099949 -0.114231 0.968403
0.101551 -0.114193 0.968077
0.103165 -0.114167 0.967860
0.104769 -0.114132 0.967565
0.106392 -0.114119 0.967451
0.108026 -0.114117 0.967434
0.109627 -0.114081 0.967132
0.111260 -0.114079 0.967113
0.112905 -0.114089 0.967200
0.114565 -0.114114 0.967407
0.116205 -0.114118 0.967444
0.117890 -0.114166 0.967852
0.119540 -0.114179 0.967963
0.121189 -0.114192 0.968069
0.122852 -0.114216 0.968276
0.124543 -0.114266 0.968696
0.126240 -0.114319 0.969148
0.127979 -0.114409 0.969915
0.129721 -0.114499 0.970680
0.131479 -0.114602 0.971545
0.133227 -0.114692 0.972312
0.135033 -0.114831 0.973487
0.136806 -0.114937 0.974392
0.138584 -0.115046 0.975311
0.140389 -0.115174 0.976396
0.143337 -0.116226 0.985313
-0.151461 -0.115802 0.996038
-0.149775 -0.115801 0.996025
-0.148045 -0.115764 0.995712
-0.146300 -0.115716 0.995296
-0.144626 -0.115723 0.995356
-0.142880 -0.115672 0.994916
-0.141136 -0.115621 0.994477
-0.139375 -0.115554 0.993906
-0.137626 -0.115497 0.993412
-0.135810 -0.115381 0.992412
-0.134040 -0.115301 0.991729
-0.132231 -0.115186 0.990735
-0.130436 -0.115080 0.989825
-0.128642 -0.114972 0.988900
-0.126825 -0.114841 0.987768
-0.125001 -0.114699 0.986551
-0.123218 -0.114592 0.985630
-0.121427 -0.114475 0.984621
-0.119641 -0.114358 0.983618
-0.117894 -0.114277 0.982916
-0.116177 -0.114222 0.982446
-0.114466 -0.114172 0.982017
-0.112794 -0.114161 0.981918
-0.111134 -0.114161 0.981918
-0.109451 -0.114137 0.981714
-0.107767 -0.114111 0.981491
-0.106061 -0.114060 0.981051
-0.104331 -0.113983 0.980388
-0.102602 -0.113903 0.979701
-0.100897 -0.113848 0.979226
-0.099187 -0.113785 0.978688
-0.097511 -0.113760 0.978470
-0.095826 -0.113724 0.978162
-0.094140 -0.113685 0.977826
-0.092453 -0.113643 0.977467
-0.090749 -0.113578 0.976906
-0.089037 -0.113501 0.976247
-0.087317 -0.113411 0.975467
-0.085608 -0.113331 0.974780
-0.083902 -0.113253 0.974114
-0.082211 -0.113192 0.973585
-0.080187 -0.112660 0.969011
-0.070638 -0.108076 0.929582
-0.068811 -0.107677 0.926148
-0.067238 -0.107665 0.926051
-0.065665 -0.107653 0.925941
-0.064080 -0.107619 0.925655
-0.062483 -0.107565 0.925183
-0.060880 -0.107496 0.924593
-0.059248 -0.107370 0.923512
-0.057589 -0.107189 0.921952
-0.055905 -0.106950 0.919895
-0.054200 -0.106654 0.917349
-0.052491 -0.106333 0.914589
-0.050797 -0.106025 0.911940
-0.049115 -0.105723 0.909343
-0.047444 -0.105427 0.906794
-0.045800 -0.105171 0.904593
-0.044150 -0.104885 0.902136
-0.042505 -0.104590 0.899596
-0.040877 -0.104315 0.897234
-0.039273 -0.104084 0.895246
-0.037682 -0.103870 0.893404
-0.036119 -0.103720 0.892120
-0.034562 -0.103573 0.890850
-0.033002 -0.103405 0.889407
-0.031446 -0.103232 0.887917
-0.029895 -0.103058 0.886425
-0.028341 -0.102858 0.884705
-0.026804 -0.102701 0.883347
-0.025279 -0.102572 0.882240
-0.023759 -0.102447 0.881167
-0.022248 -0.102352 0.880347
-0.020745 -0.102279 0.879719
-0.019244 -0.102206 0.879097
-0.017749 -0.102154 0.878645
-0.016258 -0.102120 0.878352
-0.014770 -0.102099 0.878176
-0.013287 -0.102110 0.878267
-0.011805 -0.102133 0.878466
-0.010322 -0.102155 0.878654
-0.008841 -0.102204 0.879077
-0.007358 -0.102245 0.879432
-0.005874 -0.102299 0.879893
-0.004390 -0.102363 0.880442
-0.002903 -0.102427 0.880991
-0.001414 -0.102430 0.881021
0.000076 -0.102438 0.881088
0.001566 -0.102453 0.881218
0.003056 -0.102475 0.881407
0.004547 -0.102501 0.881628
0.006042 -0.102573 0.882250
0.007539 -0.102654 0.882948
0.009039 -0.102729 0.883591
0.010540 -0.102805 0.884247
0.012047 -0.102910 0.885152
0.013558 -0.103016 0.886057
0.015069 -0.103112 0.886883
0.016588 -0.103229 0.887892
0.018108 -0.103336 0.888817
0.019625 -0.103415 0.889490
0.021140 -0.103469 0.889955
0.022659 -0.103538 0.890551
0.024170 -0.103560 0.890743
0.025686 -0.103602 0.891102
0.027214 -0.103684 0.891809
0.028751 -0.103790 0.892720
0.030284 -0.103872 0.893424
0.031837 -0.104011 0.894618
0.033394 -0.104150 0.895811
0.034943 -0.104251 0.896685
0.036500 -0.104370 0.897710
0.038061 -0.104488 0.898720
0.039606 -0.104556 0.899305
0.041136 -0.104580 0.899514
0.042664 -0.104599 0.899672
0.044167 -0.104555 0.899301
0.045667 -0.104511 0.898919
0.047176 -0.104487 0.898711
0.048690 -0.104476 0.898619
0.050191 -0.104437 0.898286
0.051820 -0.104661 0.900207
0.053556 -0.105080 0.903814
0.055493 -0.105860 0.910526
0.057496 -0.106722 0.917934
0.059543 -0.107617 0.925632
0.061469 -0.108252 0.931098
0.063320 -0.108728 0.935189
0.064987 -0.108872 0.936425
0.066696 -0.109079 0.938207
0.068545 -0.111094 0.941811
0.068531 -0.109475 0.941619
0.070572 -0.111784 0.947660
0.070585 -0.110197 0.947825
0.072773 -0.112710 0.955511
0.072768 -0.111084 0.955457
0.074969 -0.111958 0.962976
0.077093 -0.112683 0.969209
0.079043 -0.113129 0.973048
0.080754 -0.113223 0.973849
0.082336 -0.113133 0.973077
0.083922 -0.113054 0.972396
0.085509 -0.112979 0.971750
0.087094 -0.112904 0.971109
0.088677 -0.112829 0.970468
0.090257 -0.112753 0.969811
0.091833 -0.112676 0.969148
0.093438 -0.112636 0.968800
0.095046 -0.112600 0.968494
0.096655 -0.112567 0.968209
0.098270 -0.112542 0.968000
0.099883 -0.112515 0.967765
0.101484 -0.112477 0.967435
0.103096 -0.112451 0.967217
0.104698 -0.112416 0.966913
0.106309 -0.112390 0.966690
0.107938 -0.112386 0.966649
0.109550 -0.112362 0.966448
0.111198 -0.112376 0.966570
0.112869 -0.112413 0.966887
0.114555 -0.112464 0.967324
0.116219 -0.112492 0.967562
0.117905 -0.112539 0.967973
0.119554 -0.112551 0.968076
0.121202 -0.112562 0.968172
0.122878 -0.112598 0.968478
0.124572 -0.112650 0.968921
0.126285 -0.112716 0.969496
0.128039 -0.112818 0.970368
0.129796 -0.112919 0.971236
0.131555 -0.113020 0.972108
0.133303 -0.113109 0.972869
0.135095 -0.113232 0.973928
0.137978 -0.114256 0.982740
-0.151429 -0.114090 0.995829
-0.149732 -0.114079 0.995736
-0.148006 -0.114047 0.995452
-0.146279 -0.114012 0.995152
-0.144605 -0.114019 0.995206
-0.142877 -0.113983 0.994892
-0.141168 -0.113960 0.994697
-0.139439 -0.113922 0.994360
-0.137706 -0.113879 0.993988
-0.135919 -0.113789 0.993207
-0.134164 -0.113726 0.992649
-0.132385 -0.113639 0.991893
-0.130606 -0.113550 0.991112
-0.128824 -0.113456 0.990295
-0.127006 -0.113327 0.989173
-0.125175 -0.113184 0.987926
-0.123360 -0.113051 0.986762
-0.121548 -0.112918 0.985602
-0.119720 -0.112765 0.984268
-0.117945 -0.112660 0.983345
-0.116202 -0.112581 0.982663
-0.114478 -0.112520 0.982123
-0.112794 -0.112496 0.981918
-0.111123 -0.112485 0.981820
-0.109428 -0.112448 0.981499
-0.107730 -0.112408 0.981149
-0.105998 -0.112330 0.980471
-0.104246 -0.112229 0.979585
-0.102506 -0.112137 0.978787
-0.100781 -0.112059 0.978102
-0.099052 -0.111973 0.977355
-0.097367 -0.111936 0.977029
-0.095684 -0.111899 0.976708
-0.093991 -0.111850 0.976277
-0.092307 -0.111809 0.975921
-0.090605 -0.111744 0.975355
-0.088896 -0.111669 0.974698
-0.087181 -0.111583 0.973943
-0.085476 -0.111506 0.973276
-0.083773 -0.111430 0.972610
-0.082092 -0.111380 0.972172
-0.080121 -0.110927 0.968220
-0.077738 -0.111497 0.959011
-0.077788 -0.109942 0.959625
-0.070847 -0.106816 0.932340
-0.068923 -0.106279 0.927652
-0.067347 -0.106268 0.927554
-0.065771 -0.106254 0.927430
-0.064183 -0.106221 0.927144
-0.062584 -0.106167 0.926674
-0.060978 -0.106099 0.926081
-0.059343 -0.105974 0.924993
-0.057680 -0.105792 0.923403
-0.055992 -0.105554 0.921323
-0.054278 -0.105251 0.918678
-0.052556 -0.104914 0.915737
-0.050855 -0.104598 0.912976
-0.049166 -0.104290 0.910288
-0.047486 -0.103980 0.907587
-0.045841 -0.103729 0.905395
-0.044194 -0.103457 0.903020
-0.042542 -0.103155 0.900383
-0.040904 -0.102862 0.897824
-0.039297 -0.102631 0.895806
-0.037697 -0.102397 0.893771
-0.036130 -0.102239 0.892392
-0.034572 -0.102093 0.891115
-0.033015 -0.101937 0.889753
-0.031459 -0.101767 0.888270
-0.029909 -0.101606 0.886863
-0.028355 -0.101410 0.885153
-0.026817 -0.101253 0.883783
-0.025292 -0.101126 0.882678
-0.023768 -0.100994 0.881521
-0.022255 -0.100891 0.880625
-0.020752 -0.100818 0.879984
-0.019250 -0.100747 0.879368
-0.017755 -0.100697 0.878932
-0.016266 -0.100676 0.878747
-0.014780 -0.100675 0.878738
-0.013297 -0.100696 0.878919
-0.011815 -0.100728 0.879201
-0.010332 -0.100760 0.879482
-0.008849 -0.100809 0.879909
-0.007364 -0.100840 0.880180
-0.005879 -0.100882 0.880546
-0.004392 -0.100933 0.880992
-0.002904 -0.100984 0.881434
-0.001414 -0.100987 0.881458
0.000076 -0.100995 0.881528
0.001567 -0.101021 0.881761
0.003058 -0.101044 0.881962
0.004550 -0.101072 0.882203
0.006046 -0.101153 0.882909
0.007546 -0.101242 0.883691
0.009045 -0.101307 0.884255
0.010549 -0.101392 0.885000
0.012057 -0.101495 0.885894
0.013567 -0.101588 0.886706
0.015078 -0.101663 0.887364
0.016596 -0.101775 0.888338
0.018115 -0.101869 0.889162
0.019632 -0.101946 0.889830
0.021150 -0.102009 0.890382
0.022675 -0.102098 0.891158
0.024192 -0.102141 0.891537
0.025715 -0.102206 0.892105
0.027251 -0.102310 0.893011
0.028796 -0.102437 0.894115
0.030338 -0.102540 0.895014
0.031892 -0.102670 0.896147
0.033448 -0.102796 0.897250
0.034994 -0.102882 0.898002
0.036546 -0.102979 0.898848
0.038102 -0.103075 0.899686
0.039649 -0.103143 0.900280
0.041180 -0.103167 0.900491
0.042710 -0.103184 0.900641
0.044217 -0.103149 0.900329
0.045719 -0.103104 0.899942
0.047226 -0.103072 0.899656
0.048737 -0.103051 0.899474
0.050228 -0.102990 0.898948
0.051779 -0.103053 0.899491
0.053416 -0.103278 0.901461
0.055253 -0.103866 0.906588
0.059329 -0.105667 0.922310
0.061345 -0.106459 0.929222
0.063287 -0.107087 0.934701
0.065041 -0.107374 0.937211
0.066690 -0.107478 0.938121
0.068458 -0.107764 0.940617
0.070541 -0.108522 0.947231
0.072709 -0.109375 0.954676
0.074890 -0.110210 0.961963
0.077031 -0.110952 0.968438
0.078998 -0.111416 0.972490
0.080635 -0.111407 0.972413
0.082214 -0.111319 0.971641
0.083801 -0.111245 0.970999
0.085405 -0.111196 0.970572
0.087008 -0.111147 0.970146
0.088608 -0.111097 0.969708
0.090205 -0.111045 0.969252
0.091801 -0.110994 0.968803
0.093416 -0.110967 0.968571
0.095024 -0.110932 0.968269
0.096621 -0.110887 0.967871
0.098213 -0.110837 0.967436
0.099802 -0.110785 0.966983
0.101390 -0.110734 0.966537
0.102991 -0.110699 0.966233
0.104591 -0.110664 0.965925
0.106199 -0.110637 0.965694
0.107838 -0.110644 0.965747
0.109459 -0.110633 0.965652
0.111131 -0.110671 0.965989
0.112840 -0.110746 0.966643
0.114553 -0.110822 0.967309
0.116231 -0.110863 0.967661
0.117917 -0.110910 0.968076
0.119577 -0.110932 0.968268
0.121227 -0.110944 0.968371
0.122918 -0.110992 0.968792
0.124639 -0.111066 0.969439
0.126366 -0.111145 0.970121
0.128122 -0.111245 0.971001
0.129881 -0.111345 0.971874
0.131642 -0.111445 0.972747
0.133379 -0.111523 0.973424
0.135158 -0.111633 0.974386
0.140945 -0.115324 0.991925
0.139240 -0.113620 0.991729
-0.149658 -0.112336 0.995245
-0.147928 -0.112300 0.994925
-0.146227 -0.112286 0.994798
-0.144570 -0.112304 0.994966
-0.142876 -0.112295 0.994886
-0.141201 -0.112301 0.994936
-0.139505 -0.112289 0.994833
-0.137773 -0.112248 0.994468
-0.135996 -0.112170 0.993774
-0.134254 -0.112117 0.993309
-0.132502 -0.112056 0.992767
-0.130751 -0.111994 0.992219
-0.128985 -0.111917 0.991538
-0.127176 -0.111801 0.990503
-0.125329 -0.111647 0.989141
-0.123483 -0.111490 0.987750
-0.121644 -0.111335 0.986377
-0.119800 -0.111171 0.984928
-0.118012 -0.111056 0.983905
-0.116254 -0.110965 0.983103
-0.114516 -0.110892 0.982449
-0.112818 -0.110855 0.982123
-0.111122 -0.110820 0.981813
-0.109403 -0.110759 0.981276
-0.107692 -0.110706 0.980802
-0.105937 -0.110605 0.979906
-0.104174 -0.110492 0.978905
-0.102424 -0.110389 0.977996
-0.100690 -0.110301 0.977213
-0.098951 -0.110204 0.976355
-0.097265 -0.110165 0.976009
-0.095563 -0.110105 0.975477
-0.093864 -0.110045 0.974952
-0.092173 -0.109994 0.974496
-0.090474 -0.109932 0.973949
-0.088770 -0.109860 0.973311
-0.087067 -0.109788 0.972669
-0.085373 -0.109724 0.972109
-0.083681 -0.109660 0.971541
-0.082001 -0.109610 0.971097
-0.080179 -0.109364 0.968917
-0.077995 -0.108604 0.962186
-0.071165 -0.105708 0.936525
-0.069122 -0.105010 0.930338
-0.067447 -0.104850 0.928927
-0.065855 -0.104816 0.928618
-0.064264 -0.104782 0.928322
-0.062664 -0.104730 0.927857
-0.061056 -0.104663 0.927267
-0.059418 -0.104538 0.926163
-0.057752 -0.104357 0.924554
-0.056056 -0.104111 0.922380
-0.054341 -0.103812 0.919731
-0.052612 -0.103471 0.916702
-0.050912 -0.103167 0.914011
-0.049226 -0.102872 0.911396
-0.047543 -0.102565 0.908681
-0.045892 -0.102308 0.906403
-0.044246 -0.102047 0.904093
-0.042589 -0.101739 0.901365
-0.040941 -0.101431 0.898632
-0.039329 -0.101192 0.896519
-0.037719 -0.100942 0.894299
-0.036144 -0.100765 0.892735
-0.034582 -0.100611 0.891366
-0.033025 -0.100457 0.890002
-0.031468 -0.100291 0.888533
-0.029921 -0.100142 0.887217
-0.028369 -0.099959 0.885595
-0.026828 -0.099796 0.884145
-0.025302 -0.099671 0.883037
-0.023778 -0.099539 0.881872
-0.022264 -0.099438 0.880977
-0.020760 -0.099365 0.880332
-0.019261 -0.099314 0.879877
-0.017767 -0.099275 0.879530
-0.016278 -0.099265 0.879445
-0.014793 -0.099275 0.879530
-0.013310 -0.099305 0.879799
-0.011827 -0.099338 0.880087
-0.010343 -0.099371 0.880381
-0.008858 -0.099410 0.880731
-0.007370 -0.099431 0.880914
-0.005882 -0.099451 0.881094
-0.004395 -0.099491 0.881441
-0.002906 -0.099531 0.881796
-0.001415 -0.099534 0.881825
0.000076 -0.099542 0.881899
0.001567 -0.099569 0.882134
0.003059 -0.099591 0.882327
0.004552 -0.099618 0.882568
0.006050 -0.099707 0.883363
0.007550 -0.099798 0.884166
0.009052 -0.099881 0.884897
0.010558 -0.099973 0.885718
0.012067 -0.100074 0.886613
0.013577 -0.100157 0.887348
0.015088 -0.100229 0.887983
0.016604 -0.100319 0.888782
0.018122 -0.100401 0.889508
0.019640 -0.100476 0.890168
0.021158 -0.100539 0.890730
0.022686 -0.100638 0.891610
0.024211 -0.100712 0.892263
0.025742 -0.100800 0.893041
0.027286 -0.100925 0.894153
0.028839 -0.101072 0.895450
0.030389 -0.101192 0.896514
0.031942 -0.101310 0.897558
0.033497 -0.101424 0.898567
0.035041 -0.101496 0.899211
0.036594 -0.101588 0.900027
0.038148 -0.101673 0.900780
0.039701 -0.101751 0.901466
0.041239 -0.101785 0.901766
0.042770 -0.101802 0.901917
0.044275 -0.101757 0.901521
0.045775 -0.101703 0.901045
0.047279 -0.101660 0.900664
0.048782 -0.101620 0.900310
0.050269 -0.101550 0.899688
0.051747 -0.101465 0.898938
0.053296 -0.101520 0.899425
0.055032 -0.101921 0.902971
0.061203 -0.104642 0.927077
0.063232 -0.105411 0.933890
0.065066 -0.105826 0.937574
0.066694 -0.105895 0.938182
0.068418 -0.106108 0.940065
0.070416 -0.106728 0.945565
0.072539 -0.107505 0.952447
0.074695 -0.108297 0.959461
0.076813 -0.109001 0.965696
0.078805 -0.109499 0.970113
0.080509 -0.109587 0.970891
0.082103 -0.109524 0.970333
0.083707 -0.109476 0.969907
0.085327 -0.109450 0.969680
0.086939 -0.109416 0.969375
0.088547 -0.109378 0.969042
0.090163 -0.109351 0.968803
0.091761 -0.109304 0.968379
0.093377 -0.109279 0.968165
0.094974 -0.109234 0.967761
0.096557 -0.109174 0.967229
0.098124 -0.109098 0.966555
0.099698 -0.109032 0.965974
0.101284 -0.108982 0.965531
0.102885 -0.108949 0.965237
0.104485 -0.108916 0.964942
0.106091 -0.108889 0.964711
0.107737 -0.108905 0.964850
0.109371 -0.108907 0.964868
0.111067 -0.108972 0.965438
0.112802 -0.109071 0.966317
0.114539 -0.109170 0.967192
0.116241 -0.109232 0.967746
0.117941 -0.109291 0.968268
0.119616 -0.109326 0.968582
0.121281 -0.109351 0.968800
0.122997 -0.109421 0.969420
0.124721 -0.109496 0.970082
0.126451 -0.109574 0.970773
0.128208 -0.109672 0.971646
0.129978 -0.109780 0.972602
0.131729 -0.109869 0.973390
0.134569 -0.110853 0.982106
-0.149570 -0.110584 0.994659
-0.147839 -0.110547 0.994328
-0.146159 -0.110548 0.994335
-0.144522 -0.110581 0.994636
-0.142865 -0.110600 0.994806
-0.141222 -0.110631 0.995083
-0.139555 -0.110643 0.995193
-0.137836 -0.110613 0.994925
-0.136072 -0.110547 0.994325
-0.134326 -0.110493 0.993848
-0.132574 -0.110433 0.993305
-0.130837 -0.110385 0.992868
-0.129085 -0.110322 0.992301
-0.127289 -0.110220 0.991384
-0.125455 -0.110081 0.990136
-0.123608 -0.109927 0.988750
-0.121768 -0.109775 0.987381
-0.119909 -0.109601 0.985824
-0.118107 -0.109476 0.984693
-0.116334 -0.109374 0.983776
-0.114592 -0.109299 0.983103
-0.112868 -0.109239 0.982564
-0.111158 -0.109190 0.982125
-0.109413 -0.109106 0.981365
-0.107677 -0.109028 0.980666
-0.105900 -0.108906 0.979568
-0.104127 -0.108783 0.978465
-0.102357 -0.108661 0.977362
-0.100612 -0.108561 0.976463
-0.098862 -0.108452 0.975484
-0.097167 -0.108400 0.975016
-0.095456 -0.108329 0.974380
-0.093757 -0.108270 0.973846
-0.092069 -0.108220 0.973401
-0.090382 -0.108171 0.972955
-0.088689 -0.108112 0.972424
-0.086988 -0.108041 0.971788
-0.085296 -0.107979 0.971229
-0.083605 -0.107916 0.970665
-0.081910 -0.107845 0.970025
-0.080202 -0.107754 0.969203
-0.078154 -0.107192 0.964153
-0.071449 -0.104536 0.940263
-0.069309 -0.103712 0.932852
-0.067533 -0.103408 0.930113
-0.065918 -0.103340 0.929504
-0.064313 -0.103286 0.929017
-0.062710 -0.103233 0.928545
-0.061096 -0.103159 0.927875
-0.059457 -0.103037 0.926778
-0.057796 -0.102869 0.925267
-0.056111 -0.102647 0.923268
-0.054400 -0.102364 0.920726
-0.052680 -0.102048 0.917882
-0.050988 -0.101768 0.915362
-0.049302 -0.101484 0.912809
-0.047612 -0.101170 0.909988
-0.045956 -0.100913 0.907676
-0.044304 -0.100646 0.905270
-0.042640 -0.100332 0.902450
-0.040983 -0.100010 0.899556
-0.039361 -0.099755 0.897257
-0.037743 -0.099487 0.894847
-0.036159 -0.099292 0.893093
-0.034592 -0.099129 0.891633
-0.033034 -0.098978 0.890274
-0.031484 -0.098834 0.888974
-0.029937 -0.098689 0.887675
-0.028387 -0.098519 0.886142
-0.026845 -0.098357 0.884687
-0.025317 -0.098233 0.883574
-0.023790 -0.098094 0.882319
-0.022275 -0.097994 0.881421
-0.020770 -0.097922 0.880772
-0.019273 -0.097881 0.880403
-0.017779 -0.097852 0.880144
-0.016291 -0.097853 0.880149
-0.014805 -0.097864 0.880247
-0.013321 -0.097894 0.880518
-0.011835 -0.097917 0.880726
-0.010349 -0.097939 0.880926
-0.008862 -0.097968 0.881189
-0.007374 -0.097987 0.881360
-0.005885 -0.098006 0.881529
-0.004397 -0.098045 0.881875
-0.002907 -0.098085 0.882239
-0.001416 -0.098090 0.882285
0.000076 -0.098098 0.882359
0.001568 -0.098122 0.882572
0.003061 -0.098141 0.882746
0.004555 -0.098176 0.883057
0.006053 -0.098266 0.883868
0.007554 -0.098357 0.884681
0.009057 -0.098439 0.885424
0.010564 -0.098531 0.886246
0.012073 -0.098622 0.887065
0.013584 -0.098704 0.887801
0.015096 -0.098775 0.888441
0.016613 -0.098863 0.889237
0.018131 -0.098944 0.889964
0.019652 -0.099027 0.890710
0.021173 -0.099100 0.891366
0.022707 -0.099218 0.892428
0.024239 -0.099313 0.893285
0.025780 -0.099430 0.894335
0.027329 -0.099565 0.895555
0.028887 -0.099720 0.896940
0.030439 -0.099836 0.897990
0.031991 -0.099942 0.898939
0.033544 -0.100042 0.899842
0.035087 -0.100104 0.900394
0.036639 -0.100184 0.901122
0.038191 -0.100259 0.901791
0.039745 -0.100334 0.902471
0.041281 -0.100360 0.902698
0.042815 -0.100378 0.902858
0.044327 -0.100344 0.902561
0.045833 -0.100302 0.902175
0.047338 -0.100260 0.901797
0.048842 -0.100217 0.901415
0.050335 -0.100155 0.900857
0.051809 -0.100061 0.900013
0.053278 -0.099963 0.899131
0.054999 -0.100329 0.902426
0.057022 -0.102755 0.910362
0.056972 -0.101124 0.909571
0.059105 -0.103709 0.918817
0.059025 -0.102014 0.917577
0.061130 -0.102946 0.925962
0.063232 -0.103828 0.933893
0.065065 -0.104235 0.937558
0.066687 -0.104292 0.938072
0.068360 -0.104426 0.939270
0.070332 -0.105000 0.944432
0.072414 -0.105708 0.950808
0.074533 -0.106438 0.957373
0.076627 -0.107103 0.963354
0.078649 -0.107642 0.968201
0.080358 -0.107738 0.969066
0.081976 -0.107712 0.968832
0.083604 -0.107699 0.968713
0.085241 -0.107698 0.968706
0.086870 -0.107687 0.968607
0.088488 -0.107664 0.968402
0.090105 -0.107640 0.968181
0.091693 -0.107582 0.967663
0.093307 -0.107558 0.967442
0.094893 -0.107501 0.966933
0.096463 -0.107430 0.966291
0.098026 -0.107352 0.965593
0.099595 -0.107284 0.964983
0.101180 -0.107235 0.964539
0.102791 -0.107215 0.964356
0.104414 -0.107207 0.964285
0.106041 -0.107203 0.964252
0.107700 -0.107232 0.964513
0.109356 -0.107257 0.964737
0.111066 -0.107333 0.965425
0.112802 -0.107433 0.966321
0.114540 -0.107530 0.967195
0.116265 -0.107614 0.967946
0.117967 -0.107674 0.968484
0.119658 -0.107723 0.968924
0.121339 -0.107760 0.969263
0.123071 -0.107842 0.970000
0.124809 -0.107927 0.970763
0.126553 -0.108015 0.971552
0.128299 -0.108102 0.972339
0.130056 -0.108196 0.973185
0.132889 -0.109172 0.981966
-0.149490 -0.108840 0.994132
-0.147776 -0.108815 0.993905
-0.146136 -0.108845 0.994178
-0.144506 -0.108883 0.994524
-0.142882 -0.108927 0.994925
-0.141269 -0.108980 0.995414
-0.139617 -0.109004 0.995632
-0.137898 -0.108976 0.995376
-0.136134 -0.108911 0.994783
-0.134374 -0.108847 0.994197
-0.132618 -0.108786 0.993635
-0.130880 -0.108738 0.993197
-0.129130 -0.108677 0.992647
-0.127364 -0.108603 0.991967
-0.125557 -0.108490 0.990938
-0.123725 -0.108353 0.989684
-0.121895 -0.108214 0.988413
-0.120047 -0.108055 0.986960
-0.118230 -0.107919 0.985716
-0.116442 -0.107807 0.984693
-0.114686 -0.107720 0.983905
-0.112935 -0.107636 0.983140
-0.111197 -0.107564 0.982476
-0.109449 -0.107477 0.981688
-0.107700 -0.107389 0.980878
-0.105912 -0.107257 0.979677
-0.104138 -0.107136 0.978570
-0.102356 -0.107003 0.977352
-0.100589 -0.106881 0.976236
-0.098817 -0.106749 0.975036
-0.097101 -0.106675 0.974361
-0.095371 -0.106583 0.973517
-0.093673 -0.106523 0.972969
-0.091985 -0.106473 0.972513
-0.090308 -0.106435 0.972164
-0.088626 -0.106388 0.971740
-0.086937 -0.106331 0.971216
-0.085246 -0.106270 0.970657
-0.083555 -0.106207 0.970082
-0.081852 -0.106125 0.969336
-0.080127 -0.106011 0.968298
-0.078195 -0.105612 0.964650
-0.075918 -0.106343 0.956513
-0.076024 -0.104868 0.957851
-0.073659 -0.105424 0.948247
-0.073817 -0.104039 0.950277
-0.071626 -0.103197 0.942586
-0.069505 -0.102420 0.935495
-0.067640 -0.101992 0.931585
-0.065987 -0.101871 0.930480
-0.064366 -0.101795 0.929785
-0.062755 -0.101732 0.929210
-0.061134 -0.101649 0.928450
-0.059496 -0.101531 0.927373
-0.057840 -0.101377 0.925963
-0.056159 -0.101170 0.924072
-0.054458 -0.100913 0.921725
-0.052749 -0.100623 0.919081
-0.051061 -0.100360 0.916678
-0.049378 -0.100091 0.914217
-0.047685 -0.099781 0.911387
-0.046021 -0.099516 0.908966
-0.044365 -0.099249 0.906531
-0.042699 -0.098938 0.903691
-0.041039 -0.098621 0.900791
-0.039411 -0.098359 0.898403
-0.037786 -0.098083 0.895878
-0.036192 -0.097867 0.893908
-0.034617 -0.097686 0.892258
-0.033055 -0.097529 0.890817
-0.031504 -0.097389 0.889542
-0.029959 -0.097256 0.888330
-0.028411 -0.097097 0.886877
-0.026867 -0.096938 0.885426
-0.025333 -0.096797 0.884134
-0.023804 -0.096657 0.882860
-0.022287 -0.096549 0.881871
-0.020777 -0.096463 0.881078
-0.019280 -0.096423 0.880713
-0.017787 -0.096403 0.880532
-0.016299 -0.096405 0.880548
-0.014812 -0.096416 0.880652
-0.013329 -0.096453 0.880994
-0.011842 -0.096474 0.881180
-0.010355 -0.096502 0.881443
-0.008867 -0.096531 0.881700
-0.007378 -0.096549 0.881869
-0.005889 -0.096568 0.882041
-0.004399 -0.096606 0.882391
-0.002909 -0.096639 0.882688
-0.001416 -0.096644 0.882736
0.000076 -0.096653 0.882813
0.001569 -0.096666 0.882935
0.003062 -0.096683 0.883094
0.004556 -0.096716 0.883392
0.006055 -0.096806 0.884214
0.007557 -0.096896 0.885033
0.009062 -0.096987 0.885866
0.010569 -0.097077 0.886691
0.012079 -0.097167 0.887516
0.013591 -0.097248 0.888250
0.015104 -0.097319 0.888899
0.016622 -0.097408 0.889710
0.018143 -0.097498 0.890533
0.019667 -0.097590 0.891375
0.021192 -0.097673 0.892137
0.022729 -0.097801 0.893299
0.024265 -0.097903 0.894239
0.025810 -0.098028 0.895377
0.027361 -0.098163 0.896608
0.028921 -0.098314 0.897989
0.030475 -0.098429 0.899036
0.032028 -0.098530 0.899962
0.033579 -0.098620 0.900783
0.035124 -0.098681 0.901339
0.036678 -0.098762 0.902078
0.038231 -0.098835 0.902753
0.039788 -0.098910 0.903434
0.041325 -0.098935 0.903661
0.042861 -0.098953 0.903828
0.044374 -0.098921 0.903537
0.045882 -0.098879 0.903148
0.047389 -0.098838 0.902776
0.048891 -0.098787 0.902312
0.050384 -0.098725 0.901746
0.051854 -0.098622 0.900804
0.053320 -0.098517 0.899843
0.055026 -0.098847 0.902861
0.056987 -0.099607 0.909803
0.059021 -0.100451 0.917511
0.061116 -0.101353 0.925749
0.063205 -0.102201 0.933497
0.065039 -0.102604 0.937173
0.066661 -0.102662 0.937703
0.068299 -0.102742 0.938430
0.070235 -0.103256 0.943127
0.072284 -0.103910 0.949103
0.074363 -0.104577 0.955196
0.076451 -0.105228 0.961142
0.078503 -0.105803 0.966397
0.080230 -0.105927 0.967529
0.081866 -0.105928 0.967532
0.083509 -0.105937 0.967619
0.085147 -0.105939 0.967634
0.086784 -0.105941 0.967654
0.088412 -0.105931 0.967566
0.090028 -0.105908 0.967350
0.091612 -0.105849 0.966811
0.093231 -0.105832 0.966656
0.094805 -0.105764 0.966034
0.096366 -0.105685 0.965317
0.097938 -0.105620 0.964726
0.099517 -0.105565 0.964222
0.101102 -0.105519 0.963797
0.102724 -0.105511 0.963727
0.104359 -0.105516 0.963774
0.105997 -0.105525 0.963858
0.107669 -0.105567 0.964235
0.109348 -0.105614 0.964670
0.111071 -0.105702 0.965471
0.112820 -0.105811 0.966470
0.114567 -0.105916 0.967427
0.116304 -0.106008 0.968269
0.118008 -0.106069 0.968821
0.119716 -0.106131 0.969389
0.121410 -0.106180 0.969835
0.123143 -0.106260 0.970571
0.124895 -0.106355 0.971436
0.126657 -0.106455 0.972349
0.128634 -0.106732 0.974876
0.130644 -0.107028 0.977586
-0.149435 -0.107115 0.993761
-0.147753 -0.107114 0.993751
-0.146138 -0.107161 0.994194
-0.144522 -0.107209 0.994636
-0.142914 -0.107264 0.995146
-0.141299 -0.107315 0.995624
-0.139647 -0.107339 0.995845
-0.137932 -0.107315 0.995615
-0.136172 -0.107254 0.995054
-0.134410 -0.107191 0.994468
-0.132650 -0.107127 0.993874
-0.130909 -0.107078 0.993417
-0.129160 -0.107020 0.992879
-0.127412 -0.106961 0.992335
-0.125633 -0.106876 0.991542
-0.123828 -0.106764 0.990506
-0.121999 -0.106629 0.989256
-0.120161 -0.106483 0.987897
-0.118354 -0.106359 0.986749
-0.116552 -0.106237 0.985617
-0.114781 -0.106140 0.984721
-0.113015 -0.106046 0.983843
-0.111252 -0.105950 0.982958
-0.109477 -0.105841 0.981947
-0.107717 -0.105742 0.981030
-0.105927 -0.105611 0.979814
-0.104153 -0.105492 0.978709
-0.102359 -0.105349 0.977378
-0.100579 -0.105215 0.976140
-0.098794 -0.105072 0.974810
-0.097047 -0.104965 0.973821
-0.095307 -0.104862 0.972861
-0.093609 -0.104802 0.972308
-0.091922 -0.104753 0.971848
-0.090239 -0.104706 0.971418
-0.088559 -0.104661 0.970999
-0.086870 -0.104604 0.970471
-0.085180 -0.104544 0.969913
-0.083483 -0.104472 0.969246
-0.081772 -0.104380 0.968393
-0.080038 -0.104254 0.967221
-0.078208 -0.103995 0.964814
-0.076094 -0.103339 0.958733
-0.073942 -0.102602 0.951895
-0.071796 -0.101841 0.944831
-0.069701 -0.101118 0.938129
-0.067750 -0.100576 0.933100
-0.066065 -0.100413 0.931583
-0.064414 -0.100294 0.930480
-0.062788 -0.100209 0.929697
-0.061165 -0.100126 0.928922
-0.059532 -0.100020 0.927944
-0.057882 -0.099881 0.926645
-0.056218 -0.099707 0.925037
-0.054532 -0.099485 0.922977
-0.052833 -0.099223 0.920547
-0.051154 -0.098987 0.918355
-0.049480 -0.098744 0.916098
-0.047792 -0.098457 0.913438
-0.046125 -0.098196 0.911015
-0.044465 -0.097931 0.908562
-0.042794 -0.097624 0.905710
-0.041130 -0.097308 0.902781
-0.039490 -0.097030 0.900201
-0.037853 -0.096736 0.897471
-0.036245 -0.096492 0.895212
-0.034659 -0.096293 0.893357
-0.033088 -0.096116 0.891723
-0.031533 -0.095970 0.890368
-0.029987 -0.095841 0.889169
-0.028440 -0.095694 0.887803
-0.026893 -0.095528 0.886263
-0.025354 -0.095377 0.884867
-0.023822 -0.095230 0.883501
-0.022300 -0.095112 0.882407
-0.020788 -0.095018 0.881530
-0.019290 -0.094978 0.881165
-0.017797 -0.094960 0.880995
-0.016307 -0.094961 0.881005
-0.014821 -0.094980 0.881183
-0.013335 -0.095009 0.881446
-0.011847 -0.095027 0.881617
-0.010360 -0.095055 0.881873
-0.008872 -0.095082 0.882130
-0.007381 -0.095094 0.882237
-0.005892 -0.095122 0.882501
-0.004402 -0.095160 0.882854
-0.002910 -0.095192 0.883149
-0.001417 -0.095196 0.883184
0.000076 -0.095204 0.883261
0.001569 -0.095218 0.883385
0.003063 -0.095237 0.883562
0.004559 -0.095269 0.883866
0.006058 -0.095357 0.884678
0.007562 -0.095454 0.885581
0.009068 -0.095553 0.886495
0.010577 -0.095642 0.887324
0.012089 -0.095740 0.888228
0.013603 -0.095828 0.889046
0.015119 -0.095907 0.889783
0.016639 -0.095997 0.890615
0.018163 -0.096096 0.891537
0.019691 -0.096198 0.892481
0.021220 -0.096289 0.893329
0.022758 -0.096408 0.894431
0.024298 -0.096518 0.895449
0.025844 -0.096639 0.896577
0.027392 -0.096752 0.897623
0.028951 -0.096892 0.898922
0.030503 -0.096995 0.899873
0.032055 -0.097087 0.900727
0.033609 -0.097177 0.901562
0.035158 -0.097247 0.902214
0.036714 -0.097328 0.902970
0.038273 -0.097410 0.903724
0.039830 -0.097484 0.904408
0.041373 -0.097516 0.904710
0.042911 -0.097534 0.904877
0.044426 -0.097502 0.904580
0.045936 -0.097461 0.904198
0.047445 -0.097421 0.903827
0.048939 -0.097354 0.903204
0.050434 -0.097293 0.902637
0.051910 -0.097199 0.901771
0.053383 -0.097105 0.900899
0.055068 -0.097392 0.903555
0.057011 -0.098107 0.910187
0.059023 -0.098900 0.917546
0.061079 -0.099724 0.925193
0.063138 -0.100512 0.932502
0.064978 -0.100921 0.936299
0.066612 -0.100999 0.937019
0.068270 -0.101108 0.938032
0.070198 -0.101604 0.942638
0.072223 -0.102215 0.948301
0.074287 -0.102852 0.954218
0.076353 -0.103466 0.959914
0.078377 -0.103999 0.964852
0.080096 -0.104112 0.965905
0.081755 -0.104146 0.966216
0.083398 -0.104158 0.966328
0.085034 -0.104161 0.966356
0.086688 -0.104185 0.966585
0.088324 -0.104187 0.966599
0.089929 -0.104153 0.966285
0.091526 -0.104112 0.965904
0.093151 -0.104103 0.965821
0.094734 -0.104048 0.965313
0.096307 -0.103985 0.964725
0.097891 -0.103935 0.964265
0.099473 -0.103885 0.963795
0.101058 -0.103839 0.963373
0.102670 -0.103823 0.963219
0.104314 -0.103838 0.963363
0.105987 -0.103882 0.963767
0.107684 -0.103947 0.964370
0.109389 -0.104018 0.965032
0.111123 -0.104114 0.965924
0.112871 -0.104220 0.966906
0.114606 -0.104312 0.967755
0.116344 -0.104403 0.968601
0.118050 -0.104464 0.969167
0.119783 -0.104546 0.969932
0.121503 -0.104616 0.970575
0.123471 -0.104893 0.973151
0.125482 -0.105200 0.975999
0.127517 -0.105518 0.978952
0.129761 -0.106000 0.983416
-0.149383 -0.105394 0.993419
-0.147741 -0.105421 0.993672
-0.146139 -0.105476 0.994196
-0.144535 -0.105533 0.994728
-0.142932 -0.105591 0.995275
-0.141314 -0.105639 0.995733
-0.139662 -0.105663 0.995954
-0.137963 -0.105651 0.995845
-0.136205 -0.105594 0.995302
-0.134444 -0.105531 0.994715
-0.132680 -0.105467 0.994104
-0.130937 -0.105416 0.993627
-0.129188 -0.105359 0.993095
-0.127467 -0.105325 0.992770
-0.125705 -0.105255 0.992107
-0.123926 -0.105169 0.991296
-0.122110 -0.105047 0.990152
-0.120284 -0.104915 0.988909
-0.118475 -0.104794 0.987762
-0.116684 -0.104685 0.986736
-0.114898 -0.104578 0.985725
-0.113106 -0.104461 0.984630
-0.111327 -0.104354 0.983619
-0.109527 -0.104224 0.982391
-0.107743 -0.104105 0.981267
-0.105953 -0.103976 0.980057
-0.104178 -0.103858 0.978944
-0.102364 -0.103697 0.977423
-0.100581 -0.103563 0.976158
-0.098793 -0.103418 0.974800
-0.097025 -0.103290 0.973591
-0.095273 -0.103176 0.972516
-0.093575 -0.103116 0.971952
-0.091871 -0.103048 0.971312
-0.090181 -0.102993 0.970788
-0.088501 -0.102948 0.970366
-0.086813 -0.102892 0.969835
-0.085125 -0.102833 0.969285
-0.083429 -0.102763 0.968619
-0.081718 -0.102671 0.967751
-0.079976 -0.102535 0.966472
-0.078234 -0.102394 0.965139
-0.076217 -0.101877 0.960274
-0.074125 -0.101238 0.954243
-0.072020 -0.100551 0.947773
-0.069951 -0.099885 0.941493
-0.067931 -0.099259 0.935590
-0.066172 -0.098994 0.933094
-0.064490 -0.098834 0.931583
-0.062841 -0.098716 0.930480
-0.061203 -0.098613 0.929504
-0.059564 -0.098500 0.928436
-0.057919 -0.098372 0.927232
-0.056261 -0.098214 0.925741
-0.054585 -0.098015 0.923870
-0.052905 -0.097797 0.921810
-0.051241 -0.097596 0.919915
-0.049580 -0.097388 0.917954
-0.047909 -0.097145 0.915669
-0.046248 -0.096908 0.913437
-0.044584 -0.096649 0.910989
-0.042916 -0.096362 0.908283
-0.041250 -0.096059 0.905428
-0.039602 -0.095775 0.902757
-0.037967 -0.095502 0.900178
-0.036353 -0.095259 0.897886
-0.034752 -0.095031 0.895738
-0.033166 -0.094826 0.893812
-0.031596 -0.094650 0.892155
-0.030035 -0.094486 0.890603
-0.028478 -0.094314 0.888980
-0.026923 -0.094133 0.887277
-0.025378 -0.093966 0.885703
-0.023841 -0.093808 0.884216
-0.022314 -0.093673 0.882938
-0.020798 -0.093570 0.881968
-0.019299 -0.093530 0.881594
-0.017805 -0.093511 0.881412
-0.016317 -0.093521 0.881508
-0.014830 -0.093541 0.881698
-0.013343 -0.093569 0.881964
-0.011856 -0.093597 0.882222
-0.010368 -0.093633 0.882567
-0.008879 -0.093663 0.882848
-0.007388 -0.093685 0.883058
-0.005898 -0.093723 0.883411
-0.004406 -0.093751 0.883675
-0.002912 -0.093771 0.883862
-0.001418 -0.093773 0.883880
0.000076 -0.093781 0.883957
0.001571 -0.093797 0.884110
0.003066 -0.093826 0.884381
0.004563 -0.093868 0.884775
0.006065 -0.093954 0.885592
0.007570 -0.094059 0.886576
0.009080 -0.094173 0.887658
0.010592 -0.094273 0.888594
0.012108 -0.094378 0.889589
0.013625 -0.094474 0.890488
0.015143 -0.094552 0.891228
0.016664 -0.094632 0.891979
0.018191 -0.094730 0.892905
0.019721 -0.094830 0.893850
0.021251 -0.094913 0.894631
0.022789 -0.095020 0.895635
0.024328 -0.095117 0.896555
0.025871 -0.095218 0.897505
0.027417 -0.095318 0.898449
0.028975 -0.095446 0.899654
0.030528 -0.095547 0.900601
0.032081 -0.095639 0.901469
0.033640 -0.095737 0.902398
0.035195 -0.095817 0.903153
0.036756 -0.095908 0.904002
0.038317 -0.095989 0.904772
0.039876 -0.096061 0.905452
0.041421 -0.096093 0.905749
0.042952 -0.096092 0.905743
0.044463 -0.096050 0.905342
0.045978 -0.096016 0.905028
0.047488 -0.095977 0.904660
0.048985 -0.095912 0.904048
0.050495 -0.095879 0.903735
0.051993 -0.095824 0.903217
0.053491 -0.095771 0.902714
0.055248 -0.096173 0.906502
0.057174 -0.096839 0.912784
0.059154 -0.097560 0.919578
0.061168 -0.098298 0.926535
0.063178 -0.098994 0.933091
0.064927 -0.099256 0.935562
0.066574 -0.099353 0.936480
0.068244 -0.099480 0.937675
0.070156 -0.099946 0.942069
0.072160 -0.100520 0.947476
0.074205 -0.101123 0.953160
0.076258 -0.101712 0.958717
0.078261 -0.102212 0.963425
0.079989 -0.102338 0.964615
0.081654 -0.102382 0.965029
0.083304 -0.102404 0.965237
0.084929 -0.102396 0.965161
0.086579 -0.102418 0.965370
0.088212 -0.102419 0.965378
0.089815 -0.102386 0.965066
0.091414 -0.102349 0.964720
0.093057 -0.102362 0.964844
0.094650 -0.102321 0.964459
0.096244 -0.102282 0.964092
0.097850 -0.102257 0.963855
0.099452 -0.102229 0.963590
0.101037 -0.102185 0.963173
0.102657 -0.102177 0.963096
0.104309 -0.102200 0.963314
0.106005 -0.102266 0.963933
0.107718 -0.102345 0.964679
0.109451 -0.102440 0.965575
0.111197 -0.102545 0.966563
0.112944 -0.102647 0.967531
0.114668 -0.102726 0.968277
0.116406 -0.102816 0.969124
0.118115 -0.102878 0.969703
0.119837 -0.102948 0.970367
0.121747 -0.103177 0.972525
0.123983 -0.103672 0.977190
0.126277 -0.104202 0.982185
0.128603 -0.104744 0.987295
-0.147788 -0.103769 0.993987
-0.146189 -0.103827 0.994541
-0.144579 -0.103878 0.995029
-0.142962 -0.103926 0.995486
-0.141330 -0.103963 0.995845
-0.139676 -0.103985 0.996055
-0.137992 -0.103985 0.996055
-0.136236 -0.103929 0.995523
-0.134474 -0.103868 0.994936
-0.132708 -0.103803 0.994314
-0.130950 -0.103742 0.993728
-0.129201 -0.103687 0.993196
-0.127495 -0.103664 0.992984
-0.125746 -0.103607 0.992432
-0.123981 -0.103533 0.991729
-0.122190 -0.103437 0.990804
-0.120378 -0.103320 0.989681
-0.118582 -0.103212 0.988654
-0.116803 -0.103117 0.987744
-0.115016 -0.103012 0.986735
-0.113207 -0.102884 0.985510
-0.111412 -0.102765 0.984369
-0.109596 -0.102624 0.983014
-0.107788 -0.102484 0.981681
-0.105997 -0.102357 0.980459
-0.104211 -0.102232 0.979259
-0.102386 -0.102063 0.977641
-0.100593 -0.101920 0.976274
-0.098804 -0.101777 0.974905
-0.097014 -0.101629 0.973487
-0.095262 -0.101516 0.972400
-0.093554 -0.101446 0.971734
-0.091841 -0.101368 0.970989
-0.090140 -0.101302 0.970356
-0.088460 -0.101256 0.969914
-0.086771 -0.101199 0.969367
-0.085093 -0.101153 0.968924
-0.083400 -0.101086 0.968285
-0.081691 -0.100996 0.967425
-0.079948 -0.100861 0.966131
-0.078190 -0.100701 0.964597
-0.076245 -0.100286 0.960626
-0.074220 -0.099748 0.955466
-0.072167 -0.099146 0.949704
-0.070134 -0.098545 0.943948
-0.068139 -0.097972 0.938456
-0.066323 -0.097634 0.935215
-0.064595 -0.097412 0.933094
-0.062915 -0.097254 0.931583
-0.061256 -0.097120 0.930297
-0.059608 -0.096997 0.929121
-0.057968 -0.096882 0.928018
-0.056320 -0.096746 0.926714
-0.054654 -0.096571 0.925040
-0.052988 -0.096386 0.923261
-0.051333 -0.096208 0.921556
-0.049675 -0.096014 0.919706
-0.048015 -0.095806 0.917705
-0.046365 -0.095603 0.915762
-0.044708 -0.095369 0.913524
-0.043044 -0.095106 0.911002
-0.041381 -0.094825 0.908307
-0.039728 -0.094545 0.905632
-0.038093 -0.094286 0.903148
-0.036477 -0.094057 0.900953
-0.034867 -0.093822 0.898700
-0.033270 -0.093605 0.896630
-0.031688 -0.093408 0.894739
-0.030112 -0.093212 0.892866
-0.028541 -0.093014 0.890961
-0.026982 -0.092832 0.889221
-0.025434 -0.092667 0.887638
-0.023886 -0.092485 0.885899
-0.022347 -0.092315 0.884269
-0.020824 -0.092190 0.883073
-0.019316 -0.092115 0.882350
-0.017814 -0.092062 0.881849
-0.016325 -0.092072 0.881946
-0.014838 -0.092101 0.882219
-0.013351 -0.092130 0.882498
-0.011866 -0.092186 0.883030
-0.010380 -0.092242 0.883568
-0.008892 -0.092300 0.884126
-0.007401 -0.092348 0.884587
-0.005909 -0.092402 0.885102
-0.004414 -0.092421 0.885281
-0.002917 -0.092430 0.885369
-0.001421 -0.092430 0.885369
0.000076 -0.092437 0.885440
0.001574 -0.092464 0.885698
0.003072 -0.092504 0.886079
0.004573 -0.092563 0.886649
0.006078 -0.092648 0.887461
0.007587 -0.092761 0.888538
0.009100 -0.092869 0.889573
0.010615 -0.092969 0.890536
0.012134 -0.093075 0.891550
0.013654 -0.093160 0.892363
0.015172 -0.093219 0.892929
0.016694 -0.093287 0.893580
0.018220 -0.093366 0.894334
0.019748 -0.093444 0.895087
0.021280 -0.093523 0.895839
0.022817 -0.093618 0.896753
0.024354 -0.093697 0.897504
0.025897 -0.093793 0.898425
0.027442 -0.093882 0.899279
0.028998 -0.093997 0.900381
0.030552 -0.094096 0.901329
0.032110 -0.094196 0.902285
0.033671 -0.094294 0.903227
0.035231 -0.094384 0.904083
0.036790 -0.094463 0.904848
0.038349 -0.094535 0.905531
0.039906 -0.094596 0.906117
0.041447 -0.094618 0.906330
0.042979 -0.094616 0.906313
0.044496 -0.094584 0.906001
0.046015 -0.094559 0.905766
0.047531 -0.094529 0.905479
0.049043 -0.094491 0.905118
0.050566 -0.094479 0.904999
0.052089 -0.094466 0.904870
0.053623 -0.094474 0.904947
0.055426 -0.094942 0.909437
0.057313 -0.095525 0.915016
0.059253 -0.096162 0.921122
0.061214 -0.096801 0.927239
0.063161 -0.097387 0.932849
0.064849 -0.097553 0.934442
0.066515 -0.097679 0.935654
0.068186 -0.097807 0.936877
0.070151 -0.098342 0.941996
0.072158 -0.098911 0.947447
0.074198 -0.099498 0.953076
0.076241 -0.100064 0.958495
0.078237 -0.100547 0.963123
0.079901 -0.100593 0.963560
0.081563 -0.100634 0.963952
0.083210 -0.100654 0.964150
0.084832 -0.100645 0.964062
0.086479 -0.100664 0.964247
0.088109 -0.100664 0.964248
0.089712 -0.100634 0.963960
0.091321 -0.100611 0.963738
0.092977 -0.100640 0.964013
0.094582 -0.100614 0.963768
0.096195 -0.100597 0.963602
0.097821 -0.100594 0.963570
0.099432 -0.100576 0.963398
0.101027 -0.100542 0.963074
0.102665 -0.100552 0.963173
0.104327 -0.100585 0.963486
0.106037 -0.100662 0.964222
0.107765 -0.100753 0.965094
0.109501 -0.100850 0.966021
0.111248 -0.100953 0.967010
0.112994 -0.101052 0.967964
0.114719 -0.101130 0.968708
0.116447 -0.101209 0.969463
0.118156 -0.101269 0.970035
0.119864 -0.101326 0.970588
0.121979 -0.101722 0.974376
0.124435 -0.102387 0.980751
0.126999 -0.103123 0.987794
0.129625 -0.103889 0.995135
0.131140 -0.105442 0.993871
0.132428 -0.104776 1.003630
0.133460 -0.105950 0.998660
0.134749 -0.105263 1.008300
-0.146252 -0.102185 0.994969
-0.144627 -0.102226 0.995363
-0.142994 -0.102261 0.995707
-0.141346 -0.102286 0.995954
-0.139676 -0.102297 0.996055
-0.137992 -0.102297 0.996055
-0.136236 -0.102242 0.995523
-0.134474 -0.102182 0.994936
-0.132708 -0.102118 0.994314
-0.130950 -0.102058 0.993728
-0.129201 -0.102003 0.993196
-0.127508 -0.101992 0.993087
-0.125761 -0.101936 0.992546
-0.124009 -0.101876 0.991957
-0.122231 -0.101791 0.991137
-0.120445 -0.101698 0.990228
-0.118665 -0.101607 0.989345
-0.116911 -0.101536 0.988654
-0.115123 -0.101434 0.987655
-0.113311 -0.101307 0.986421
-0.111488 -0.101166 0.985045
-0.109657 -0.101013 0.983554
-0.107834 -0.100864 0.982102
-0.106042 -0.100738 0.980878
-0.104245 -0.100604 0.979579
-0.102419 -0.100438 0.977953
-0.100614 -0.100286 0.976478
-0.098815 -0.100136 0.975014
-0.097006 -0.099971 0.973408
-0.095255 -0.099860 0.972326
-0.093535 -0.099779 0.971541
-0.091811 -0.099690 0.970674
-0.090099 -0.099612 0.969914
-0.088417 -0.099564 0.969444
-0.086730 -0.099508 0.968907
-0.085055 -0.099465 0.968486
-0.083364 -0.099401 0.967861
-0.081664 -0.099323 0.967104
-0.079930 -0.099201 0.965914
-0.078167 -0.099036 0.964309
-0.076292 -0.098720 0.961225
-0.074334 -0.098279 0.956939
-0.072336 -0.097765 0.951931
-0.070328 -0.097214 0.946569
-0.068358 -0.096691 0.941473
-0.066497 -0.096300 0.937671
-0.064728 -0.096029 0.935025
-0.063011 -0.095821 0.933003
-0.061335 -0.095666 0.931495
-0.059676 -0.095532 0.930193
-0.058030 -0.095411 0.929008
-0.056386 -0.095288 0.927809
-0.054731 -0.095136 0.926333
-0.053068 -0.094963 0.924645
-0.051410 -0.094788 0.922947
-0.049759 -0.094616 0.921273
-0.048107 -0.094429 0.919452
-0.046465 -0.094252 0.917722
-0.044814 -0.094043 0.915692
-0.043156 -0.093804 0.913365
-0.041501 -0.093555 0.910937
-0.039852 -0.093298 0.908440
-0.038220 -0.093064 0.906155
-0.036607 -0.092859 0.904164
-0.034999 -0.092648 0.902112
-0.033396 -0.092433 0.900019
-0.031802 -0.092223 0.897973
-0.030219 -0.092024 0.896031
-0.028644 -0.091831 0.894152
-0.027082 -0.091660 0.892491
-0.025530 -0.091508 0.891002
-0.023981 -0.091344 0.889412
-0.022437 -0.091182 0.887831
-0.020906 -0.091047 0.886517
-0.019390 -0.090968 0.885753
-0.017882 -0.090915 0.885229
-0.016387 -0.090925 0.885333
-0.014894 -0.090946 0.885535
-0.013401 -0.090975 0.885818
-0.011909 -0.091014 0.886195
-0.010415 -0.091054 0.886584
-0.008922 -0.091104 0.887074
-0.007426 -0.091153 0.887547
-0.005928 -0.091199 0.887997
-0.004428 -0.091209 0.888093
-0.002926 -0.091208 0.888087
-0.001425 -0.091189 0.887904
0.000076 -0.091171 0.887722
0.001577 -0.091189 0.887899
0.003080 -0.091228 0.888284
0.004584 -0.091280 0.888786
0.006092 -0.091356 0.889523
0.007605 -0.091475 0.890682
0.009121 -0.091574 0.891648
0.010639 -0.091666 0.892550
0.012163 -0.091780 0.893658
0.013685 -0.091855 0.894382
0.015205 -0.091902 0.894840
0.016728 -0.091957 0.895382
0.018254 -0.092022 0.896013
0.019780 -0.092072 0.896502
0.021311 -0.092138 0.897144
0.022843 -0.092204 0.897782
0.024379 -0.092271 0.898432
0.025920 -0.092348 0.899190
0.027465 -0.092435 0.900034
0.029020 -0.092539 0.901051
0.030578 -0.092646 0.902090
0.032137 -0.092744 0.903045
0.033699 -0.092842 0.903997
0.035261 -0.092929 0.904845
0.036821 -0.093007 0.905601
0.038381 -0.093076 0.906277
0.039938 -0.093135 0.906848
0.041481 -0.093156 0.907057
0.043009 -0.093146 0.906957
0.044527 -0.093114 0.906649
0.046048 -0.093091 0.906419
0.047566 -0.093063 0.906148
0.049090 -0.093047 0.905989
0.050631 -0.093064 0.906155
0.052184 -0.093101 0.906521
0.053752 -0.093163 0.907127
0.055518 -0.093555 0.910939
0.057361 -0.094052 0.915776
0.059246 -0.094590 0.921019
0.061153 -0.095134 0.926314
0.063053 -0.095640 0.931243
0.064767 -0.095847 0.933259
0.066446 -0.095994 0.934689
0.068154 -0.096174 0.936440
0.070112 -0.096691 0.941472
0.072117 -0.097249 0.946909
0.074153 -0.097823 0.952499
0.076193 -0.098378 0.957902
0.078160 -0.098817 0.962179
0.079830 -0.098871 0.962703
0.081491 -0.098912 0.963101
0.083136 -0.098932 0.963295
0.084756 -0.098921 0.963191
0.086392 -0.098931 0.963281
0.088028 -0.098939 0.963360
0.089640 -0.098921 0.963184
0.091269 -0.098922 0.963192
0.092946 -0.098973 0.963692
0.094580 -0.098978 0.963741
0.096204 -0.098973 0.963693
0.097829 -0.098969 0.963657
0.099442 -0.098953 0.963494
0.101037 -0.098920 0.963173
0.102667 -0.098921 0.963191
0.104342 -0.098965 0.963617
0.106064 -0.099052 0.964463
0.107805 -0.099154 0.965455
0.109541 -0.099248 0.966369
0.111298 -0.099358 0.967443
0.113045 -0.099456 0.968395
0.114782 -0.099543 0.969245
0.116526 -0.099633 0.970116
0.118258 -0.099711 0.970876
0.120128 -0.099901 0.972727
0.122455 -0.100461 0.978180
0.125117 -0.101277 0.986125
0.127909 -0.102175 0.994875
0.130722 -0.103067 1.003560
0.133561 -0.103956 1.012220
0.135882 -0.104425 1.016780
0.138773 -0.107053 1.025440
0.138753 -0.105300 1.025300
-0.144683 -0.100577 0.995749
-0.143026 -0.100596 0.995932
-0.141360 -0.100608 0.996055
-0.139676 -0.100608 0.996055
-0.137992 -0.100608 0.996055
-0.136236 -0.100554 0.995523
-0.134474 -0.100495 0.994936
-0.132708 -0.100432 0.994314
-0.130950 -0.100373 0.993728
-0.129188 -0.100309 0.993095
-0.127495 -0.100298 0.992987
-0.125748 -0.100244 0.992447
-0.123997 -0.100185 0.991864
-0.122233 -0.100113 0.991156
-0.120474 -0.100044 0.990466
-0.118720 -0.099977 0.989807
-0.116995 -0.099932 0.989363
-0.115220 -0.099844 0.988486
-0.113417 -0.099728 0.987343
-0.111590 -0.099587 0.985948
-0.109735 -0.099416 0.984256
-0.107897 -0.099257 0.982674
-0.106092 -0.099122 0.981342
-0.104271 -0.098968 0.979819
-0.102433 -0.098793 0.978082
-0.100625 -0.098641 0.976584
-0.098825 -0.098493 0.975118
-0.097018 -0.098332 0.973523
-0.095267 -0.098224 0.972448
-0.093545 -0.098143 0.971646
-0.091809 -0.098043 0.970657
-0.090077 -0.097943 0.969673
-0.088386 -0.097886 0.969106
-0.086700 -0.097832 0.968571
-0.085018 -0.097781 0.968069
-0.083329 -0.097719 0.967451
-0.081637 -0.097652 0.966792
-0.079913 -0.097543 0.965705
-0.078152 -0.097382 0.964117
-0.076333 -0.097141 0.961734
-0.074432 -0.096783 0.958191
-0.072481 -0.096345 0.953845
-0.070512 -0.095860 0.949045
-0.068564 -0.095382 0.944315
-0.066680 -0.094972 0.940253
-0.064884 -0.094671 0.937272
-0.063135 -0.094425 0.934835
-0.061434 -0.094239 0.933003
-0.059760 -0.094087 0.931495
-0.058099 -0.093948 0.930115
-0.056454 -0.093828 0.928930
-0.054803 -0.093689 0.927557
-0.053144 -0.093529 0.925968
-0.051483 -0.093357 0.924263
-0.049834 -0.093194 0.922650
-0.048187 -0.093027 0.920996
-0.046552 -0.092870 0.919449
-0.044909 -0.092687 0.917634
-0.043261 -0.092481 0.915590
-0.041611 -0.092254 0.913342
-0.039965 -0.092019 0.911016
-0.038340 -0.091816 0.909006
-0.036731 -0.091636 0.907225
-0.035126 -0.091449 0.905376
-0.033525 -0.091258 0.903484
-0.031922 -0.091044 0.901363
-0.030330 -0.090838 0.899324
-0.028751 -0.090654 0.897509
-0.027186 -0.090497 0.895948
-0.025635 -0.090366 0.894655
-0.024087 -0.090235 0.893361
-0.022542 -0.090093 0.891950
-0.021004 -0.089964 0.890678
-0.019482 -0.089893 0.889971
-0.017966 -0.089832 0.889367
-0.016462 -0.089834 0.889384
-0.014961 -0.089843 0.889482
-0.013458 -0.089853 0.889579
-0.011957 -0.089872 0.889759
-0.010455 -0.089892 0.889963
-0.008954 -0.089923 0.890273
-0.007451 -0.089954 0.890571
-0.005948 -0.089991 0.890946
-0.004442 -0.089994 0.890968
-0.002936 -0.089993 0.890958
-0.001429 -0.089964 0.890672
0.000077 -0.089933 0.890373
0.001582 -0.089941 0.890450
0.003088 -0.089962 0.890658
0.004596 -0.090004 0.891070
0.006107 -0.090078 0.891801
0.007624 -0.090186 0.892875
0.009142 -0.090274 0.893748
0.010664 -0.090363 0.894629
0.012190 -0.090465 0.895632
0.013714 -0.090529 0.896266
0.015237 -0.090574 0.896713
0.016761 -0.090619 0.897161
0.018287 -0.090664 0.897609
0.019810 -0.090693 0.897893
