1690
-0.083548 -0.137263 0.838362
-0.082267 -0.137490 0.839750
-0.081030 -0.137800 0.841647
-0.079928 -0.138357 0.845044
-0.078876 -0.139020 0.849096
-0.077825 -0.139710 0.853310
-0.076728 -0.140341 0.857166
-0.075590 -0.140923 0.860718
-0.074319 -0.141273 0.862857
-0.072998 -0.141539 0.864481
-0.071671 -0.141806 0.866110
-0.070341 -0.142077 0.867768
-0.068991 -0.142318 0.869236
-0.067626 -0.142538 0.870584
-0.066241 -0.142725 0.871727
-0.064844 -0.142894 0.872758
-0.063440 -0.143054 0.873733
-0.062051 -0.143258 0.874983
-0.060637 -0.143412 0.875922
-0.059221 -0.143571 0.876889
-0.057795 -0.143709 0.877737
-0.056372 -0.143866 0.878691
-0.054940 -0.144005 0.879542
-0.053525 -0.144200 0.880734
-0.052121 -0.144433 0.882158
-0.050717 -0.144684 0.883692
-0.049292 -0.144886 0.884923
-0.047853 -0.145057 0.885970
-0.046410 -0.145229 0.887021
-0.044945 -0.145343 0.887715
-0.043467 -0.145418 0.888170
-0.041991 -0.145507 0.888717
-0.040521 -0.145623 0.889426
-0.039042 -0.145715 0.889985
-0.037550 -0.145764 0.890286
-0.035969 -0.145455 0.888399
-0.034297 -0.144736 0.884009
-0.026893 -0.137452 0.839517
-0.025233 -0.136148 0.831556
-0.023744 -0.135676 0.828671
-0.022261 -0.135179 0.825634
-0.020783 -0.134642 0.822355
-0.019323 -0.134158 0.819400
-0.017889 -0.133793 0.817168
-0.016468 -0.133477 0.815243
-0.015049 -0.133116 0.813037
-0.013636 -0.132739 0.810731
-0.012222 -0.132264 0.807832
-0.010816 -0.131784 0.804900
-0.009422 -0.131317 0.802049
-0.008040 -0.130886 0.799416
-0.006668 -0.130489 0.796991
-0.005310 -0.130218 0.795338
-0.003958 -0.129990 0.793944
-0.002612 -0.129779 0.792656
-0.001271 -0.129648 0.791855
0.000068 -0.129549 0.791248
0.001405 -0.129477 0.790807
0.002741 -0.129453 0.790661
0.004077 -0.129434 0.790550
0.005412 -0.129380 0.790214
0.006745 -0.129328 0.789901
0.008076 -0.129262 0.789497
0.009394 -0.129027 0.788064
0.010706 -0.128784 0.786576
0.012015 -0.128564 0.785232
0.013315 -0.128302 0.783636
0.014613 -0.128063 0.782174
0.015923 -0.127969 0.781601
0.017218 -0.127773 0.780405
0.018506 -0.127555 0.779068
0.019791 -0.127347 0.777799
0.021042 -0.126965 0.775469
0.022285 -0.126577 0.773097
0.023541 -0.126305 0.771439
0.024797 -0.126062 0.769952
0.026017 -0.125666 0.767536
0.027232 -0.125287 0.765219
0.028430 -0.124868 0.762659
0.029624 -0.124464 0.760194
0.030819 -0.124104 0.757996
0.032051 -0.123911 0.756813
0.033324 -0.123888 0.756676
0.034603 -0.123889 0.756677
0.035933 -0.124062 0.757738
0.037264 -0.124228 0.758751
0.038668 -0.124619 0.761138
0.040075 -0.124994 0.763430
0.041560 -0.125581 0.767017
0.043009 -0.126027 0.769741
0.044535 -0.126667 0.773649
0.046003 -0.127110 0.776351
0.047468 -0.127521 0.778861
0.048865 -0.127730 0.780142
0.050255 -0.127912 0.781251
0.051519 -0.127770 0.780383
0.052777 -0.127621 0.779472
0.054023 -0.127452 0.778445
0.055270 -0.127295 0.777480
0.056523 -0.127156 0.776631
0.057857 -0.127203 0.776920
0.059189 -0.127242 0.777161
0.060516 -0.127269 0.777322
0.061903 -0.127420 0.778249
0.063322 -0.127627 0.779513
0.064850 -0.128042 0.782045
0.066399 -0.128483 0.784737
0.068014 -0.129028 0.788070
0.069558 -0.129423 0.790480
0.071111 -0.129819 0.792899
0.072586 -0.130060 0.794371
0.074054 -0.130280 0.795712
0.075506 -0.130464 0.796839
0.076972 -0.130666 0.798075
0.078435 -0.130856 0.799233
0.079877 -0.131005 0.800143
0.081350 -0.131199 0.801327
0.082828 -0.131394 0.802520
0.084347 -0.131648 0.804067
0.085929 -0.131990 0.806156
0.087532 -0.132353 0.808376
0.089140 -0.132712 0.810568
0.090724 -0.133026 0.812486
0.093101 -0.134476 0.821340
0.105740 -0.144133 0.880326
0.107974 -0.145135 0.886444
0.109557 -0.145246 0.887126
0.111035 -0.145218 0.886954
0.112509 -0.145186 0.886756
0.113929 -0.145085 0.886141
0.115334 -0.144968 0.885426
0.116733 -0.144847 0.884687
0.118130 -0.144726 0.883948
0.119483 -0.144554 0.882898
0.120850 -0.144405 0.881986
0.122190 -0.144226 0.880895
0.123512 -0.144032 0.879708
0.124809 -0.143812 0.878365
0.126137 -0.143633 0.877273
0.127440 -0.143431 0.876034
0.128776 -0.143270 0.875052
0.130122 -0.143124 0.874159
0.131469 -0.142981 0.873287
0.132801 -0.142825 0.872337
0.134149 -0.142691 0.871517
0.135458 -0.142518 0.870461
0.136776 -0.142358 0.869481
0.138093 -0.142201 0.868525
0.139395 -0.142031 0.867486
0.140653 -0.141821 0.866201
0.141901 -0.141605 0.864883
0.143144 -0.141389 0.863565
0.144400 -0.141189 0.862345
0.145646 -0.140984 0.861094
0.146927 -0.140817 0.860070
0.148214 -0.140658 0.859102
0.149513 -0.140514 0.858220
0.150843 -0.140402 0.857535
0.152204 -0.140320 0.857035
0.153579 -0.140252 0.856621
0.154948 -0.140181 0.856187
0.156287 -0.140083 0.855590
0.157608 -0.139972 0.854911
0.158912 -0.139848 0.854151
0.160155 -0.139672 0.853080
0.161389 -0.139493 0.851982
0.162584 -0.139283 0.850701
0.163776 -0.139073 0.849422
0.164968 -0.138868 0.848170
0.166205 -0.138704 0.847166
0.167440 -0.138541 0.846169
0.168701 -0.138402 0.845320
0.169946 -0.138252 0.844403
0.171237 -0.138142 0.843732
0.172515 -0.138023 0.843006
0.173821 -0.137929 0.842430
0.175125 -0.137834 0.841850
0.176459 -0.137764 0.841428
0.177796 -0.137698 0.841023
0.179166 -0.137658 0.840780
0.180705 -0.139174 0.841326
0.180519 -0.137606 0.840462
-0.125790 -0.137085 0.846034
-0.124315 -0.137035 0.845726
-0.122814 -0.136955 0.845237
-0.121245 -0.136798 0.844264
-0.119664 -0.136622 0.843182
-0.118052 -0.136406 0.841848
-0.116434 -0.136178 0.840442
-0.114823 -0.135953 0.839051
-0.113241 -0.135757 0.837841
-0.111683 -0.135586 0.836785
-0.110161 -0.135453 0.835966
-0.108632 -0.135309 0.835078
-0.107117 -0.135178 0.834270
-0.105603 -0.135046 0.833452
-0.104101 -0.134926 0.832713
-0.102623 -0.134834 0.832143
-0.101186 -0.134793 0.831893
-0.099782 -0.134796 0.831910
-0.098415 -0.134850 0.832241
-0.097082 -0.134953 0.832882
-0.095760 -0.135074 0.833626
-0.094427 -0.135184 0.834302
-0.093107 -0.135315 0.835111
-0.091765 -0.135418 0.835747
-0.090404 -0.135496 0.836232
-0.089049 -0.135586 0.836783
-0.087693 -0.135676 0.837340
-0.086329 -0.135757 0.837840
-0.085001 -0.135898 0.838712
-0.083718 -0.136118 0.840071
-0.082479 -0.136417 0.841914
-0.081302 -0.136831 0.844470
-0.080260 -0.137493 0.848556
-0.079186 -0.138122 0.852437
-0.078069 -0.138697 0.855986
-0.076900 -0.139200 0.859091
-0.075668 -0.139607 0.861605
-0.074310 -0.139792 0.862741
-0.072960 -0.140001 0.864032
-0.071627 -0.140250 0.865571
-0.070285 -0.140493 0.867067
-0.068938 -0.140736 0.868568
-0.067580 -0.140965 0.869982
-0.066201 -0.141161 0.871191
-0.064806 -0.141330 0.872237
-0.063407 -0.141500 0.873285
-0.062019 -0.141701 0.874526
-0.060610 -0.141864 0.875534
-0.059202 -0.142036 0.876594
-0.057782 -0.142191 0.877546
-0.056361 -0.142346 0.878509
-0.054929 -0.142484 0.879358
-0.053508 -0.142662 0.880453
-0.052089 -0.142850 0.881618
-0.050675 -0.143066 0.882947
-0.049244 -0.143247 0.884064
-0.047801 -0.143400 0.885008
-0.046356 -0.143558 0.885986
-0.044898 -0.143687 0.886780
-0.043426 -0.143778 0.887343
-0.041957 -0.143883 0.887991
-0.040493 -0.144014 0.888798
-0.039015 -0.144105 0.889360
-0.037524 -0.144153 0.889659
-0.036023 -0.144167 0.889747
-0.034437 -0.143825 0.887634
-0.026952 -0.136327 0.841358
-0.025231 -0.134732 0.831515
-0.023755 -0.134330 0.829037
-0.022282 -0.133903 0.826396
-0.020810 -0.133424 0.823441
-0.019354 -0.132983 0.820723
-0.017921 -0.132645 0.818637
-0.016499 -0.132344 0.816779
-0.015080 -0.132007 0.814697
-0.013665 -0.131643 0.812453
-0.012249 -0.131185 0.809623
-0.010841 -0.130711 0.806699
-0.009443 -0.130247 0.803834
-0.008056 -0.129796 0.801052
-0.006680 -0.129367 0.798403
-0.005317 -0.129050 0.796449
-0.003963 -0.128785 0.794811
-0.002614 -0.128539 0.793296
-0.001271 -0.128364 0.792217
0.000068 -0.128243 0.791469
0.001405 -0.128159 0.790949
0.002742 -0.128124 0.790730
0.004077 -0.128093 0.790545
0.005412 -0.128049 0.790271
0.006746 -0.128008 0.790020
0.008077 -0.127944 0.789622
0.009406 -0.127853 0.789061
0.010731 -0.127753 0.788446
0.012056 -0.127671 0.787937
0.013377 -0.127564 0.787277
0.014698 -0.127480 0.786759
0.016019 -0.127402 0.786274
0.017327 -0.127250 0.785340
0.018630 -0.127078 0.784279
0.019926 -0.126891 0.783123
0.021191 -0.126542 0.780967
0.022450 -0.126197 0.778840
0.023726 -0.125978 0.777487
0.025000 -0.125774 0.776228
0.026240 -0.125429 0.774103
0.027432 -0.124897 0.770818
0.028592 -0.124277 0.766990
0.029742 -0.123666 0.763222
0.030936 -0.123282 0.760853
0.032172 -0.123090 0.759665
0.033452 -0.123075 0.759570
0.034789 -0.123262 0.760726
0.036180 -0.123623 0.762956
0.037532 -0.123826 0.764209
0.038964 -0.124273 0.766963
0.040454 -0.124869 0.770645
0.041961 -0.125481 0.774421
0.043422 -0.125922 0.777144
0.044943 -0.126505 0.780743
0.046399 -0.126876 0.783028
0.047853 -0.127224 0.785180
0.049240 -0.127377 0.786124
0.050626 -0.127521 0.787012
0.051901 -0.127385 0.786170
0.053177 -0.127258 0.785386
0.054444 -0.127116 0.784515
0.055720 -0.127001 0.783802
0.056995 -0.126889 0.783112
0.058347 -0.126952 0.783498
0.059707 -0.127026 0.783955
0.061061 -0.127086 0.784327
0.062466 -0.127248 0.785326
0.063904 -0.127468 0.786685
0.065375 -0.127743 0.788382
0.066858 -0.128030 0.790153
0.068392 -0.128402 0.792449
0.069857 -0.128634 0.793882
0.071331 -0.128872 0.795352
0.072797 -0.129088 0.796683
0.074262 -0.129292 0.797944
0.075710 -0.129462 0.798989
0.077171 -0.129647 0.800131
0.078623 -0.129812 0.801152
0.080068 -0.129960 0.802061
0.081539 -0.130142 0.803187
0.083042 -0.130370 0.804593
0.084599 -0.130674 0.806473
0.086216 -0.131059 0.808847
0.087854 -0.131465 0.811354
0.089485 -0.131847 0.813711
0.091067 -0.132146 0.815553
0.106135 -0.143173 0.883608
0.108037 -0.143716 0.886963
0.109609 -0.143811 0.887547
0.111063 -0.143752 0.887180
0.112524 -0.143702 0.886873
0.113921 -0.143573 0.886079
0.115324 -0.143454 0.885346
0.116710 -0.143319 0.884509
0.118094 -0.143184 0.883675
0.119431 -0.142996 0.882520
0.120787 -0.142835 0.881526
0.122102 -0.142630 0.880261
0.123413 -0.142426 0.879001
0.124697 -0.142195 0.877575
0.126013 -0.142007 0.876412
0.127326 -0.141819 0.875250
0.128674 -0.141674 0.874357
0.130020 -0.141530 0.873473
0.131377 -0.141401 0.872676
0.132705 -0.141245 0.871710
0.134028 -0.141086 0.870727
0.135308 -0.140886 0.869495
0.136611 -0.140714 0.868432
0.137912 -0.140544 0.867383
0.139201 -0.140365 0.866280
0.140446 -0.140146 0.864926
0.141676 -0.139917 0.863516
0.142898 -0.139685 0.862080
0.144122 -0.139459 0.860687
0.145363 -0.139254 0.859422
0.146670 -0.139115 0.858565
0.147975 -0.138978 0.857718
0.149292 -0.138854 0.856952
0.150634 -0.138756 0.856347
0.152007 -0.138688 0.855928
0.153382 -0.138622 0.855523
0.154753 -0.138554 0.855105
0.156088 -0.138457 0.854504
0.157404 -0.138344 0.853808
0.158691 -0.138208 0.852965
0.159918 -0.138022 0.851817
0.161148 -0.137842 0.850709
0.162328 -0.137623 0.849358
0.163519 -0.137417 0.848087
0.164725 -0.137228 0.846919
0.165949 -0.137056 0.845861
0.167182 -0.136895 0.844866
0.168457 -0.136770 0.844095
0.169713 -0.136633 0.843245
0.171002 -0.136524 0.842576
0.172323 -0.136442 0.842068
0.173647 -0.136364 0.841586
0.174968 -0.136284 0.841096
0.176301 -0.136216 0.840672
0.177632 -0.136147 0.840248
0.178984 -0.136095 0.839925
0.180336 -0.136044 0.839610
-0.125829 -0.135692 0.846294
-0.124374 -0.135665 0.846128
-0.122877 -0.135592 0.845670
-0.121331 -0.135462 0.844859
-0.119772 -0.135315 0.843940
-0.118180 -0.135126 0.842763
-0.116561 -0.134901 0.841359
-0.114957 -0.134688 0.840029
-0.113370 -0.134490 0.838797
-0.111800 -0.134307 0.837657
-0.110266 -0.134164 0.836766
-0.108728 -0.134012 0.835814
-0.107210 -0.133880 0.834994
-0.105695 -0.133749 0.834178
-0.104191 -0.133630 0.833432
-0.102713 -0.133539 0.832868
-0.101284 -0.133512 0.832699
-0.099886 -0.133526 0.832784
-0.098527 -0.133591 0.833192
-0.097194 -0.133695 0.833836
-0.095877 -0.133825 0.834651
-0.094550 -0.133944 0.835392
-0.093221 -0.134063 0.836133
-0.091869 -0.134154 0.836699
-0.090515 -0.134242 0.837251
-0.089151 -0.134320 0.837739
-0.087795 -0.134413 0.838317
-0.086446 -0.134519 0.838979
-0.085149 -0.134711 0.840178
-0.083909 -0.135001 0.841982
-0.082725 -0.135392 0.844423
-0.081602 -0.135900 0.847591
-0.080552 -0.136549 0.851636
-0.079441 -0.137117 0.855179
-0.078261 -0.137584 0.858096
-0.077026 -0.137970 0.860499
-0.075720 -0.138241 0.862193
-0.074339 -0.138384 0.863085
-0.072976 -0.138565 0.864215
-0.071628 -0.138786 0.865590
-0.070266 -0.138985 0.866833
-0.068911 -0.139208 0.868225
-0.067545 -0.139418 0.869534
-0.066160 -0.139599 0.870662
-0.064761 -0.139755 0.871635
-0.063368 -0.139934 0.872753
-0.061981 -0.140132 0.873986
-0.060579 -0.140309 0.875088
-0.059179 -0.140496 0.876253
-0.057772 -0.140677 0.877385
-0.056356 -0.140845 0.878433
-0.054928 -0.140993 0.879353
-0.053502 -0.141152 0.880348
-0.052072 -0.141310 0.881333
-0.050647 -0.141492 0.882465
-0.049206 -0.141638 0.883380
-0.047754 -0.141759 0.884136
-0.046310 -0.141916 0.885110
-0.044859 -0.142059 0.886002
-0.043394 -0.142167 0.886677
-0.041931 -0.142289 0.887437
-0.040472 -0.142433 0.888337
-0.038994 -0.142523 0.888899
-0.037504 -0.142571 0.889195
-0.036004 -0.142584 0.889276
-0.034496 -0.142564 0.889155
-0.025223 -0.133281 0.831255
-0.023765 -0.132985 0.829409
-0.022305 -0.132639 0.827254
-0.020841 -0.132225 0.824670
-0.019388 -0.131823 0.822165
-0.017952 -0.131489 0.820077
-0.016528 -0.131189 0.818211
-0.015105 -0.130844 0.816059
-0.013687 -0.130472 0.813740
-0.012269 -0.130031 0.810990
-0.010861 -0.129589 0.808229
-0.009463 -0.129149 0.805485
-0.008073 -0.128705 0.802717
-0.006694 -0.128283 0.800085
-0.005327 -0.127941 0.797952
-0.003969 -0.127637 0.796057
-0.002617 -0.127359 0.794321
-0.001273 -0.127169 0.793139
0.000068 -0.127017 0.792187
0.001406 -0.126909 0.791513
0.002743 -0.126862 0.791219
0.004080 -0.126820 0.790959
0.005415 -0.126778 0.790697
0.006749 -0.126737 0.790442
0.008082 -0.126685 0.790118
0.009411 -0.126594 0.789554
0.010737 -0.126485 0.788869
0.012062 -0.126401 0.788344
0.013385 -0.126305 0.787745
0.014707 -0.126224 0.787243
0.016030 -0.126159 0.786840
0.017360 -0.126159 0.786835
0.018685 -0.126126 0.786632
0.020010 -0.126090 0.786407
0.021307 -0.125903 0.785242
0.022602 -0.125719 0.784090
0.023896 -0.125556 0.783074
0.025190 -0.125404 0.782132
0.026448 -0.125103 0.780250
0.027654 -0.124591 0.777060
0.029985 -0.123374 0.769465
0.031190 -0.122996 0.767111
0.032440 -0.122819 0.766005
0.033685 -0.122636 0.764865
0.035033 -0.122829 0.766067
0.036440 -0.123208 0.768434
0.037813 -0.123447 0.769924
0.039276 -0.123960 0.773121
0.040849 -0.124772 0.778189
0.042356 -0.125339 0.781722
0.043819 -0.125742 0.784240
0.045276 -0.126108 0.786519
0.046654 -0.126240 0.787344
0.048032 -0.126364 0.788114
0.049349 -0.126323 0.787862
0.050672 -0.126301 0.787724
0.052014 -0.126327 0.787887
0.053371 -0.126386 0.788251
0.054724 -0.126433 0.788547
0.056092 -0.126512 0.789039
0.057453 -0.126572 0.789411
0.058831 -0.126665 0.789995
0.060217 -0.126772 0.790658
0.061601 -0.126868 0.791259
0.062957 -0.126906 0.791496
0.064338 -0.126991 0.792028
0.065743 -0.127118 0.792820
0.067153 -0.127251 0.793645
0.068602 -0.127450 0.794887
0.070069 -0.127674 0.796287
0.071525 -0.127871 0.797518
0.072981 -0.128059 0.798686
0.074446 -0.128258 0.799929
0.075899 -0.128428 0.800989
0.077353 -0.128594 0.802022
0.078823 -0.128780 0.803187
0.080272 -0.128926 0.804097
0.081753 -0.129119 0.805299
0.083284 -0.129383 0.806943
0.084888 -0.129749 0.809229
0.086533 -0.130165 0.811823
0.088207 -0.130612 0.814613
0.089845 -0.130992 0.816978
0.091414 -0.131263 0.818668
0.106306 -0.141903 0.885031
0.108169 -0.142386 0.888043
0.109710 -0.142439 0.888371
0.111133 -0.142337 0.887735
0.112571 -0.142258 0.887247
0.113944 -0.142100 0.886258
0.115324 -0.141954 0.885349
0.116687 -0.141792 0.884337
0.118059 -0.141643 0.883411
0.119383 -0.141443 0.882162
0.120726 -0.141270 0.881082
0.122040 -0.141067 0.879816
0.123350 -0.140865 0.878554
0.124621 -0.140623 0.877045
0.125934 -0.140434 0.875866
0.127248 -0.140249 0.874714
0.128585 -0.140095 0.873752
0.129931 -0.139954 0.872874
0.131287 -0.139827 0.872080
0.132601 -0.139657 0.871023
0.133910 -0.139487 0.869963
0.135199 -0.139300 0.868798
0.136489 -0.139118 0.867658
0.137788 -0.138948 0.866602
0.139075 -0.138771 0.865495
0.140302 -0.138538 0.864041
0.141505 -0.138286 0.862469
0.142696 -0.138028 0.860860
0.143902 -0.137789 0.859373
0.145141 -0.137586 0.858109
0.146449 -0.137452 0.857273
0.147767 -0.137330 0.856510
0.149097 -0.137221 0.855831
0.150439 -0.137126 0.855240
0.151799 -0.137048 0.854752
0.153171 -0.136983 0.854345
0.154527 -0.136905 0.853857
0.155860 -0.136808 0.853253
0.157161 -0.136685 0.852484
0.158455 -0.136558 0.851696
0.159693 -0.136385 0.850618
0.160922 -0.136209 0.849518
0.162087 -0.135981 0.848098
0.163274 -0.135776 0.846818
0.164462 -0.135576 0.845568
0.165685 -0.135407 0.844515
0.166922 -0.135252 0.843552
0.168226 -0.135154 0.842940
0.169514 -0.135045 0.842259
0.170804 -0.134939 0.841596
0.172127 -0.134861 0.841110
0.173465 -0.134796 0.840706
0.174786 -0.134719 0.840223
0.176104 -0.134640 0.839731
0.177432 -0.134571 0.839300
0.178779 -0.134517 0.838964
0.180131 -0.134467 0.838655
0.181686 -0.135992 0.839290
0.181515 -0.134442 0.838500
0.183049 -0.135950 0.839032
0.182930 -0.134441 0.838489
-0.125865 -0.134295 0.846534
-0.124417 -0.134278 0.846421
-0.122940 -0.134228 0.846107
-0.121417 -0.134125 0.845462
-0.119880 -0.134004 0.844699
-0.118311 -0.133845 0.843697
-0.116712 -0.133647 0.842446
-0.115116 -0.133448 0.841190
-0.113534 -0.133260 0.840007
-0.111951 -0.133067 0.838787
-0.110403 -0.132910 0.837802
-0.108852 -0.132746 0.836768
-0.107323 -0.132605 0.835876
-0.105805 -0.132474 0.835052
-0.104311 -0.132369 0.834393
-0.102840 -0.132291 0.833900
-0.101419 -0.132277 0.833810
-0.100020 -0.132291 0.833900
-0.098651 -0.132345 0.834241
-0.097307 -0.132435 0.834807
-0.095979 -0.132551 0.835536
-0.094642 -0.132657 0.836207
-0.093310 -0.132773 0.836936
-0.091958 -0.132863 0.837506
-0.090611 -0.132965 0.838145
-0.089255 -0.133055 0.838717
-0.087914 -0.133172 0.839453
-0.086597 -0.133329 0.840438
-0.085340 -0.133585 0.842054
-0.084147 -0.133952 0.844369
-0.083009 -0.134422 0.847328
-0.081920 -0.134988 0.850897
-0.080829 -0.135569 0.854563
-0.079663 -0.136047 0.857572
-0.078408 -0.136385 0.859707
-0.077110 -0.136660 0.861439
-0.075742 -0.136820 0.862448
-0.074353 -0.136947 0.863246
-0.072987 -0.137123 0.864356
-0.071633 -0.137328 0.865646
-0.070256 -0.137497 0.866715
-0.068895 -0.137705 0.868026
-0.067522 -0.137897 0.869238
-0.066127 -0.138053 0.870218
-0.064727 -0.138205 0.871176
-0.063336 -0.138384 0.872307
-0.061949 -0.138581 0.873544
-0.060555 -0.138770 0.874739
-0.059167 -0.138983 0.876084
-0.057767 -0.139180 0.877321
-0.056358 -0.139361 0.878467
-0.054934 -0.139518 0.879452
-0.053503 -0.139661 0.880356
-0.052057 -0.139776 0.881080
-0.050622 -0.139926 0.882027
-0.049171 -0.140042 0.882754
-0.047710 -0.140133 0.883333
-0.046267 -0.140287 0.884300
-0.044822 -0.140441 0.885275
-0.043367 -0.140576 0.886124
-0.041909 -0.140711 0.886977
-0.040455 -0.140869 0.887971
-0.038978 -0.140958 0.888528
-0.037488 -0.141002 0.888808
-0.035985 -0.141002 0.888808
-0.034479 -0.140985 0.888704
-0.025223 -0.131871 0.831251
-0.023784 -0.131681 0.830055
-0.022334 -0.131405 0.828312
-0.020874 -0.131031 0.825959
-0.019420 -0.130644 0.823515
-0.017980 -0.130297 0.821331
-0.016552 -0.129988 0.819381
-0.015125 -0.129633 0.817147
-0.013705 -0.129264 0.814821
-0.012289 -0.128863 0.812288
-0.010882 -0.128461 0.809756
-0.009483 -0.128064 0.807253
-0.008093 -0.127659 0.804702
-0.006712 -0.127264 0.802208
-0.005340 -0.126899 0.799909
-0.003977 -0.126562 0.797783
-0.002623 -0.126268 0.795933
-0.001275 -0.126046 0.794536
0.000068 -0.125870 0.793425
0.001408 -0.125740 0.792602
0.002747 -0.125690 0.792291
0.004084 -0.125627 0.791895
0.005421 -0.125586 0.791635
0.006758 -0.125549 0.791399
0.008093 -0.125509 0.791150
0.009424 -0.125420 0.790585
0.010751 -0.125318 0.789945
0.012079 -0.125232 0.789403
0.013403 -0.125135 0.788791
0.014727 -0.125055 0.788284
0.016051 -0.124991 0.787882
0.017380 -0.124970 0.787748
0.018704 -0.124915 0.787405
0.020024 -0.124847 0.786974
0.021344 -0.124787 0.786600
0.022666 -0.124741 0.786309
0.023996 -0.124744 0.786327
0.025328 -0.124760 0.786428
0.026632 -0.124639 0.785664
0.027855 -0.124171 0.782712
0.028831 -0.124006 0.773409
0.029052 -0.123636 0.779344
0.030226 -0.123051 0.775656
0.031450 -0.122709 0.773498
0.032717 -0.122557 0.772540
0.033978 -0.122397 0.771530
0.035345 -0.122613 0.772890
0.036764 -0.122988 0.775256
0.038160 -0.123264 0.776993
0.039632 -0.123760 0.780122
0.041217 -0.124562 0.785179
0.042664 -0.124913 0.787393
0.044058 -0.125092 0.788518
0.045446 -0.125245 0.789482
0.046756 -0.125176 0.789052
0.048077 -0.125145 0.788853
0.049404 -0.125128 0.788744
0.050744 -0.125143 0.788839
0.052098 -0.125194 0.789160
0.053472 -0.125286 0.789741
0.054828 -0.125333 0.790039
0.056194 -0.125401 0.790465
0.057552 -0.125449 0.790769
0.058933 -0.125542 0.791357
0.060321 -0.125648 0.792022
0.061718 -0.125766 0.792765
0.063107 -0.125863 0.793382
0.064525 -0.126012 0.794320
0.065958 -0.126185 0.795409
0.067387 -0.126345 0.796415
0.068831 -0.126524 0.797545
0.070281 -0.126706 0.798694
0.071726 -0.126874 0.799752
0.073172 -0.127037 0.800781
0.074638 -0.127229 0.801987
0.076103 -0.127412 0.803143
0.077570 -0.127592 0.804278
0.079046 -0.127780 0.805460
0.080500 -0.127925 0.806379
0.081993 -0.128129 0.807664
0.083547 -0.128418 0.809486
0.085182 -0.128822 0.812029
0.086844 -0.129252 0.814744
0.088531 -0.129706 0.817602
0.090164 -0.130067 0.819881
0.091721 -0.130311 0.821415
0.106405 -0.140535 0.885863
0.108268 -0.141010 0.888859
0.109790 -0.141034 0.889012
0.111190 -0.140904 0.888192
0.112615 -0.140809 0.887593
0.113966 -0.140625 0.886430
0.115334 -0.140466 0.885428
0.116676 -0.140279 0.884248
0.118035 -0.140118 0.883234
0.119347 -0.139906 0.881898
0.120678 -0.139720 0.880728
0.121980 -0.139507 0.879383
0.123288 -0.139304 0.878106
0.124558 -0.139065 0.876597
0.125869 -0.138876 0.875409
0.127192 -0.138705 0.874331
0.128529 -0.138553 0.873373
0.129877 -0.138417 0.872511
0.131233 -0.138291 0.871719
0.132546 -0.138123 0.870662
0.133842 -0.137942 0.869519
0.135131 -0.137758 0.868361
0.136407 -0.137564 0.867135
0.137705 -0.137396 0.866079
0.138988 -0.137218 0.864954
0.140190 -0.136963 0.863349
0.141363 -0.136686 0.861604
0.142538 -0.136417 0.859907
0.143717 -0.136157 0.858268
0.144943 -0.135946 0.856935
0.146262 -0.135825 0.856178
0.147593 -0.135718 0.855502
0.148921 -0.135610 0.854821
0.150258 -0.135513 0.854210
0.151612 -0.135433 0.853702
0.152982 -0.135368 0.853293
0.154324 -0.135280 0.852737
0.155657 -0.135186 0.852145
0.156967 -0.135073 0.851434
0.158248 -0.134938 0.850583
0.159484 -0.134768 0.849510
0.160730 -0.134608 0.848505
0.161893 -0.134383 0.847086
0.163062 -0.134166 0.845718
0.164244 -0.133964 0.844445
0.165463 -0.133795 0.843381
0.166716 -0.133657 0.842509
0.168040 -0.133577 0.842004
0.169348 -0.133486 0.841433
0.170655 -0.133396 0.840866
0.171994 -0.133332 0.840460
0.173332 -0.133268 0.840059
0.174654 -0.133193 0.839586
0.175968 -0.133114 0.839085
0.177296 -0.133046 0.838656
0.178625 -0.132980 0.838242
0.179976 -0.132931 0.837934
0.181377 -0.132920 0.837861
0.182827 -0.132944 0.838014
0.184381 -0.134464 0.838637
0.184315 -0.132995 0.838339
0.185888 -0.134529 0.839042
0.185858 -0.133086 0.838908
-0.125941 -0.132941 0.847046
-0.124491 -0.132922 0.846925
-0.123024 -0.132884 0.846681
-0.121532 -0.132818 0.846261
-0.119996 -0.132701 0.845519
-0.118440 -0.132559 0.844614
-0.116863 -0.132390 0.843537
-0.115277 -0.132207 0.842372
-0.113695 -0.132023 0.841199
-0.112117 -0.131840 0.840033
-0.110556 -0.131673 0.838965
-0.108999 -0.131506 0.837902
-0.107467 -0.131364 0.836996
-0.105938 -0.131223 0.836100
-0.104444 -0.131121 0.835452
-0.102972 -0.131046 0.834970
-0.101541 -0.131021 0.834813
-0.100140 -0.131035 0.834901
-0.098768 -0.131086 0.835230
-0.097414 -0.131165 0.835730
-0.096084 -0.131278 0.836450
-0.094744 -0.131381 0.837106
-0.093403 -0.131485 0.837768
-0.092058 -0.131586 0.838414
-0.090725 -0.131710 0.839203
-0.089386 -0.131826 0.839943
-0.088061 -0.131970 0.840859
-0.086774 -0.132174 0.842157
-0.085549 -0.132482 0.844120
-0.084374 -0.132878 0.846646
-0.083237 -0.133350 0.849654
-0.082122 -0.133873 0.852988
-0.080984 -0.134378 0.856202
-0.079765 -0.134765 0.858669
-0.078461 -0.135019 0.860290
-0.077132 -0.135239 0.861687
-0.075756 -0.135383 0.862606
-0.074352 -0.135482 0.863237
-0.072972 -0.135630 0.864177
-0.071616 -0.135828 0.865444
-0.070234 -0.135984 0.866438
-0.068874 -0.136191 0.867756
-0.067501 -0.136382 0.868973
-0.066112 -0.136547 0.870024
-0.064706 -0.136685 0.870902
-0.063316 -0.136862 0.872027
-0.061924 -0.137044 0.873190
-0.060536 -0.137244 0.874465
-0.059155 -0.137471 0.875907
-0.057762 -0.137680 0.877243
-0.056359 -0.137876 0.878490
-0.054941 -0.138044 0.879561
-0.053509 -0.138186 0.880466
-0.052053 -0.138272 0.881014
-0.050613 -0.138406 0.881869
-0.049157 -0.138505 0.882498
-0.047692 -0.138582 0.882991
-0.046245 -0.138721 0.883877
-0.044800 -0.138873 0.884845
-0.043350 -0.139019 0.885771
-0.041896 -0.139166 0.886708
-0.040443 -0.139322 0.887707
-0.038966 -0.139409 0.888256
-0.037480 -0.139464 0.888610
-0.035977 -0.139464 0.888610
-0.034468 -0.139436 0.888433
-0.025231 -0.130504 0.831518
-0.023814 -0.130440 0.831114
-0.022369 -0.130208 0.829635
-0.020915 -0.129886 0.827580
-0.019461 -0.129523 0.825269
-0.018016 -0.129166 0.822996
-0.016585 -0.128856 0.821020
-0.015155 -0.128501 0.818757
-0.013729 -0.128112 0.816279
-0.012313 -0.127732 0.813858
-0.010905 -0.127357 0.811466
-0.009505 -0.126989 0.809121
-0.008114 -0.126623 0.806790
-0.006731 -0.126266 0.804518
-0.005356 -0.125906 0.802223
-0.003989 -0.125564 0.800041
-0.002630 -0.125259 0.798098
-0.001278 -0.125004 0.796475
0.000068 -0.124805 0.795206
0.001411 -0.124643 0.794176
0.002752 -0.124580 0.793773
0.004092 -0.124506 0.793303
0.005431 -0.124465 0.793042
0.006770 -0.124429 0.792814
0.008109 -0.124412 0.792704
0.009442 -0.124325 0.792149
0.010774 -0.124236 0.791579
0.012103 -0.124149 0.791030
0.013430 -0.124051 0.790400
0.014755 -0.123960 0.789821
0.016082 -0.123894 0.789405
0.017412 -0.123861 0.789193
0.018738 -0.123805 0.788838
0.020060 -0.123735 0.788390
0.021382 -0.123675 0.788007
0.022706 -0.123628 0.787707
0.024034 -0.123608 0.787582
0.025362 -0.123590 0.787466
0.026693 -0.123591 0.787473
0.027956 -0.123288 0.785541
0.029203 -0.122950 0.783385
0.030441 -0.122600 0.781160
0.031725 -0.122462 0.780277
0.033012 -0.122341 0.779509
0.034284 -0.122177 0.778464
0.035666 -0.122405 0.779917
0.037099 -0.122782 0.782315
0.038507 -0.123057 0.784068
0.039930 -0.123358 0.785986
0.041454 -0.123942 0.789711
0.042834 -0.124071 0.790533
0.044163 -0.124050 0.790399
0.045491 -0.124029 0.790266
0.046810 -0.123984 0.789976
0.048148 -0.123989 0.790009
0.049487 -0.123999 0.790070
0.050839 -0.124039 0.790330
0.052202 -0.124102 0.790731
0.053583 -0.124205 0.791382
0.054941 -0.124251 0.791679
0.056315 -0.124328 0.792170
0.057681 -0.124386 0.792538
0.059074 -0.124498 0.793250
0.060470 -0.124613 0.793984
0.061883 -0.124754 0.794885
0.063294 -0.124887 0.795731
0.064729 -0.125061 0.796839
0.066157 -0.125215 0.797818
0.067582 -0.125356 0.798717
0.069014 -0.125504 0.799658
0.070447 -0.125649 0.800582
0.071885 -0.125797 0.801531
0.073342 -0.125973 0.802647
0.074819 -0.126175 0.803938
0.076297 -0.126371 0.805188
0.077777 -0.126564 0.806416
0.079258 -0.126752 0.807613
0.080722 -0.126908 0.808608
0.082235 -0.127133 0.810043
0.083816 -0.127456 0.812101
0.085474 -0.127883 0.814817
0.087149 -0.128320 0.817601
0.088837 -0.128764 0.820431
0.090447 -0.129082 0.822456
0.091974 -0.129274 0.823683
0.094247 -0.131902 0.831448
0.094462 -0.130790 0.833343
0.106489 -0.139142 0.886556
0.108325 -0.139577 0.889328
0.109823 -0.139570 0.889282
0.111213 -0.139428 0.888378
0.112629 -0.139322 0.887702
0.113978 -0.139137 0.886522
0.115345 -0.138977 0.885508
0.116675 -0.138779 0.884243
0.118032 -0.138617 0.883214
0.119345 -0.138409 0.881884
0.120664 -0.138212 0.880628
0.121965 -0.137999 0.879273
0.123260 -0.137785 0.877913
0.124519 -0.137536 0.876322
0.125817 -0.137336 0.875049
0.127151 -0.137179 0.874048
0.128476 -0.137017 0.873016
0.129824 -0.136882 0.872157
0.131178 -0.136756 0.871353
0.132491 -0.136591 0.870303
0.133773 -0.136398 0.869072
0.135076 -0.136231 0.868008
0.136352 -0.136039 0.866786
0.137651 -0.135875 0.865741
0.138933 -0.135697 0.864609
0.140120 -0.135433 0.862923
0.141266 -0.135133 0.861014
0.142438 -0.134865 0.859304
0.143615 -0.134607 0.857659
0.144841 -0.134399 0.856333
0.146162 -0.134282 0.855592
0.147492 -0.134176 0.854915
0.148801 -0.134053 0.854135
0.150109 -0.133932 0.853361
0.151429 -0.133824 0.852672
0.152782 -0.133746 0.852176
0.154120 -0.133657 0.851610
0.155440 -0.133554 0.850953
0.156762 -0.133455 0.850323
0.158058 -0.133335 0.849560
0.159296 -0.133170 0.848508
0.160531 -0.133005 0.847455
0.161693 -0.132782 0.846036
0.162842 -0.132554 0.844579
0.164018 -0.132350 0.843283
0.165248 -0.132194 0.842288
0.166532 -0.132083 0.841578
0.167875 -0.132021 0.841182
0.169215 -0.131956 0.840773
0.170538 -0.131880 0.840288
0.171890 -0.131828 0.839954
0.173227 -0.131764 0.839549
0.174563 -0.131702 0.839149
0.175878 -0.131624 0.838656
0.177205 -0.131557 0.838228
0.178532 -0.131491 0.837805
0.179881 -0.131441 0.837492
0.181313 -0.131453 0.837564
0.182782 -0.131491 0.837810
0.184293 -0.131558 0.838237
0.185840 -0.131651 0.838825
0.187410 -0.133181 0.839506
0.187408 -0.131756 0.839494
-0.126026 -0.131594 0.847619
-0.124584 -0.131585 0.847558
-0.123110 -0.131541 0.847277
-0.121637 -0.131496 0.846991
-0.120100 -0.131382 0.846254
-0.118554 -0.131253 0.845425
-0.116990 -0.131102 0.844453
-0.115427 -0.130949 0.843465
-0.113856 -0.130782 0.842392
-0.112278 -0.130604 0.841240
-0.110703 -0.130423 0.840078
-0.109132 -0.130243 0.838918
-0.107595 -0.130100 0.837998
-0.106065 -0.129961 0.837102
-0.104579 -0.129873 0.836534
-0.103116 -0.129811 0.836135
-0.101691 -0.129797 0.836043
-0.100287 -0.129810 0.836126
-0.098912 -0.129860 0.836450
-0.097555 -0.129936 0.836938
-0.096223 -0.130048 0.837658
-0.094882 -0.130151 0.838325
-0.093546 -0.130264 0.839054
-0.092208 -0.130377 0.839783
-0.090884 -0.130516 0.840674
-0.089560 -0.130657 0.841584
-0.088259 -0.130837 0.842744
-0.086987 -0.131068 0.844231
-0.085786 -0.131414 0.846456
-0.084625 -0.131834 0.849167
-0.083477 -0.132291 0.852108
-0.082318 -0.132744 0.855027
-0.081127 -0.133161 0.857714
-0.079849 -0.133449 0.859568
-0.078498 -0.133623 0.860686
-0.077139 -0.133790 0.861762
-0.075756 -0.133921 0.862606
-0.074345 -0.134006 0.863154
-0.072958 -0.134138 0.864008
-0.071601 -0.134334 0.865265
-0.070213 -0.134476 0.866183
-0.068854 -0.134682 0.867507
-0.067482 -0.134872 0.868732
-0.066093 -0.135034 0.869778
-0.064688 -0.135170 0.870654
-0.063297 -0.135344 0.871772
-0.061900 -0.135511 0.872847
-0.060517 -0.135719 0.874189
-0.059147 -0.135966 0.875781
-0.057756 -0.136178 0.877145
-0.056365 -0.136400 0.878576
-0.054952 -0.136581 0.879741
-0.053520 -0.136721 0.880646
-0.052059 -0.136793 0.881109
-0.050618 -0.136925 0.881955
-0.049157 -0.137009 0.882498
-0.047696 -0.137098 0.883071
-0.046250 -0.137237 0.883964
-0.044801 -0.137375 0.884853
-0.043350 -0.137517 0.885771
-0.041896 -0.137661 0.886699
-0.040435 -0.137792 0.887539
-0.038955 -0.137864 0.888007
-0.037472 -0.137930 0.888432
-0.035970 -0.137930 0.888432
-0.034458 -0.137890 0.888175
-0.025220 -0.129037 0.831146
-0.023831 -0.129121 0.831692
-0.022407 -0.129018 0.831028
-0.020956 -0.128738 0.829220
-0.019503 -0.128402 0.827060
-0.018055 -0.128046 0.824766
-0.016619 -0.127725 0.822701
-0.015185 -0.127360 0.820346
-0.013755 -0.126960 0.817771
-0.012334 -0.126571 0.815265
-0.010922 -0.126186 0.812783
-0.009522 -0.125840 0.810559
-0.008129 -0.125492 0.808317
-0.006746 -0.125176 0.806282
-0.005369 -0.124858 0.804232
-0.004000 -0.124551 0.802254
-0.002637 -0.124238 0.800238
-0.001281 -0.123993 0.798660
0.000069 -0.123785 0.797317
0.001415 -0.123611 0.796199
0.002759 -0.123527 0.795658
0.004102 -0.123460 0.795227
0.005444 -0.123419 0.794960
0.006787 -0.123394 0.794800
0.008130 -0.123390 0.794773
0.009469 -0.123325 0.794357
0.010804 -0.123239 0.793802
0.012137 -0.123146 0.793207
0.013466 -0.123039 0.792517
0.014793 -0.122935 0.791847
0.016122 -0.122857 0.791344
0.017453 -0.122812 0.791056
0.018782 -0.122756 0.790692
0.020107 -0.122685 0.790237
0.021432 -0.122624 0.789841
0.022758 -0.122575 0.789525
0.024085 -0.122532 0.789252
0.025410 -0.122490 0.788979
0.026739 -0.122465 0.788815
0.028034 -0.122297 0.787736
0.029324 -0.122124 0.786619
0.030615 -0.121971 0.785637
0.031953 -0.122006 0.785861
0.033296 -0.122062 0.786220
0.034587 -0.121927 0.785351
0.035986 -0.122168 0.786904
0.037384 -0.122391 0.788340
0.038742 -0.122471 0.788856
0.040104 -0.122557 0.789412
0.041565 -0.122930 0.791810
0.042888 -0.122885 0.791525
0.044222 -0.122874 0.791453
0.045556 -0.122864 0.791389
0.046882 -0.122833 0.791185
0.048227 -0.122852 0.791313
0.049579 -0.122887 0.791536
0.050944 -0.122952 0.791954
0.052314 -0.123025 0.792427
0.053697 -0.123125 0.793068
0.055058 -0.123170 0.793357
0.056434 -0.123245 0.793843
0.057803 -0.123303 0.794216
0.059204 -0.123426 0.795006
0.060615 -0.123563 0.795889
0.062053 -0.123746 0.797066
0.063485 -0.123911 0.798130
0.064931 -0.124096 0.799325
0.066346 -0.124215 0.800092
0.067760 -0.124328 0.800818
0.069170 -0.124429 0.801471
0.070590 -0.124544 0.802207
0.072035 -0.124697 0.803198
0.073517 -0.124908 0.804555
0.075013 -0.125135 0.806018
0.076507 -0.125351 0.807404
0.077996 -0.125551 0.808693
0.079475 -0.125726 0.809825
0.080942 -0.125880 0.810812
0.082488 -0.126147 0.812536
0.084099 -0.126505 0.814839
0.085751 -0.126911 0.817456
0.087414 -0.127320 0.820088
0.089077 -0.127716 0.822643
0.090639 -0.127959 0.824204
0.092129 -0.128093 0.825067
0.094633 -0.129612 0.834850
0.106593 -0.137774 0.887428
0.108387 -0.138148 0.889837
0.109855 -0.138103 0.889545
0.111256 -0.137975 0.888721
0.112662 -0.137858 0.887963
0.114012 -0.137674 0.886782
0.115369 -0.137505 0.885691
0.116698 -0.137307 0.884418
0.118045 -0.137135 0.883311
0.119356 -0.136926 0.881965
0.120652 -0.136705 0.880538
0.121941 -0.136482 0.879102
0.123235 -0.136269 0.877732
0.124481 -0.136009 0.876058
0.125769 -0.135801 0.874717
0.127103 -0.135646 0.873718
0.128426 -0.135484 0.872676
0.129773 -0.135350 0.871815
0.131126 -0.135225 0.871009
0.132450 -0.135074 0.870033
0.133732 -0.134883 0.868804
0.135047 -0.134730 0.867821
0.136312 -0.134530 0.866531
0.137624 -0.134381 0.865569
0.138894 -0.134195 0.864371
0.140081 -0.133933 0.862682
0.141212 -0.133623 0.860687
0.142381 -0.133355 0.858962
0.143543 -0.133086 0.857228
0.144783 -0.132893 0.855987
0.146104 -0.132779 0.855254
0.147434 -0.132675 0.854582
0.148729 -0.132541 0.853721
0.150005 -0.132394 0.852772
0.151280 -0.132248 0.851831
0.152627 -0.132167 0.851311
0.153951 -0.132068 0.850673
0.155283 -0.131979 0.850098
0.156623 -0.131896 0.849566
0.157944 -0.131801 0.848951
0.159200 -0.131652 0.847995
0.160433 -0.131488 0.846938
0.161582 -0.131258 0.845458
0.162728 -0.131030 0.843989
0.163888 -0.130817 0.842615
0.165105 -0.130653 0.841559
0.166390 -0.130545 0.840864
0.167749 -0.130496 0.840546
0.169102 -0.130444 0.840210
0.170436 -0.130378 0.839786
0.171787 -0.130326 0.839450
0.173140 -0.130276 0.839128
0.174476 -0.130214 0.838733
0.175791 -0.130138 0.838242
0.177116 -0.130070 0.837805
0.178443 -0.130005 0.837387
0.179791 -0.129956 0.837071
0.181223 -0.129968 0.837149
0.182709 -0.130019 0.837473
0.184235 -0.130097 0.837974
0.185800 -0.130201 0.838646
0.187384 -0.130316 0.839389
0.188940 -0.131835 0.839999
0.188935 -0.130407 0.839976
-0.126176 -0.130312 0.848629
-0.124713 -0.130283 0.848436
-0.123234 -0.130235 0.848125
-0.121756 -0.130188 0.847817
-0.120194 -0.130049 0.846912
-0.118646 -0.129922 0.846087
-0.117101 -0.129795 0.845259
-0.115550 -0.129657 0.844365
-0.114001 -0.129519 0.843464
-0.112423 -0.129344 0.842326
-0.110846 -0.129166 0.841165
-0.109262 -0.128975 0.839920
-0.107722 -0.128831 0.838983
-0.106191 -0.128695 0.838098
-0.104722 -0.128631 0.837682
-0.103276 -0.128593 0.837433
-0.101858 -0.128591 0.837417
-0.100452 -0.128603 0.837495
-0.099091 -0.128674 0.837959
-0.097733 -0.128751 0.838463
-0.096400 -0.128865 0.839202
-0.095074 -0.128990 0.840017
-0.093745 -0.129116 0.840838
-0.092397 -0.129219 0.841508
-0.091080 -0.129368 0.842479
-0.089755 -0.129512 0.843415
-0.088453 -0.129694 0.844601
-0.087189 -0.129938 0.846190
-0.085993 -0.130293 0.848501
-0.084822 -0.130698 0.851143
-0.083654 -0.131123 0.853907
-0.082457 -0.131516 0.856467
-0.081221 -0.131861 0.858715
-0.079902 -0.132079 0.860136
-0.078519 -0.132200 0.860925
-0.077146 -0.132341 0.861839
-0.075756 -0.132459 0.862606
-0.074345 -0.132543 0.863154
-0.072965 -0.132686 0.864085
-0.071608 -0.132880 0.865348
-0.070220 -0.133021 0.866269
-0.068860 -0.133224 0.867590
-0.067488 -0.133411 0.868809
-0.066088 -0.133548 0.869703
-0.064682 -0.133682 0.870575
-0.063286 -0.133841 0.871611
-0.061881 -0.133991 0.872585
-0.060498 -0.134194 0.873908
-0.059133 -0.134451 0.875583
-0.057744 -0.134663 0.876964
-0.056365 -0.134910 0.878571
-0.054958 -0.135103 0.879827
-0.053525 -0.135242 0.880734
-0.052064 -0.135313 0.881195
-0.050622 -0.135442 0.882035
-0.049157 -0.135513 0.882498
-0.047701 -0.135614 0.883158
-0.046255 -0.135753 0.884060
-0.044806 -0.135890 0.884954
-0.043354 -0.136030 0.885867
-0.041900 -0.136171 0.886785
-0.040435 -0.136287 0.887539
-0.038955 -0.136359 0.888007
-0.037472 -0.136424 0.888432
-0.035970 -0.136424 0.888432
-0.034458 -0.136384 0.888169
-0.025374 -0.128405 0.836211
-0.023923 -0.128205 0.834908
-0.022448 -0.127842 0.832544
-0.021001 -0.127602 0.830980
-0.019548 -0.127293 0.828969
-0.018099 -0.126954 0.826757
-0.016659 -0.126635 0.824679
-0.015221 -0.126272 0.822318
-0.013787 -0.125874 0.819729
-0.012362 -0.125474 0.817124
-0.010946 -0.125077 0.814534
-0.009542 -0.124721 0.812217
-0.008146 -0.124376 0.809968
-0.006760 -0.124076 0.808017
-0.005382 -0.123796 0.806192
-0.004010 -0.123516 0.804373
-0.002644 -0.123229 0.802503
-0.001285 -0.123006 0.801050
0.000069 -0.122809 0.799764
0.001419 -0.122626 0.798577
0.002767 -0.122542 0.798028
0.004114 -0.122485 0.797653
0.005460 -0.122433 0.797320
0.006807 -0.122411 0.797171
0.008156 -0.122426 0.797274
0.009499 -0.122375 0.796938
0.010839 -0.122293 0.796405
0.012178 -0.122211 0.795872
0.013511 -0.122105 0.795181
0.014842 -0.121990 0.794431
0.016174 -0.121912 0.793924
0.017510 -0.121868 0.793635
0.018842 -0.121803 0.793212
0.020170 -0.121723 0.792696
0.021495 -0.121640 0.792156
0.022823 -0.121582 0.791775
0.024147 -0.121508 0.791291
0.025473 -0.121453 0.790933
0.026799 -0.121403 0.790607
0.028129 -0.121372 0.790409
0.029460 -0.121350 0.790262
0.030802 -0.121376 0.790431
0.032148 -0.121412 0.790668
0.033497 -0.121455 0.790950
0.034800 -0.121338 0.790186
0.036155 -0.121403 0.790606
0.037510 -0.121461 0.790986
0.038865 -0.121517 0.791353
0.040221 -0.121571 0.791705
0.041623 -0.121757 0.792918
0.042955 -0.121735 0.792775
0.044296 -0.121736 0.792778
0.045640 -0.121747 0.792848
0.046981 -0.121747 0.792852
0.048338 -0.121790 0.793127
0.049702 -0.121848 0.793508
0.051074 -0.121920 0.793974
0.052442 -0.121980 0.794369
0.053823 -0.122066 0.794924
0.055182 -0.122099 0.795144
0.056557 -0.122166 0.795577
0.057930 -0.122225 0.795965
0.059346 -0.122371 0.796912
0.060763 -0.122511 0.797825
0.062200 -0.122685 0.798959
0.063630 -0.122838 0.799956
0.065077 -0.123017 0.801119
0.066482 -0.123110 0.801727
0.067898 -0.123221 0.802448
0.069323 -0.123342 0.803239
0.070760 -0.123481 0.804144
0.072218 -0.123649 0.805237
0.073719 -0.123884 0.806765
0.075219 -0.124109 0.808232
0.076716 -0.124321 0.809614
0.078209 -0.124519 0.810900
0.079690 -0.124690 0.812018
0.081155 -0.124833 0.812944
0.082734 -0.125142 0.814956
0.084354 -0.125503 0.817310
0.086000 -0.125890 0.819829
0.087637 -0.126250 0.822178
0.089273 -0.126600 0.824454
0.090778 -0.126756 0.825471
0.092472 -0.127166 0.828142
0.104012 -0.134868 0.878295
0.106686 -0.136389 0.888201
0.108429 -0.136693 0.890184
0.109876 -0.136621 0.889714
0.111289 -0.136509 0.888985
0.112687 -0.136382 0.888156
0.114048 -0.136214 0.887064
0.115405 -0.136046 0.885970
0.116735 -0.135850 0.884695
0.118072 -0.135668 0.883508
0.119382 -0.135460 0.882154
0.120677 -0.135240 0.880723
0.121964 -0.135017 0.879269
0.123247 -0.134794 0.877819
0.124493 -0.134537 0.876145
0.125780 -0.134330 0.874792
0.127090 -0.134151 0.873630
0.128401 -0.133979 0.872505
0.129746 -0.133845 0.871633
0.131099 -0.133721 0.870829
0.132424 -0.133573 0.869863
0.133731 -0.133409 0.868798
0.135058 -0.133270 0.867891
0.136324 -0.133074 0.866612
0.137636 -0.132926 0.865650
0.138894 -0.132730 0.864372
0.140068 -0.132458 0.862600
0.141197 -0.132150 0.860597
0.142354 -0.131873 0.858796
0.143515 -0.131607 0.857059
0.144767 -0.131428 0.855895
0.146077 -0.131305 0.855092
0.147407 -0.131202 0.854423
0.148701 -0.131069 0.853558
0.149960 -0.130909 0.852516
0.151207 -0.130740 0.851418
0.152548 -0.130657 0.850871
0.153857 -0.130547 0.850157
0.155191 -0.130460 0.849592
0.156548 -0.130394 0.849162
0.157885 -0.130313 0.848632
0.159154 -0.130177 0.847748
0.160385 -0.130013 0.846680
0.161529 -0.129783 0.845180
0.162662 -0.129547 0.843644
0.163824 -0.129338 0.842286
0.165043 -0.129178 0.841240
0.166329 -0.129072 0.840554
0.167686 -0.129023 0.840230
0.169036 -0.128969 0.839881
0.170368 -0.128903 0.839450
0.171689 -0.128829 0.838971
0.173042 -0.128781 0.838655
0.174378 -0.128720 0.838261
0.175693 -0.128646 0.837776
0.177018 -0.128579 0.837342
0.178361 -0.128526 0.836999
0.179708 -0.128478 0.836686
0.181140 -0.128491 0.836766
0.182641 -0.128551 0.837162
0.184183 -0.128640 0.837739
0.185764 -0.128754 0.838482
0.187364 -0.128879 0.839298
0.188930 -0.128980 0.839955
0.190466 -0.130483 0.840465
0.190479 -0.129067 0.840522
-0.124898 -0.129036 0.849695
-0.123398 -0.128969 0.849255
-0.121901 -0.128904 0.848832
-0.120300 -0.128727 0.847661
-0.118738 -0.128586 0.846738
-0.117190 -0.128460 0.845902
-0.115649 -0.128335 0.845084
-0.114119 -0.128223 0.844342
-0.112561 -0.128073 0.843359
-0.110993 -0.127909 0.842279
-0.109426 -0.127742 0.841177
-0.107884 -0.127601 0.840250
-0.106352 -0.127468 0.839370
-0.104883 -0.127406 0.838963
-0.103444 -0.127381 0.838798
-0.102035 -0.127392 0.838874
-0.100637 -0.127418 0.839042
-0.099294 -0.127514 0.839677
-0.097951 -0.127614 0.840336
-0.096618 -0.127730 0.841100
-0.095291 -0.127857 0.841934
-0.093968 -0.127994 0.842839
-0.092609 -0.128085 0.843438
-0.091281 -0.128223 0.844343
-0.089952 -0.128363 0.845263
-0.088638 -0.128530 0.846367
-0.087371 -0.128772 0.847956
-0.086173 -0.129124 0.850280
-0.084983 -0.129501 0.852759
-0.083787 -0.129881 0.855265
-0.082554 -0.130217 0.857476
-0.081276 -0.130494 0.859298
-0.079925 -0.130659 0.860388
-0.078527 -0.130754 0.861009
-0.077146 -0.130881 0.861844
-0.075763 -0.131008 0.862683
-0.074359 -0.131105 0.863320
-0.072986 -0.131260 0.864345
-0.071631 -0.131454 0.865619
-0.070242 -0.131593 0.866534
-0.068874 -0.131780 0.867765
-0.067495 -0.131951 0.868892
-0.066087 -0.132074 0.869700
-0.064682 -0.132206 0.870570
-0.063279 -0.132349 0.871514
-0.061868 -0.132485 0.872408
-0.060485 -0.132684 0.873722
-0.059121 -0.132940 0.875402
-0.057738 -0.133163 0.876874
-0.056365 -0.133422 0.878578
-0.054963 -0.133625 0.879915
-0.053531 -0.133762 0.880819
-0.052069 -0.133831 0.881275
-0.050622 -0.133947 0.882035
-0.049157 -0.134017 0.882498
-0.047706 -0.134131 0.883247
-0.046260 -0.134270 0.884161
-0.044815 -0.134420 0.885150
-0.043363 -0.134557 0.886055
-0.041908 -0.134695 0.886964
-0.040443 -0.134808 0.887707
-0.038966 -0.134892 0.888256
-0.037483 -0.134958 0.888691
-0.035984 -0.134971 0.888778
-0.034475 -0.134944 0.888602
-0.025548 -0.127861 0.841958
-0.024024 -0.127328 0.838450
-0.022490 -0.126671 0.834124
-0.021045 -0.126460 0.832735
-0.019593 -0.126178 0.830878
-0.018142 -0.125852 0.828730
-0.016700 -0.125548 0.826729
-0.015260 -0.125201 0.824447
-0.013824 -0.124819 0.821931
-0.012395 -0.124422 0.819315
-0.010974 -0.124014 0.816628
-0.009564 -0.123635 0.814130
-0.008165 -0.123287 0.811839
-0.006775 -0.122967 0.809736
-0.005394 -0.122690 0.807906
-0.004020 -0.122435 0.806229
-0.002651 -0.122174 0.804511
-0.001289 -0.121957 0.803083
0.000069 -0.121794 0.802007
0.001423 -0.121625 0.800898
0.002775 -0.121541 0.800346
0.004126 -0.121496 0.800049
0.005477 -0.121455 0.799776
0.006828 -0.121435 0.799644
0.008182 -0.121463 0.799831
0.009531 -0.121422 0.799562
0.010876 -0.121349 0.799077
0.012218 -0.121267 0.798541
0.013558 -0.121170 0.797902
0.014892 -0.121056 0.797152
0.016230 -0.120980 0.796647
0.017570 -0.120937 0.796368
0.018907 -0.120874 0.795950
0.020238 -0.120786 0.795369
0.021567 -0.120703 0.794823
0.022900 -0.120644 0.794439
0.024222 -0.120540 0.793753
0.025552 -0.120486 0.793393
0.026880 -0.120424 0.792986
0.028208 -0.120372 0.792648
0.029537 -0.120327 0.792352
0.030882 -0.120348 0.792489
0.032226 -0.120364 0.792591
0.033575 -0.120397 0.792811
0.034931 -0.120450 0.793159
0.036288 -0.120505 0.793521
0.037645 -0.120554 0.793843
0.038999 -0.120590 0.794082
0.040352 -0.120621 0.794284
0.041701 -0.120639 0.794405
0.043044 -0.120641 0.794415
0.044392 -0.120654 0.794505
0.045744 -0.120677 0.794654
0.047096 -0.120699 0.794796
0.048456 -0.120740 0.795069
0.049823 -0.120796 0.795438
0.051193 -0.120855 0.795826
0.052559 -0.120903 0.796140
0.053937 -0.120975 0.796615
0.055304 -0.121018 0.796899
0.056682 -0.121085 0.797344
0.058069 -0.121167 0.797880
0.059495 -0.121324 0.798916
0.060917 -0.121465 0.799843
0.062348 -0.121619 0.800860
0.063768 -0.121746 0.801693
0.065205 -0.121899 0.802701
0.066606 -0.121979 0.803228
0.068027 -0.122092 0.803969
0.069462 -0.122225 0.804849
0.070922 -0.122397 0.805981
0.072401 -0.122595 0.807284
0.073920 -0.122851 0.808972
0.075425 -0.123075 0.810448
0.076926 -0.123286 0.811831
0.078415 -0.123468 0.813033
0.079887 -0.123618 0.814023
0.081355 -0.123759 0.814947
0.082954 -0.124090 0.817131
0.084583 -0.124454 0.819524
0.086222 -0.124821 0.821940
0.087834 -0.125139 0.824035
0.089437 -0.125433 0.825973
0.091133 -0.125847 0.828696
0.093089 -0.126601 0.833664
0.104609 -0.134144 0.883337
0.106969 -0.135240 0.890553
0.108432 -0.135187 0.890204
0.109880 -0.135117 0.889742
0.111303 -0.135020 0.889100
0.112701 -0.134893 0.888265
0.114074 -0.134742 0.887271
0.115442 -0.134587 0.886252
0.116784 -0.134408 0.885071
0.118110 -0.134215 0.883799
0.119420 -0.134008 0.882439
0.120704 -0.133777 0.880916
0.121979 -0.133543 0.879377
0.123250 -0.133310 0.877841
0.124494 -0.133053 0.876152
0.125782 -0.132848 0.874802
0.127078 -0.132658 0.873547
0.128387 -0.132485 0.872407
0.129730 -0.132350 0.871522
0.131097 -0.132243 0.870815
0.132425 -0.132100 0.869871
0.133747 -0.131953 0.868907
0.135064 -0.131805 0.867929
0.136327 -0.131607 0.866629
0.137625 -0.131447 0.865576
0.138881 -0.131252 0.864289
0.140054 -0.130982 0.862515
0.141197 -0.130690 0.860591
0.142366 -0.130429 0.858871
0.143529 -0.130167 0.857146
0.144783 -0.129991 0.855987
0.146092 -0.129868 0.855179
0.147420 -0.129765 0.854501
0.148714 -0.129634 0.853637
0.149977 -0.129478 0.852609
0.151221 -0.129310 0.851500
0.152562 -0.129226 0.850948
0.153883 -0.129127 0.850300
0.155208 -0.129034 0.849684
0.156579 -0.128980 0.849328
0.157905 -0.128890 0.848739
0.159169 -0.128752 0.847830
0.160372 -0.128567 0.846611
0.161516 -0.128339 0.845109
0.162632 -0.128093 0.843488
0.163808 -0.127898 0.842203
0.165027 -0.127740 0.841161
0.166313 -0.127635 0.840473
0.167653 -0.127573 0.840067
0.168985 -0.127507 0.839627
0.170303 -0.127431 0.839128
0.171609 -0.127347 0.838577
0.172961 -0.127299 0.838260
0.174295 -0.127239 0.837862
0.175625 -0.127176 0.837449
0.176966 -0.127123 0.837098
0.178343 -0.127095 0.836916
0.179725 -0.127072 0.836763
0.181174 -0.127096 0.836921
0.182674 -0.127156 0.837315
0.184215 -0.127242 0.837883
0.185781 -0.127345 0.838560
0.187367 -0.127459 0.839311
0.188951 -0.127571 0.840049
-0.125069 -0.127770 0.850857
-0.123533 -0.127669 0.850184
-0.122017 -0.127587 0.849639
-0.120408 -0.127404 0.848420
-0.118820 -0.127239 0.847325
-0.117271 -0.127113 0.846483
-0.115737 -0.127000 0.845730
-0.114218 -0.126901 0.845071
-0.112680 -0.126778 0.844251
-0.111131 -0.126639 0.843328
