1691
0.187562 -0.133700 0.833870
-0.110908 -0.133518 0.841633
-0.109409 -0.133425 0.841049
-0.107857 -0.133264 0.840034
-0.106268 -0.133053 0.838702
-0.104661 -0.132813 0.837191
-0.103050 -0.132562 0.835606
-0.101412 -0.132268 0.833750
-0.099845 -0.132059 0.832438
-0.098323 -0.131905 0.831467
-0.096818 -0.131771 0.830619
-0.095372 -0.131713 0.830255
-0.093567 -0.131150 0.826705
-0.079911 -0.121049 0.763032
-0.078509 -0.120876 0.761945
-0.077108 -0.120700 0.760836
-0.075674 -0.120464 0.759349
-0.074233 -0.120210 0.757745
-0.072791 -0.119945 0.756072
-0.071355 -0.119679 0.754399
-0.069926 -0.119417 0.752745
-0.068487 -0.119128 0.750925
-0.067065 -0.118857 0.749215
-0.065646 -0.118583 0.747489
-0.064221 -0.118284 0.745607
-0.062802 -0.117987 0.743733
-0.061404 -0.117718 0.742035
-0.060013 -0.117450 0.740350
-0.058643 -0.117214 0.738861
-0.057296 -0.117013 0.737593
-0.055971 -0.116851 0.736573
-0.054652 -0.116693 0.735579
-0.053331 -0.116524 0.734510
-0.052000 -0.116324 0.733251
-0.050668 -0.116112 0.731913
-0.049328 -0.115872 0.730403
-0.047995 -0.115634 0.728903
-0.046678 -0.115425 0.727584
-0.045382 -0.115256 0.726519
-0.044108 -0.115139 0.725780
-0.042844 -0.115037 0.725140
-0.041591 -0.114962 0.724667
-0.040335 -0.114876 0.724125
-0.039077 -0.114777 0.723498
-0.037822 -0.114678 0.722876
-0.036571 -0.114590 0.722318
-0.035324 -0.114505 0.721781
-0.034078 -0.114418 0.721234
-0.032839 -0.114348 0.720795
-0.031596 -0.114262 0.720251
-0.030358 -0.114185 0.719769
-0.029120 -0.114101 0.719235
-0.027889 -0.114042 0.718864
-0.026661 -0.113984 0.718501
-0.025436 -0.113938 0.718211
-0.024210 -0.113884 0.717873
-0.022998 -0.113889 0.717903
-0.021787 -0.113905 0.718000
-0.020582 -0.113952 0.718298
-0.019378 -0.114013 0.718681
-0.018176 -0.114098 0.719221
-0.016969 -0.114156 0.719587
-0.015763 -0.114232 0.720066
-0.014552 -0.114284 0.720390
-0.013343 -0.114354 0.720831
-0.012141 -0.114519 0.721871
-0.010944 -0.114756 0.723365
-0.009741 -0.114996 0.724877
-0.008534 -0.115237 0.726398
-0.007319 -0.115449 0.727737
-0.006093 -0.115537 0.728291
-0.004862 -0.115528 0.728232
-0.003629 -0.115478 0.727918
-0.002397 -0.115418 0.727537
-0.001167 -0.115358 0.727160
0.000063 -0.115256 0.726517
0.001290 -0.115159 0.725909
0.002514 -0.115050 0.725220
0.003737 -0.114931 0.724472
0.004958 -0.114860 0.724021
0.006181 -0.114841 0.723902
0.007405 -0.114838 0.723881
0.008630 -0.114860 0.724022
0.009860 -0.114924 0.724422
0.011089 -0.114973 0.724733
0.012320 -0.115026 0.725070
0.013554 -0.115096 0.725510
0.014788 -0.115154 0.725874
0.016014 -0.115145 0.725819
0.017235 -0.115105 0.725565
0.018456 -0.115070 0.725344
0.019674 -0.115020 0.725030
0.020889 -0.114965 0.724684
0.022112 -0.114954 0.724615
0.023339 -0.114961 0.724657
0.024562 -0.114952 0.724604
0.025789 -0.114962 0.724668
0.027021 -0.114990 0.724840
0.028255 -0.115027 0.725077
0.029482 -0.115031 0.725102
0.030713 -0.115051 0.725227
0.031939 -0.115049 0.725215
0.033159 -0.115028 0.725082
0.034383 -0.115025 0.725061
0.035615 -0.115042 0.725172
0.036854 -0.115083 0.725429
0.038091 -0.115117 0.725640
0.039344 -0.115193 0.726119
0.040589 -0.115242 0.726428
0.041835 -0.115291 0.726739
0.043071 -0.115313 0.726877
0.044314 -0.115349 0.727105
0.045547 -0.115358 0.727161
0.046769 -0.115341 0.727052
0.047986 -0.115313 0.726876
0.049202 -0.115282 0.726683
0.050412 -0.115240 0.726420
0.051611 -0.115174 0.725999
0.052811 -0.115114 0.725625
0.054005 -0.115045 0.725185
0.055193 -0.114966 0.724690
0.056371 -0.114870 0.724086
0.057565 -0.114810 0.723707
0.058750 -0.114734 0.723227
0.059938 -0.114669 0.722815
0.061129 -0.114610 0.722445
0.062313 -0.114543 0.722021
0.063481 -0.114447 0.721421
0.064645 -0.114349 0.720803
0.065812 -0.114260 0.720237
0.066973 -0.114163 0.719626
0.068149 -0.114095 0.719199
0.069315 -0.114012 0.718677
0.070493 -0.113954 0.718309
0.071659 -0.113877 0.717824
0.072858 -0.113854 0.717678
0.074054 -0.113827 0.717512
0.075263 -0.113821 0.717472
0.076470 -0.113813 0.717421
0.077705 -0.113845 0.717625
0.078919 -0.113846 0.717631
0.080154 -0.113876 0.717822
0.081415 -0.113943 0.718240
0.082671 -0.114001 0.718610
0.083922 -0.114050 0.718916
0.085186 -0.114115 0.719325
0.086459 -0.114190 0.719798
0.087736 -0.114269 0.720298
0.089044 -0.114385 0.721026
0.090348 -0.114493 0.721709
0.091661 -0.114608 0.722435
0.092976 -0.114724 0.723168
0.094302 -0.114850 0.723958
0.095632 -0.114978 0.724768
0.096973 -0.115115 0.725630
0.098310 -0.115244 0.726443
0.099655 -0.115380 0.727299
0.101013 -0.115527 0.728225
0.102376 -0.115676 0.729163
0.103743 -0.115826 0.730113
0.105112 -0.115974 0.731046
0.106464 -0.116101 0.731846
0.107810 -0.116218 0.732585
0.109187 -0.116366 0.733516
0.110571 -0.116518 0.734474
0.112017 -0.116730 0.735811
0.113477 -0.116954 0.737220
0.114964 -0.117199 0.738763
0.116522 -0.117511 0.740732
0.118152 -0.117887 0.743103
0.119781 -0.118255 0.745424
0.121437 -0.118642 0.747864
0.123043 -0.118973 0.749948
0.124569 -0.119220 0.751505
0.126035 -0.119405 0.752670
0.127484 -0.119571 0.753716
0.129161 -0.119944 0.756072
0.131118 -0.120568 0.760005
0.133806 -0.121846 0.768061
0.136581 -0.123178 0.776454
0.139375 -0.124502 0.784798
0.141845 -0.125513 0.791176
0.143994 -0.126224 0.795657
0.145461 -0.126331 0.796327
0.147012 -0.126507 0.797436
0.148565 -0.126681 0.798535
0.151023 -0.127618 0.804441
0.153485 -0.128540 0.810254
0.155931 -0.129434 0.815889
0.158214 -0.130177 0.820573
0.160420 -0.130845 0.824784
0.161692 -0.130746 0.824160
0.163041 -0.130711 0.823940
0.164361 -0.130652 0.823570
0.165716 -0.130623 0.823384
0.167115 -0.130629 0.823421
0.168525 -0.130643 0.823509
0.169959 -0.130675 0.823712
0.171434 -0.130738 0.824107
0.172890 -0.130786 0.824408
0.174426 -0.130892 0.825082
0.175979 -0.131010 0.825821
0.177638 -0.131204 0.827046
0.179300 -0.131398 0.828268
0.181025 -0.131633 0.829753
0.182673 -0.131811 0.830872
0.184361 -0.132013 0.832147
0.185972 -0.132158 0.833062
0.187581 -0.132300 0.833955
-0.107790 -0.131759 0.839516
-0.106240 -0.131597 0.838483
-0.104676 -0.131413 0.837310
-0.103086 -0.131190 0.835891
-0.101456 -0.130911 0.834115
-0.099877 -0.130690 0.832705
-0.098342 -0.130521 0.831628
-0.096828 -0.130376 0.830700
-0.095385 -0.130322 0.830361
-0.093212 -0.129256 0.823568
-0.081257 -0.119838 0.763560
-0.079875 -0.119701 0.762686
-0.078461 -0.119511 0.761479
-0.077043 -0.119309 0.760188
-0.075610 -0.119076 0.758707
-0.074169 -0.118823 0.757090
-0.072727 -0.118559 0.755408
-0.071280 -0.118277 0.753612
-0.069846 -0.118006 0.751886
-0.068402 -0.117708 0.749991
-0.066980 -0.117438 0.748269
-0.065564 -0.117168 0.746550
-0.064146 -0.116884 0.744737
-0.062729 -0.116591 0.742869
-0.061333 -0.116326 0.741180
-0.059944 -0.116062 0.739502
-0.058582 -0.115841 0.738092
-0.057246 -0.115662 0.736951
-0.055928 -0.115514 0.736011
-0.054610 -0.115357 0.735011
-0.053285 -0.115180 0.733880
-0.051942 -0.114954 0.732439
-0.050599 -0.114716 0.730924
-0.049258 -0.114470 0.729356
-0.047927 -0.114236 0.727866
-0.046616 -0.114041 0.726623
-0.045330 -0.113894 0.725688
-0.044065 -0.113797 0.725071
-0.042805 -0.113705 0.724484
-0.041553 -0.113630 0.724007
-0.040294 -0.113533 0.723390
-0.039035 -0.113426 0.722707
-0.037777 -0.113319 0.722026
-0.036523 -0.113216 0.721366
-0.035277 -0.113131 0.720822
-0.034035 -0.113053 0.720327
-0.032800 -0.112993 0.719946
-0.031559 -0.112909 0.719408
-0.030325 -0.112842 0.718984
-0.029088 -0.112757 0.718445
-0.027856 -0.112688 0.718005
-0.026627 -0.112622 0.717584
-0.025403 -0.112576 0.717289
-0.024179 -0.112522 0.716945
-0.022962 -0.112500 0.716802
-0.021748 -0.112485 0.716711
-0.020539 -0.112502 0.716816
-0.019333 -0.112533 0.717013
-0.018130 -0.112592 0.717391
-0.016925 -0.112641 0.717700
-0.015720 -0.112705 0.718109
-0.014511 -0.112745 0.718363
-0.013305 -0.112812 0.718795
-0.012102 -0.112925 0.719513
-0.010904 -0.113122 0.720766
-0.009704 -0.113336 0.722133
-0.008500 -0.113562 0.723570
-0.007289 -0.113755 0.724799
-0.006071 -0.113876 0.725569
-0.004845 -0.113903 0.725745
-0.003618 -0.113884 0.725621
-0.002390 -0.113854 0.725435
-0.001164 -0.113818 0.725202
0.000062 -0.113737 0.724685
0.001287 -0.113660 0.724195
0.002509 -0.113561 0.723563
0.003728 -0.113454 0.722886
0.004948 -0.113403 0.722561
0.006170 -0.113413 0.722620
0.007393 -0.113428 0.722718
0.008618 -0.113469 0.722977
0.009845 -0.113531 0.723375
0.011072 -0.113569 0.723614
0.012299 -0.113600 0.723810
0.013527 -0.113639 0.724059
0.014756 -0.113674 0.724287
0.015979 -0.113665 0.724230
0.017199 -0.113638 0.724053
0.018419 -0.113615 0.723910
0.019638 -0.113586 0.723723
0.020855 -0.113550 0.723495
0.022076 -0.113541 0.723436
0.023301 -0.113550 0.723494
0.024523 -0.113543 0.723449
0.025749 -0.113555 0.723526
0.026978 -0.113582 0.723700
0.028213 -0.113630 0.724003
0.029441 -0.113643 0.724087
0.030673 -0.113672 0.724269
0.031902 -0.113688 0.724372
0.033120 -0.113668 0.724247
0.034347 -0.113674 0.724288
0.035579 -0.113701 0.724456
0.036817 -0.113741 0.724712
0.038053 -0.113773 0.724919
0.039307 -0.113856 0.725447
0.040551 -0.113905 0.725759
0.041797 -0.113956 0.726084
0.043036 -0.113987 0.726282
0.044274 -0.114014 0.726451
0.045502 -0.114012 0.726439
0.046714 -0.113974 0.726199
0.047914 -0.113908 0.725775
0.049102 -0.113818 0.725200
0.050284 -0.113718 0.724563
0.051455 -0.113600 0.723813
0.052635 -0.113505 0.723211
0.053826 -0.113438 0.722781
0.055025 -0.113391 0.722484
0.056219 -0.113336 0.722129
0.057424 -0.113306 0.721940
0.058620 -0.113258 0.721632
0.059810 -0.113201 0.721272
0.060994 -0.113135 0.720852
0.062176 -0.113068 0.720424
0.063340 -0.112973 0.719819
0.064498 -0.112869 0.719157
0.065657 -0.112772 0.718537
0.066820 -0.112685 0.717984
0.067994 -0.112619 0.717561
0.069162 -0.112546 0.717095
0.070349 -0.112506 0.716843
0.071531 -0.112458 0.716537
0.072735 -0.112447 0.716464
0.073936 -0.112432 0.716371
0.075150 -0.112437 0.716400
0.076369 -0.112447 0.716465
0.077597 -0.112472 0.716625
0.078815 -0.112482 0.716688
0.080054 -0.112520 0.716930
0.081319 -0.112594 0.717401
0.082575 -0.112652 0.717776
0.083839 -0.112719 0.718203
0.085108 -0.112793 0.718669
0.086393 -0.112884 0.719251
0.087670 -0.112962 0.719751
0.088983 -0.113086 0.720537
0.090293 -0.113201 0.721270
0.091613 -0.113325 0.722061
0.092928 -0.113441 0.722797
0.094261 -0.113574 0.723650
0.095584 -0.113692 0.724401
0.096924 -0.113827 0.725262
0.098259 -0.113954 0.726068
0.099604 -0.114088 0.726925
0.100962 -0.114234 0.727856
0.102333 -0.114392 0.728857
0.103700 -0.114541 0.729809
0.105077 -0.114698 0.730806
0.106432 -0.114826 0.731622
0.107778 -0.114943 0.732368
0.109162 -0.115096 0.733347
0.110555 -0.115256 0.734363
0.111999 -0.115465 0.735699
0.113459 -0.115686 0.737103
0.114943 -0.115925 0.738628
0.116499 -0.116232 0.740581
0.118129 -0.116605 0.742958
0.119771 -0.116982 0.745365
0.121439 -0.117377 0.747876
0.123065 -0.117722 0.750080
0.124591 -0.117967 0.751636
0.126036 -0.118130 0.752675
0.127462 -0.118273 0.753587
0.129112 -0.118618 0.755784
0.131268 -0.119417 0.760878
0.133948 -0.120672 0.768874
0.136727 -0.121992 0.777285
0.139460 -0.123247 0.785278
0.141898 -0.124219 0.791471
0.143808 -0.124714 0.794629
0.145287 -0.124831 0.795371
0.146847 -0.125015 0.796543
0.148385 -0.125176 0.797570
0.150800 -0.126068 0.803254
0.153227 -0.126953 0.808894
0.155648 -0.127819 0.814408
0.157937 -0.128561 0.819136
0.160169 -0.129245 0.823495
0.161504 -0.129199 0.823203
0.162900 -0.129202 0.823225
0.164294 -0.129204 0.823235
0.165681 -0.129200 0.823211
0.167098 -0.129220 0.823338
0.168524 -0.129246 0.823504
0.169970 -0.129287 0.823767
0.171432 -0.129339 0.824098
0.172917 -0.129408 0.824535
0.174473 -0.129529 0.825305
0.176059 -0.129669 0.826200
0.177721 -0.129863 0.827436
0.179397 -0.130064 0.828716
0.181090 -0.130274 0.830051
0.182724 -0.130439 0.831104
0.184382 -0.130618 0.832245
0.185994 -0.130762 0.833164
0.187584 -0.130888 0.833968
-0.107731 -0.130264 0.839052
-0.106198 -0.130124 0.838148
-0.104683 -0.130002 0.837363
-0.103111 -0.129805 0.836098
-0.101492 -0.129543 0.834409
-0.099909 -0.129320 0.832969
-0.098353 -0.129126 0.831723
-0.096820 -0.128957 0.830635
-0.095367 -0.128891 0.830210
-0.092903 -0.127436 0.820834
-0.083146 -0.120707 0.769098
-0.083332 -0.119670 0.770818
-0.081249 -0.118533 0.763490
-0.079862 -0.118389 0.762563
-0.078438 -0.118186 0.761257
-0.076996 -0.117949 0.759728
-0.075544 -0.117688 0.758047
-0.074098 -0.117427 0.756368
-0.072658 -0.117166 0.754687
-0.071206 -0.116877 0.752826
-0.069771 -0.116607 0.751085
-0.068322 -0.116301 0.749116
-0.066896 -0.116025 0.747333
-0.065478 -0.115750 0.745568
-0.064067 -0.115481 0.743830
-0.062658 -0.115202 0.742033
-0.061269 -0.114949 0.740404
-0.059891 -0.114707 0.738847
-0.058536 -0.114500 0.737517
-0.057202 -0.114326 0.736393
-0.055882 -0.114173 0.735405
-0.054560 -0.114007 0.734339
-0.053220 -0.113796 0.732977
-0.051865 -0.113542 0.731344
-0.050518 -0.113295 0.729755
-0.049179 -0.113052 0.728187
-0.047855 -0.112832 0.726770
-0.046562 -0.112677 0.725774
-0.045288 -0.112561 0.725022
-0.044029 -0.112475 0.724470
-0.042769 -0.112382 0.723870
-0.041513 -0.112297 0.723321
-0.040249 -0.112181 0.722577
-0.038987 -0.112065 0.721830
-0.037728 -0.111950 0.721091
-0.036470 -0.111832 0.720327
-0.035226 -0.111746 0.719777
-0.033988 -0.111678 0.719339
-0.032758 -0.111629 0.719023
-0.031520 -0.111549 0.718507
-0.030289 -0.111492 0.718140
-0.029053 -0.111406 0.717583
-0.027820 -0.111328 0.717081
-0.026590 -0.111252 0.716594
-0.025368 -0.111206 0.716295
-0.024145 -0.111152 0.715948
-0.022927 -0.111113 0.715695
-0.021711 -0.111082 0.715497
-0.020499 -0.111072 0.715434
-0.019291 -0.111076 0.715460
-0.018088 -0.111115 0.715713
-0.016883 -0.111153 0.715955
-0.015679 -0.111198 0.716242
-0.014473 -0.111234 0.716474
-0.013271 -0.111306 0.716939
-0.012072 -0.111435 0.717770
-0.010877 -0.111615 0.718933
-0.009680 -0.111829 0.720308
-0.008478 -0.112041 0.721677
-0.007269 -0.112213 0.722781
-0.006052 -0.112306 0.723384
-0.004831 -0.112351 0.723669
-0.003608 -0.112341 0.723609
-0.002384 -0.112323 0.723492
-0.001161 -0.112296 0.723320
0.000062 -0.112232 0.722907
0.001284 -0.112173 0.722522
0.002503 -0.112084 0.721950
0.003721 -0.111998 0.721397
0.004939 -0.111966 0.721193
0.006159 -0.111985 0.721317
0.007380 -0.112002 0.721423
0.008603 -0.112050 0.721735
0.009828 -0.112103 0.722073
0.011050 -0.112121 0.722191
0.012272 -0.112131 0.722257
0.013494 -0.112141 0.722320
0.014718 -0.112158 0.722429
0.015938 -0.112150 0.722375
0.017156 -0.112132 0.722261
0.018376 -0.112122 0.722197
0.019596 -0.112120 0.722186
0.020814 -0.112103 0.722077
0.022035 -0.112104 0.722078
0.023259 -0.112122 0.722195
0.024481 -0.112123 0.722205
0.025706 -0.112144 0.722336
0.026936 -0.112180 0.722573
0.028170 -0.112228 0.722882
0.029398 -0.112251 0.723026
0.030632 -0.112296 0.723318
0.031863 -0.112323 0.723491
0.033083 -0.112315 0.723440
0.034312 -0.112333 0.723555
0.035544 -0.112361 0.723733
0.036778 -0.112391 0.723932
0.038012 -0.112422 0.724130
0.039265 -0.112504 0.724658
0.040507 -0.112553 0.724975
0.041752 -0.112604 0.725303
0.042993 -0.112643 0.725555
0.044227 -0.112662 0.725673
0.045446 -0.112643 0.725550
0.046652 -0.112594 0.725236
0.047842 -0.112508 0.724683
0.049011 -0.112381 0.723866
0.050177 -0.112252 0.723033
0.051337 -0.112116 0.722156
0.052510 -0.112012 0.721485
0.053694 -0.111938 0.721012
0.054895 -0.111902 0.720778
0.056091 -0.111858 0.720494
0.057299 -0.111838 0.720367
0.058489 -0.111784 0.720020
0.059680 -0.111736 0.719711
0.060856 -0.111661 0.719226
0.062030 -0.111585 0.718735
0.063192 -0.111491 0.718135
0.064356 -0.111405 0.717580
0.065519 -0.111320 0.717032
0.066691 -0.111252 0.716595
0.067873 -0.111204 0.716286
0.069050 -0.111150 0.715937
0.070242 -0.111121 0.715749
0.071433 -0.111091 0.715557
0.072642 -0.111090 0.715549
0.073853 -0.111093 0.715567
0.075072 -0.111106 0.715651
0.076295 -0.111124 0.715771
0.077522 -0.111149 0.715930
0.078739 -0.111159 0.715997
0.079977 -0.111198 0.716242
0.081243 -0.111272 0.716723
0.082504 -0.111340 0.717157
0.083768 -0.111407 0.717593
0.085049 -0.111497 0.718174
0.086335 -0.111590 0.718772
0.087618 -0.111677 0.719329
0.088926 -0.111792 0.720070
0.090235 -0.111905 0.720800
0.091547 -0.112020 0.721538
0.092867 -0.112141 0.722322
0.094201 -0.112275 0.723184
0.095530 -0.112401 0.723994
0.096869 -0.112535 0.724854
0.098208 -0.112665 0.725696
0.099545 -0.112790 0.726500
0.100902 -0.112933 0.727422
0.102273 -0.113090 0.728429
0.103656 -0.113255 0.729497
0.105043 -0.113421 0.730567
0.106413 -0.113566 0.731498
0.107762 -0.113684 0.732258
0.109154 -0.113845 0.733292
0.110546 -0.114002 0.734307
0.111991 -0.114209 0.735642
0.113443 -0.114420 0.736996
0.114923 -0.114654 0.738503
0.116477 -0.114955 0.740442
0.118115 -0.115332 0.742873
0.119760 -0.115708 0.745293
0.121440 -0.116110 0.747882
0.123077 -0.116462 0.750153
0.124603 -0.116704 0.751707
0.126038 -0.116856 0.752688
0.127444 -0.116978 0.753477
0.129299 -0.117507 0.756880
0.131710 -0.118524 0.763436
0.134426 -0.119795 0.771619
0.137165 -0.121061 0.779773
0.139859 -0.122264 0.787520
0.142030 -0.122991 0.792208
0.143677 -0.123255 0.793905
0.145139 -0.123357 0.794562
0.146668 -0.123514 0.795571
0.148320 -0.123770 0.797222
0.150711 -0.124632 0.802777
0.153123 -0.125497 0.808346
0.155537 -0.126348 0.813826
0.157845 -0.127098 0.818660
0.159967 -0.127687 0.822453
0.161350 -0.127682 0.822419
0.162778 -0.127711 0.822607
0.164230 -0.127758 0.822913
0.165664 -0.127792 0.823129
0.167102 -0.127827 0.823358
0.168546 -0.127867 0.823610
0.170006 -0.127918 0.823940
0.171464 -0.127966 0.824252
0.172967 -0.128048 0.824776
0.174541 -0.128179 0.825625
0.176146 -0.128332 0.826607
0.177808 -0.128523 0.827839
0.179483 -0.128721 0.829113
0.181160 -0.128917 0.830374
0.182779 -0.129068 0.831351
0.184419 -0.129233 0.832411
0.186029 -0.129374 0.833317
0.187584 -0.129475 0.833967
-0.106141 -0.128634 0.837698
-0.104679 -0.128578 0.837334
-0.103130 -0.128412 0.836254
-0.101531 -0.128178 0.834732
-0.099946 -0.127956 0.833282
-0.098379 -0.127750 0.831943
-0.096835 -0.127569 0.830763
-0.095367 -0.127483 0.830203
-0.083466 -0.118554 0.772054
-0.081216 -0.117190 0.763175
-0.079820 -0.117035 0.762162
-0.078389 -0.116822 0.760778
-0.076932 -0.116563 0.759092
-0.075487 -0.116315 0.757476
-0.074043 -0.116059 0.755809
-0.072605 -0.115803 0.754138
-0.071149 -0.115509 0.752226
-0.069710 -0.115232 0.750422
-0.068250 -0.114910 0.748326
-0.066825 -0.114636 0.746540
-0.065404 -0.114358 0.744733
-0.063992 -0.114085 0.742953
-0.062590 -0.113819 0.741221
-0.061211 -0.113587 0.739707
-0.059836 -0.113350 0.738166
-0.058492 -0.113164 0.736953
-0.057164 -0.113002 0.735898
-0.055844 -0.112849 0.734903
-0.054514 -0.112667 0.733717
-0.053164 -0.112436 0.732213
-0.051797 -0.112156 0.730392
-0.050451 -0.111909 0.728782
-0.049113 -0.111668 0.727213
-0.047799 -0.111471 0.725929
-0.046517 -0.111340 0.725074
-0.045252 -0.111244 0.724449
-0.043991 -0.111151 0.723845
-0.042725 -0.111042 0.723135
-0.041461 -0.110930 0.722407
-0.040191 -0.110797 0.721538
-0.038927 -0.110671 0.720720
-0.037667 -0.110549 0.719925
-0.036414 -0.110439 0.719211
-0.035174 -0.110364 0.718721
-0.033941 -0.110306 0.718346
-0.032713 -0.110261 0.718049
-0.031480 -0.110192 0.717597
-0.030249 -0.110128 0.717182
-0.029012 -0.110033 0.716566
-0.027778 -0.109946 0.716000
-0.026548 -0.109862 0.715453
-0.025326 -0.109808 0.715102
-0.024107 -0.109764 0.714812
-0.022891 -0.109727 0.714573
-0.021675 -0.109689 0.714327
-0.020464 -0.109670 0.714202
-0.019257 -0.109671 0.714208
-0.018053 -0.109691 0.714338
-0.016848 -0.109710 0.714464
-0.015644 -0.109736 0.714628
-0.014439 -0.109760 0.714790
-0.013237 -0.109814 0.715139
-0.012042 -0.109942 0.715971
-0.010850 -0.110129 0.717192
-0.009657 -0.110349 0.718625
-0.008458 -0.110551 0.719935
-0.007251 -0.110709 0.720970
-0.006037 -0.110800 0.721561
-0.004819 -0.110836 0.721795
-0.003598 -0.110827 0.721739
-0.002378 -0.110817 0.721673
-0.001158 -0.110797 0.721542
0.000062 -0.110725 0.721073
0.001280 -0.110674 0.720738
0.002497 -0.110597 0.720237
0.003712 -0.110522 0.719748
0.004928 -0.110501 0.719615
0.006146 -0.110529 0.719793
0.007364 -0.110545 0.719901
0.008584 -0.110585 0.720159
0.009805 -0.110619 0.720384
0.011022 -0.110619 0.720379
0.012240 -0.110619 0.720379
0.013458 -0.110620 0.720385
0.014678 -0.110637 0.720497
0.015898 -0.110646 0.720554
0.017116 -0.110646 0.720555
0.018334 -0.110645 0.720553
0.019555 -0.110662 0.720660
0.020772 -0.110655 0.720616
0.021991 -0.110656 0.720621
0.023212 -0.110672 0.720729
0.024431 -0.110672 0.720729
0.025653 -0.110691 0.720847
0.026883 -0.110736 0.721146
0.028116 -0.110793 0.721512
0.029347 -0.110834 0.721779
0.030584 -0.110896 0.722188
0.031816 -0.110934 0.722430
0.033041 -0.110945 0.722505
0.034274 -0.110982 0.722747
0.035507 -0.111019 0.722985
0.036740 -0.111049 0.723184
0.037972 -0.111079 0.723377
0.039220 -0.111150 0.723842
0.040459 -0.111190 0.724102
0.041698 -0.111232 0.724373
0.042938 -0.111270 0.724624
0.044170 -0.111288 0.724739
0.045384 -0.111261 0.724561
0.046585 -0.111205 0.724197
0.047773 -0.111119 0.723636
0.048937 -0.110986 0.722771
0.050098 -0.110850 0.721884
0.051260 -0.110724 0.721062
0.052433 -0.110628 0.720437
0.053612 -0.110547 0.719913
0.054811 -0.110510 0.719670
0.056009 -0.110474 0.719436
0.057211 -0.110446 0.719256
0.058394 -0.110385 0.718858
0.059580 -0.110329 0.718494
0.060748 -0.110245 0.717944
0.061914 -0.110159 0.717387
0.063073 -0.110067 0.716783
0.064237 -0.109984 0.716249
0.065404 -0.109911 0.715769
0.066579 -0.109854 0.715399
0.067761 -0.109808 0.715101
0.068942 -0.109764 0.714816
0.070139 -0.109746 0.714695
0.071335 -0.109728 0.714576
0.072553 -0.109743 0.714675
0.073774 -0.109761 0.714796
0.074996 -0.109781 0.714923
0.076223 -0.109807 0.715096
0.077455 -0.109841 0.715315
0.078672 -0.109852 0.715387
0.079908 -0.109888 0.715623
0.081172 -0.109962 0.716099
0.082434 -0.110030 0.716544
0.083703 -0.110107 0.717044
0.084992 -0.110206 0.717693
0.086285 -0.110307 0.718349
0.087568 -0.110395 0.718919
0.088882 -0.110516 0.719712
0.090183 -0.110620 0.720387
0.091486 -0.110723 0.721058
0.092791 -0.110826 0.721729
0.094122 -0.110957 0.722581
0.095450 -0.111081 0.723388
0.096797 -0.111223 0.724315
0.098137 -0.111354 0.725168
0.099494 -0.111501 0.726125
0.100865 -0.111659 0.727156
0.102244 -0.111823 0.728224
0.103636 -0.111997 0.729357
0.105046 -0.112187 0.730590
0.106436 -0.112350 0.731652
0.107802 -0.112485 0.732533
0.109197 -0.112646 0.733581
0.110598 -0.112810 0.734648
0.112034 -0.113006 0.735928
0.113460 -0.113187 0.737106
0.114915 -0.113393 0.738449
0.116466 -0.113689 0.740372
0.118085 -0.114044 0.742685
0.119730 -0.114416 0.745106
0.121411 -0.114814 0.747700
0.123058 -0.115173 0.750035
0.124574 -0.115403 0.751533
0.126214 -0.115741 0.753738
0.127833 -0.116055 0.755779
0.129923 -0.116785 0.760533
0.132558 -0.117986 0.768355
0.135251 -0.119214 0.776356
0.137781 -0.120277 0.783276
0.140236 -0.121255 0.789646
0.142174 -0.121771 0.793009
0.143599 -0.121843 0.793473
0.145046 -0.121932 0.794054
0.146531 -0.122051 0.794827
0.148293 -0.122396 0.797075
0.150636 -0.123210 0.802377
0.153027 -0.124049 0.807839
0.155448 -0.124897 0.813362
0.157800 -0.125674 0.818425
0.159803 -0.126163 0.821611
0.161246 -0.126206 0.821886
0.162716 -0.126268 0.822293
0.164211 -0.126349 0.822822
0.165667 -0.126398 0.823141
0.167126 -0.126450 0.823476
0.168586 -0.126500 0.823805
0.170043 -0.126549 0.824121
0.171499 -0.126595 0.824422
0.173021 -0.126689 0.825031
0.174614 -0.126833 0.825969
0.176241 -0.126999 0.827051
0.177899 -0.127185 0.828264
0.179574 -0.127380 0.829533
0.181217 -0.127549 0.830634
0.182818 -0.127687 0.831531
0.184437 -0.127834 0.832493
0.186025 -0.127959 0.833302
0.187563 -0.128047 0.833878
-0.106103 -0.127168 0.837400
-0.104646 -0.127118 0.837066
-0.103106 -0.126964 0.836055
-0.101521 -0.126750 0.834647
-0.099938 -0.126532 0.833210
-0.098371 -0.126329 0.831869
-0.096817 -0.126137 0.830609
-0.095338 -0.126038 0.829957
-0.081173 -0.115835 0.762772
-0.079760 -0.115656 0.761591
-0.078322 -0.115435 0.760136
-0.076861 -0.115170 0.758393
-0.075419 -0.114927 0.756793
-0.073977 -0.114675 0.755132
-0.072541 -0.114424 0.753478
-0.071082 -0.114126 0.751515
-0.069639 -0.113844 0.749659
-0.068180 -0.113525 0.747560
-0.066757 -0.113254 0.745775
-0.065337 -0.112980 0.743969
-0.063931 -0.112718 0.742245
-0.062535 -0.112465 0.740576
-0.061159 -0.112237 0.739076
-0.059790 -0.112013 0.737601
-0.058448 -0.111830 0.736397
-0.057121 -0.111669 0.735340
-0.055796 -0.111507 0.734272
-0.054458 -0.111308 0.732959
-0.053095 -0.111050 0.731263
-0.051724 -0.110762 0.729362
-0.050375 -0.110507 0.727685
-0.049044 -0.110280 0.726190
-0.047741 -0.110107 0.725053
-0.046466 -0.109989 0.724271
-0.045203 -0.109896 0.723663
-0.043939 -0.109795 0.722996
-0.042668 -0.109669 0.722164
-0.041395 -0.109531 0.721257
-0.040124 -0.109389 0.720324
-0.038858 -0.109256 0.719448
-0.037598 -0.109128 0.718607
-0.036347 -0.109019 0.717890
-0.035112 -0.108954 0.717456
-0.033884 -0.108906 0.717140
-0.032662 -0.108872 0.716917
-0.031433 -0.108814 0.716534
-0.030206 -0.108758 0.716169
-0.028971 -0.108664 0.715549
-0.027736 -0.108569 0.714922
-0.026506 -0.108479 0.714328
-0.025286 -0.108426 0.713982
-0.024070 -0.108384 0.713703
-0.022857 -0.108356 0.713522
-0.021645 -0.108327 0.713327
-0.020435 -0.108306 0.713194
-0.019229 -0.108305 0.713187
-0.018025 -0.108315 0.713251
-0.016821 -0.108325 0.713318
-0.015616 -0.108333 0.713371
-0.014413 -0.108349 0.713477
-0.013211 -0.108385 0.713712
-0.012016 -0.108494 0.714432
-0.010825 -0.108662 0.715536
-0.009633 -0.108860 0.716840
-0.008435 -0.109039 0.718021
-0.007231 -0.109185 0.718982
-0.006020 -0.109274 0.719564
-0.004805 -0.109309 0.719799
-0.003588 -0.109302 0.719749
-0.002371 -0.109291 0.719678
-0.001154 -0.109269 0.719532
0.000062 -0.109198 0.719062
0.001277 -0.109150 0.718749
0.002491 -0.109094 0.718382
0.003703 -0.109039 0.718017
0.004917 -0.109035 0.717994
0.006133 -0.109071 0.718227
0.007349 -0.109095 0.718385
0.008566 -0.109133 0.718638
0.009783 -0.109158 0.718803
0.010997 -0.109139 0.718679
0.012210 -0.109129 0.718614
0.013425 -0.109130 0.718616
0.014642 -0.109141 0.718687
0.015859 -0.109159 0.718809
0.017077 -0.109177 0.718924
0.018294 -0.109185 0.718977
0.019513 -0.109202 0.719094
0.020729 -0.109204 0.719108
0.021945 -0.109206 0.719120
0.023162 -0.109213 0.719162
0.024379 -0.109219 0.719205
0.025599 -0.109236 0.719319
0.026828 -0.109291 0.719677
0.028062 -0.109357 0.720114
0.029295 -0.109415 0.720493
0.030533 -0.109487 0.720967
0.031767 -0.109541 0.721327
0.032996 -0.109572 0.721527
0.034230 -0.109617 0.721827
0.035465 -0.109663 0.722124
0.036695 -0.109691 0.722314
0.037926 -0.109720 0.722503
0.039167 -0.109774 0.722855
0.040400 -0.109804 0.723056
0.041634 -0.109834 0.723252
0.042867 -0.109862 0.723436
0.044094 -0.109871 0.723495
0.045306 -0.109844 0.723318
0.046509 -0.109797 0.723012
0.047695 -0.109713 0.722459
0.048867 -0.109602 0.721726
0.050031 -0.109479 0.720916
0.051200 -0.109375 0.720228
0.052377 -0.109290 0.719672
0.053559 -0.109219 0.719200
0.054752 -0.109172 0.718895
0.055947 -0.109133 0.718639
0.057142 -0.109096 0.718393
0.058320 -0.109026 0.717936
0.059499 -0.108963 0.717516
0.060664 -0.108878 0.716957
0.061828 -0.108793 0.716396
0.062986 -0.108701 0.715795
0.064149 -0.108622 0.715271
0.065320 -0.108559 0.714855
0.066501 -0.108513 0.714553
0.067686 -0.108477 0.714316
0.068873 -0.108443 0.714096
0.070074 -0.108435 0.714039
0.071276 -0.108426 0.713980
0.072488 -0.108434 0.714033
0.073707 -0.108452 0.714153
0.074928 -0.108472 0.714282
0.076155 -0.108499 0.714460
0.077387 -0.108533 0.714686
0.078608 -0.108551 0.714804
0.079844 -0.108588 0.715045
0.081105 -0.108658 0.715509
0.082365 -0.108725 0.715951
0.083634 -0.108801 0.716451
0.084929 -0.108909 0.717160
0.086227 -0.109017 0.717873
0.087518 -0.109113 0.718503
0.088830 -0.109232 0.719289
0.090136 -0.109342 0.720013
0.091429 -0.109433 0.720611
0.092725 -0.109524 0.721213
0.094046 -0.109643 0.721994
0.095381 -0.109775 0.722865
0.096729 -0.109918 0.723805
0.098070 -0.110050 0.724675
0.099427 -0.110196 0.725636
0.100813 -0.110370 0.726782
0.102192 -0.110533 0.727853
0.103586 -0.110708 0.729006
0.105013 -0.110913 0.730357
0.106436 -0.111109 0.731651
0.107814 -0.111255 0.732611
0.109219 -0.111425 0.733733
0.110628 -0.111596 0.734853
0.112055 -0.111779 0.736062
0.113461 -0.111939 0.737115
0.114906 -0.112133 0.738390
0.116438 -0.112407 0.740198
0.118047 -0.112748 0.742442
0.119698 -0.113122 0.744908
0.121368 -0.113507 0.747437
0.123005 -0.113852 0.749712
0.124732 -0.114273 0.752486
0.126608 -0.114821 0.756091
0.128475 -0.115349 0.759572
0.130815 -0.116288 0.765755
0.133451 -0.117469 0.773530
0.135918 -0.118479 0.780182
0.138167 -0.119283 0.785472
0.140369 -0.120030 0.790395
0.142085 -0.120352 0.792513
0.143534 -0.120444 0.793118
0.144982 -0.120533 0.793704
0.146575 -0.120739 0.795063
0.148483 -0.121199 0.798094
0.150806 -0.121988 0.803285
0.153190 -0.122810 0.808699
0.155577 -0.123620 0.814037
0.157796 -0.124284 0.818405
0.159670 -0.124667 0.820931
0.161157 -0.124744 0.821435
0.162658 -0.124830 0.822000
0.164197 -0.124943 0.822748
0.165683 -0.125016 0.823224
0.167161 -0.125080 0.823647
0.168636 -0.125141 0.824051
0.170106 -0.125198 0.824426
0.171562 -0.125244 0.824725
0.173102 -0.125349 0.825418
0.174702 -0.125496 0.826388
0.176346 -0.125672 0.827546
0.178020 -0.125866 0.828825
0.179694 -0.126058 0.830088
0.181305 -0.126202 0.831037
0.182872 -0.126314 0.831773
0.184453 -0.126434 0.832563
0.185988 -0.126521 0.833135
0.187491 -0.126585 0.833556
-0.104591 -0.125633 0.836626
-0.103069 -0.125503 0.835760
-0.101490 -0.125297 0.834393
-0.099918 -0.125095 0.833047
-0.098353 -0.124896 0.831718
-0.096799 -0.124706 0.830455
-0.095311 -0.124595 0.829716
-0.081123 -0.114471 0.762298
-0.079696 -0.114273 0.760979
-0.078253 -0.114046 0.759464
-0.076781 -0.113767 0.757611
-0.075336 -0.113519 0.755956
-0.073900 -0.113278 0.754350
-0.072466 -0.113029 0.752696
-0.071008 -0.112735 0.750734
-0.069567 -0.112457 0.748888
-0.068116 -0.112152 0.746852
-0.066688 -0.111875 0.745010
-0.065264 -0.111594 0.743135
-0.063859 -0.111335 0.741410
-0.062474 -0.111101 0.739852
-0.061101 -0.110878 0.738371
-0.059739 -0.110668 0.736973
-0.058398 -0.110488 0.735773
-0.057071 -0.110327 0.734698
-0.055739 -0.110149 0.733516
-0.054396 -0.109942 0.732137
-0.053031 -0.109678 0.730376
-0.051661 -0.109391 0.728470
-0.050314 -0.109142 0.726807
-0.048986 -0.108920 0.725334
-0.047686 -0.108752 0.724216
-0.046412 -0.108636 0.723437
-0.045150 -0.108543 0.722819
-0.043880 -0.108424 0.722027
-0.042610 -0.108297 0.721182
-0.041334 -0.108150 0.720202
-0.040062 -0.108001 0.719213
-0.038796 -0.107862 0.718286
-0.037538 -0.107736 0.717448
-0.036286 -0.107622 0.716691
-0.035053 -0.107557 0.716257
-0.033828 -0.107511 0.715948
-0.032607 -0.107477 0.715721
-0.031383 -0.107428 0.715394
-0.030158 -0.107374 0.715033
-0.028927 -0.107289 0.714469
-0.027695 -0.107195 0.713846
-0.026466 -0.107106 0.713252
-0.025248 -0.107054 0.712906
-0.024035 -0.107021 0.712683
-0.022825 -0.106995 0.712509
-0.021616 -0.106975 0.712377
-0.020408 -0.106954 0.712239
-0.019202 -0.106944 0.712174
-0.017998 -0.106945 0.712182
-0.016794 -0.106940 0.712146
-0.015588 -0.106932 0.712090
-0.014387 -0.106946 0.712183
-0.013186 -0.106972 0.712356
-0.011991 -0.107054 0.712903
-0.010800 -0.107199 0.713868
-0.009609 -0.107373 0.715030
-0.008412 -0.107522 0.716020
-0.007210 -0.107647 0.716852
-0.006003 -0.107733 0.717427
-0.004791 -0.107768 0.717662
-0.003578 -0.107762 0.717623
-0.002364 -0.107752 0.717550
-0.001151 -0.107731 0.717411
0.000062 -0.107677 0.717054
0.001273 -0.107641 0.716813
0.002484 -0.107604 0.716570
0.003695 -0.107569 0.716336
0.004906 -0.107583 0.716428
0.006119 -0.107619 0.716665
0.007333 -0.107650 0.716876
0.008548 -0.107688 0.717126
0.009763 -0.107711 0.717282
0.010973 -0.107690 0.717143
0.012184 -0.107679 0.717068
0.013396 -0.107679 0.717070
0.014610 -0.107692 0.717152
0.015827 -0.107720 0.717339
0.017043 -0.107739 0.717465
0.018258 -0.107756 0.717577
0.019476 -0.107781 0.717749
0.020691 -0.107792 0.717818
0.021905 -0.107794 0.717835
0.023120 -0.107800 0.717875
0.024337 -0.107815 0.717972
0.025555 -0.107833 0.718093
0.026785 -0.107896 0.718515
0.028019 -0.107972 0.719018
0.029255 -0.108046 0.719514
0.030494 -0.108128 0.720056
0.031732 -0.108199 0.720529
0.032960 -0.108230 0.720734
0.034192 -0.108274 0.721031
0.035423 -0.108310 0.721270
0.036646 -0.108322 0.721346
0.037870 -0.108333 0.721421
0.039104 -0.108375 0.721704
0.040332 -0.108395 0.721834
0.041563 -0.108423 0.722019
0.042794 -0.108449 0.722193
0.044018 -0.108457 0.722248
0.045228 -0.108431 0.722072
0.046433 -0.108394 0.721826
0.047625 -0.108329 0.721394
0.048807 -0.108247 0.720848
0.049980 -0.108147 0.720186
0.051158 -0.108064 0.719629
0.052339 -0.107991 0.719147
0.053516 -0.107913 0.718627
0.054699 -0.107851 0.718210
0.055888 -0.107802 0.717883
0.057077 -0.107754 0.717567
0.058248 -0.107676 0.717050
0.059425 -0.107613 0.716625
0.060589 -0.107529 0.716066
0.061751 -0.107445 0.715506
0.062909 -0.107356 0.714913
0.064075 -0.107285 0.714444
0.065250 -0.107231 0.714087
0.066434 -0.107194 0.713837
0.067624 -0.107167 0.713656
0.068820 -0.107150 0.713545
0.070026 -0.107150 0.713545
0.071232 -0.107150 0.713545
0.072444 -0.107159 0.713603
0.073663 -0.107177 0.713727
0.074890 -0.107206 0.713918
0.076117 -0.107235 0.714108
0.077350 -0.107270 0.714345
0.078571 -0.107288 0.714465
0.079810 -0.107330 0.714743
0.081064 -0.107391 0.715151
0.082324 -0.107457 0.715589
0.083585 -0.107523 0.716028
0.084878 -0.107628 0.716728
0.086169 -0.107727 0.717389
0.087458 -0.107821 0.718015
0.088762 -0.107931 0.718747
0.090067 -0.108039 0.719464
0.091359 -0.108128 0.720058
0.092645 -0.108209 0.720595
0.093949 -0.108307 0.721251
0.095281 -0.108436 0.722108
0.096628 -0.108577 0.723050
0.097979 -0.108720 0.724002
0.099352 -0.108884 0.725090
0.100754 -0.109074 0.726355
0.102142 -0.109246 0.727499
0.103552 -0.109436 0.728767
0.104997 -0.109658 0.730244
0.106446 -0.109880 0.731724
0.107846 -0.110046 0.732828
0.109272 -0.110235 0.734089
0.110682 -0.110403 0.735207
0.112086 -0.110562 0.736268
0.113471 -0.110699 0.737176
0.114903 -0.110879 0.738375
0.116418 -0.111133 0.740069
0.118016 -0.111460 0.742249
0.119674 -0.111837 0.744758
0.121332 -0.112206 0.747214
0.122958 -0.112539 0.749428
0.124912 -0.113161 0.753571
0.127040 -0.113927 0.758675
0.129175 -0.114683 0.763710
0.131566 -0.115651 0.770153
0.134168 -0.116782 0.777689
0.136336 -0.117517 0.782584
0.138324 -0.118085 0.786366
0.140281 -0.118616 0.789901
0.142008 -0.118944 0.792085
0.143493 -0.119065 0.792889
0.144944 -0.119156 0.793493
0.146512 -0.119341 0.794726
0.148587 -0.119931 0.798657
0.150930 -0.120725 0.803946
0.153318 -0.121540 0.809375
0.155702 -0.122338 0.814688
0.157929 -0.123000 0.819095
0.159650 -0.123260 0.820828
0.161154 -0.123349 0.821420
0.162656 -0.123435 0.821991
0.164210 -0.123559 0.822815
0.165713 -0.123642 0.823370
0.167192 -0.123707 0.823799
0.168667 -0.123767 0.824204
0.170151 -0.123833 0.824642
0.171608 -0.123879 0.824946
0.173165 -0.123995 0.825720
0.174786 -0.124154 0.826782
0.176461 -0.124350 0.828087
0.178140 -0.124545 0.829382
0.179812 -0.124732 0.830631
0.181391 -0.124853 0.831434
0.182923 -0.124939 0.832007
0.184468 -0.125033 0.832634
0.185966 -0.125094 0.833039
-0.104531 -0.124144 0.836152
-0.103018 -0.124024 0.835340
-0.101458 -0.123844 0.834129
-0.099898 -0.123658 0.832877
-0.098335 -0.123463 0.831565
-0.096781 -0.123276 0.830302
-0.095286 -0.123157 0.829504
-0.081082 -0.113122 0.761911
-0.079648 -0.112916 0.760526
-0.078205 -0.112689 0.758998
-0.076728 -0.112405 0.757083
-0.075276 -0.112149 0.755360
-0.073842 -0.111910 0.753749
-0.072406 -0.111661 0.752076
-0.070945 -0.111362 0.750063
-0.069505 -0.111088 0.748216
-0.068049 -0.110777 0.746123
-0.066612 -0.110486 0.744162
-0.065184 -0.110199 0.742227
-0.063780 -0.109941 0.740492
-0.062398 -0.109713 0.738953
-0.061033 -0.109504 0.737547
-0.059678 -0.109306 0.736212
-0.058337 -0.109127 0.735009
-0.057007 -0.108959 0.733878
-0.055672 -0.108775 0.732633
-0.054327 -0.108562 0.731199
-0.052964 -0.108302 0.729450
-0.051600 -0.108030 0.727616
-0.050261 -0.107794 0.726031
-0.048935 -0.107578 0.724576
-0.047639 -0.107419 0.723501
-0.046365 -0.107301 0.722711
-0.045097 -0.107190 0.721963
-0.043821 -0.107054 0.721047
-0.042548 -0.106919 0.720132
-0.041268 -0.106757 0.719042
-0.039997 -0.106610 0.718052
-0.038733 -0.106473 0.717132
-0.037478 -0.106350 0.716302
-0.036231 -0.106246 0.715599
-0.035003 -0.106189 0.715218
-0.033777 -0.106136 0.714861
-0.032557 -0.106101 0.714627
-0.031337 -0.106060 0.714347
-0.030112 -0.105999 0.713938
-0.028883 -0.105917 0.713386
-0.027653 -0.105826 0.712775
-0.026426 -0.105737 0.712174
-0.025208 -0.105676 0.711765
-0.023997 -0.105642 0.711535
-0.022786 -0.105609 0.711313
-0.021580 -0.105591 0.711192
-0.020374 -0.105573 0.711069
-0.019171 -0.105564 0.711010
-0.017969 -0.105565 0.711016
-0.016765 -0.105550 0.710917
-0.015560 -0.105533 0.710799
-0.014360 -0.105545 0.710884
-0.013160 -0.105562 0.710994
-0.011965 -0.105616 0.711360
-0.010775 -0.105738 0.712184
-0.009584 -0.105889 0.713194
-0.008388 -0.106008 0.713999
-0.007189 -0.106122 0.714767
-0.005985 -0.106215 0.715395
-0.004778 -0.106259 0.715689
-0.003568 -0.106262 0.715712
-0.002358 -0.106261 0.715704
-0.001148 -0.106249 0.715621
0.000062 -0.106213 0.715382
0.001271 -0.106196 0.715263
0.002480 -0.106179 0.715149
0.003688 -0.106161 0.715031
0.004898 -0.106185 0.715191
0.006109 -0.106221 0.715434
0.007321 -0.106253 0.715650
0.008533 -0.106290 0.715901
0.009746 -0.106314 0.716058
0.010954 -0.106286 0.715871
0.012162 -0.106273 0.715785
0.013372 -0.106273 0.715782
0.014584 -0.106284 0.715859
0.015798 -0.106314 0.716059
0.017013 -0.106341 0.716242
0.018227 -0.106359 0.716361
0.019443 -0.106384 0.716532
0.020656 -0.106395 0.716603
0.021868 -0.106396 0.716614
0.023081 -0.106404 0.716666
0.024298 -0.106428 0.716825
0.025517 -0.106455 0.717013
0.026747 -0.106529 0.717506
0.027982 -0.106612 0.718067
0.029221 -0.106703 0.718678
0.030461 -0.106791 0.719274
0.031698 -0.106863 0.719757
0.032927 -0.106902 0.720018
0.034158 -0.106945 0.720313
0.035384 -0.106971 0.720487
0.036603 -0.106972 0.720494
0.037824 -0.106981 0.720551
0.039051 -0.107006 0.720719
0.040273 -0.107016 0.720785
0.041499 -0.107034 0.720911
0.042725 -0.107052 0.721029
0.043944 -0.107052 0.721029
0.045152 -0.107026 0.720853
0.046358 -0.106997 0.720663
0.047556 -0.106952 0.720358
0.048746 -0.106890 0.719941
0.049929 -0.106819 0.719459
0.051115 -0.106755 0.719032
0.052300 -0.106693 0.718613
0.053473 -0.106608 0.718041
0.054650 -0.106537 0.717563
0.055829 -0.106472 0.717122
0.057011 -0.106416 0.716746
0.058176 -0.106330 0.716169
0.059352 -0.106267 0.715745
0.060520 -0.106194 0.715252
0.061686 -0.106120 0.714754
0.062848 -0.106041 0.714224
0.064023 -0.105987 0.713861
0.065206 -0.105950 0.713607
0.066395 -0.105922 0.713417
0.067590 -0.105904 0.713296
0.068790 -0.105895 0.713239
0.069996 -0.105895 0.713239
0.071202 -0.105895 0.713239
0.072408 -0.105896 0.713243
0.073626 -0.105913 0.713360
0.074857 -0.105949 0.713601
0.076079 -0.105971 0.713751
0.077318 -0.106015 0.714046
0.078550 -0.106049 0.714276
0.079795 -0.106099 0.714613
0.081044 -0.106153 0.714975
0.082308 -0.106224 0.715455
0.083562 -0.106281 0.715835
0.084841 -0.106366 0.716413
0.086117 -0.106446 0.716950
0.087397 -0.106530 0.717515
0.088694 -0.106631 0.718196
0.089992 -0.106730 0.718862
0.091283 -0.106819 0.719459
0.092569 -0.106899 0.719998
0.093863 -0.106987 0.720592
0.095192 -0.107112 0.721433
0.096537 -0.107250 0.722366
0.097887 -0.107392 0.723319
0.099268 -0.107564 0.724477
0.100685 -0.107770 0.725864
0.102097 -0.107965 0.727180
0.103533 -0.108181 0.728634
0.105004 -0.108427 0.730294
0.106482 -0.108676 0.731969
0.107910 -0.108868 0.733265
0.109340 -0.109058 0.734545
0.110750 -0.109224 0.735662
0.112135 -0.109362 0.736586
0.113497 -0.109474 0.737345
0.114909 -0.109633 0.738412
0.116406 -0.109867 0.739989
0.117975 -0.110164 0.741994
0.119630 -0.110535 0.744487
0.121268 -0.110881 0.746822
0.123084 -0.111382 0.750193
0.125280 -0.112213 0.755790
0.127678 -0.113206 0.762483
0.130096 -0.114197 0.769157
0.132703 -0.115333 0.776805
0.135086 -0.116254 0.783009
0.136992 -0.116750 0.786349
0.138734 -0.117098 0.788697
0.140456 -0.117423 0.790884
0.141967 -0.117567 0.791852
0.143453 -0.117688 0.792669
0.144904 -0.117778 0.793273
0.146638 -0.118095 0.795409
0.148897 -0.118824 0.800322
0.151292 -0.119648 0.805871
0.153682 -0.120454 0.811296
0.156056 -0.121232 0.816540
0.158099 -0.121743 0.819977
0.159649 -0.121868 0.820820
0.161153 -0.121956 0.821415
0.162656 -0.122042 0.821993
0.164211 -0.122164 0.822818
0.165713 -0.122246 0.823370
0.167192 -0.122310 0.823799
0.168667 -0.122370 0.824204
0.170152 -0.122436 0.824647
0.171625 -0.122492 0.825024
0.173169 -0.122598 0.825736
0.174804 -0.122766 0.826868
0.176481 -0.122960 0.828180
0.178176 -0.123164 0.829553
0.179837 -0.123341 0.830745
0.181432 -0.123471 0.831620
0.182960 -0.123553 0.832174
0.184502 -0.123645 0.832788
-0.105945 -0.122727 0.836153
-0.104483 -0.122670 0.835765
-0.102976 -0.122558 0.835001
-0.101437 -0.122404 0.833953
-0.099878 -0.122222 0.832714
-0.098325 -0.122041 0.831483
-0.096780 -0.121866 0.830288
-0.095284 -0.121748 0.829485
-0.081037 -0.111769 0.761496
-0.079607 -0.111568 0.760129
-0.078163 -0.111343 0.758593
-0.076687 -0.111062 0.756679
-0.075235 -0.110808 0.754948
-0.073789 -0.110553 0.753208
-0.072342 -0.110288 0.751404
-0.070874 -0.109982 0.749322
-0.069425 -0.109694 0.747359
-0.067966 -0.109380 0.745218
-0.066530 -0.109090 0.743243
-0.065108 -0.108814 0.741360
-0.063706 -0.108561 0.739636
-0.062332 -0.108345 0.738170
-0.060974 -0.108149 0.736833
-0.059621 -0.107955 0.735510
-0.058277 -0.107769 0.734242
-0.056942 -0.107593 0.733043
-0.055604 -0.107402 0.731741
-0.054257 -0.107185 0.730266
-0.052905 -0.106947 0.728645
-0.051557 -0.106706 0.727000
-0.050223 -0.106485 0.725493
-0.048902 -0.106279 0.724093
-0.047610 -0.106127 0.723056
-0.046328 -0.105992 0.722133
-0.045050 -0.105856 0.721208
-0.043771 -0.105713 0.720235
-0.042496 -0.105570 0.719258
-0.041215 -0.105402 0.718120
-0.039943 -0.105251 0.717087
-0.038681 -0.105116 0.716165
-0.037427 -0.104993 0.715328
-0.036185 -0.104897 0.714679
-0.034956 -0.104836 0.714259
-0.033731 -0.104782 0.713893
-0.032511 -0.104738 0.713595
-0.031289 -0.104688 0.713252
-0.030064 -0.104621 0.712792
-0.028837 -0.104542 0.712258
-0.027610 -0.104453 0.711649
-0.026384 -0.104365 0.711049
-0.025165 -0.104294 0.710571
-0.023954 -0.104251 0.710278
-0.022746 -0.104218 0.710053
-0.021542 -0.104202 0.709941
-0.020339 -0.104186 0.709830
-0.019139 -0.104185 0.709826
-0.017939 -0.104186 0.709830
-0.016736 -0.104170 0.709722
-0.015534 -0.104151 0.709595
-0.014335 -0.104154 0.709616
-0.013135 -0.104154 0.709616
-0.011939 -0.104183 0.709810
-0.010748 -0.104276 0.710447
-0.009558 -0.104389 0.711216
-0.008363 -0.104489 0.711897
-0.007167 -0.104603 0.712670
-0.005968 -0.104704 0.713362
-0.004765 -0.104757 0.713725
-0.003559 -0.104784 0.713908
-0.002353 -0.104800 0.714015
-0.001146 -0.104798 0.714001
0.000061 -0.104773 0.713831
0.001268 -0.104764 0.713770
0.002475 -0.104756 0.713715
0.003681 -0.104748 0.713659
0.004889 -0.104781 0.713883
0.006098 -0.104825 0.714185
0.007308 -0.104865 0.714458
0.008519 -0.104902 0.714711
0.009730 -0.104926 0.714875
0.010936 -0.104900 0.714696
0.012142 -0.104889 0.714619
0.013350 -0.104888 0.714614
0.014560 -0.104898 0.714682
0.015772 -0.104926 0.714871
0.016985 -0.104952 0.715052
0.018197 -0.104971 0.715177
0.019411 -0.104995 0.715341
0.020624 -0.105014 0.715470
0.021835 -0.105024 0.715538
0.023049 -0.105040 0.715652
0.024266 -0.105073 0.715874
0.025483 -0.105101 0.716068
0.026712 -0.105174 0.716562
0.027945 -0.105256 0.717121
0.029185 -0.105354 0.717789
0.030424 -0.105443 0.718392
0.031664 -0.105530 0.718989
0.032892 -0.105569 0.719252
0.034122 -0.105611 0.719542
0.035343 -0.105627 0.719647
0.036560 -0.105626 0.719644
0.037776 -0.105625 0.719634
0.039001 -0.105649 0.719797
0.040222 -0.105659 0.719864
0.041446 -0.105678 0.719998
0.042671 -0.105696 0.720119
0.043888 -0.105696 0.720119
0.045095 -0.105670 0.719944
0.046299 -0.105642 0.719752
0.047500 -0.105606 0.719508
0.048693 -0.105555 0.719158
0.049880 -0.105495 0.718749
0.051065 -0.105432 0.718323
0.052248 -0.105368 0.717888
0.053413 -0.105274 0.717246
0.054585 -0.105195 0.716704
0.055758 -0.105122 0.716209
0.056939 -0.105067 0.715837
0.058107 -0.104992 0.715321
0.059282 -0.104931 0.714908
0.060458 -0.104875 0.714525
0.061630 -0.104812 0.714100
0.062796 -0.104744 0.713632
0.063970 -0.104692 0.713277
0.065159 -0.104663 0.713083
0.066342 -0.104629 0.712850
0.067537 -0.104612 0.712737
0.068737 -0.104605 0.712684
0.069941 -0.104605 0.712684
0.071151 -0.104612 0.712736
0.072356 -0.104612 0.712737
0.073578 -0.104636 0.712899
0.074808 -0.104671 0.713135
0.076028 -0.104691 0.713273
0.077261 -0.104727 0.713521
0.078504 -0.104777 0.713857
0.079751 -0.104829 0.714216
0.081007 -0.104892 0.714642
0.082272 -0.104964 0.715136
0.083529 -0.105025 0.715550
0.084793 -0.105092 0.716006
0.086059 -0.105161 0.716472
0.087330 -0.105233 0.716966
0.088626 -0.105332 0.717640
0.089923 -0.105431 0.718313
0.091222 -0.105528 0.718977
0.092507 -0.105608 0.719523
0.093795 -0.105689 0.720070
0.095121 -0.105809 0.720891
0.096461 -0.105943 0.721803
0.097802 -0.106073 0.722691
0.099198 -0.106261 0.723967
0.100624 -0.106475 0.725424
0.102045 -0.106677 0.726805
0.103496 -0.106908 0.728376
0.104994 -0.107180 0.730228
0.106493 -0.107446 0.732045
0.107966 -0.107681 0.733643
0.109414 -0.107886 0.735041
0.110825 -0.108050 0.736159
0.112200 -0.108176 0.737019
0.113543 -0.108269 0.737649
0.114928 -0.108398 0.738530
0.116404 -0.108611 0.739979
0.117945 -0.108878 0.741801
0.119588 -0.109234 0.744226
0.121205 -0.109558 0.746433
0.123225 -0.110237 0.751056
0.125666 -0.111273 0.758119
0.128321 -0.112477 0.766321
0.130970 -0.113652 0.774327
0.133570 -0.114761 0.781879
0.135687 -0.115438 0.786492
0.137331 -0.115702 0.788294
0.138850 -0.115858 0.789354
0.140371 -0.116012 0.790404
0.141895 -0.116166 0.791451
0.143404 -0.116305 0.792397
0.144860 -0.116399 0.793037
0.146748 -0.116834 0.796006
0.149038 -0.117579 0.801077
0.151447 -0.118404 0.806700
0.153864 -0.119220 0.812258
0.156240 -0.119990 0.817506
0.158135 -0.120380 0.820164
0.159670 -0.120493 0.820931
0.161173 -0.120578 0.821515
0.162672 -0.120660 0.822074
0.164211 -0.120770 0.822820
0.165697 -0.120840 0.823294
0.167176 -0.120902 0.823722
0.168652 -0.120962 0.824129
0.170138 -0.121028 0.824579
0.171625 -0.121094 0.825029
0.173155 -0.121188 0.825672
0.174787 -0.121352 0.826788
0.176463 -0.121544 0.828096
0.178176 -0.121758 0.829550
0.179841 -0.121936 0.830766
0.181453 -0.122075 0.831714
0.182996 -0.122167 0.832338
0.184539 -0.122257 0.832952
-0.104453 -0.121218 0.835526
-0.102952 -0.121115 0.834812
-0.101417 -0.120967 0.833796
-0.099852 -0.120779 0.832494
-0.098299 -0.120600 0.831264
-0.096745 -0.120416 0.829992
-0.095241 -0.120287 0.829108
-0.081001 -0.110429 0.761154
-0.079577 -0.110239 0.759847
-0.078134 -0.110016 0.758312
-0.076652 -0.109729 0.756333
-0.075196 -0.109471 0.754552
-0.073743 -0.109209 0.752747
-0.072291 -0.108937 0.750874
-0.070818 -0.108625 0.748721
-0.069358 -0.108323 0.746640
-0.067900 -0.108011 0.744487
-0.066460 -0.107716 0.742458
-0.065039 -0.107443 0.740572
-0.063639 -0.107194 0.738858
-0.062268 -0.106984 0.737412
-0.060907 -0.106783 0.736028
-0.059555 -0.106590 0.734695
-0.058202 -0.106388 0.733306
-0.056860 -0.106197 0.731987
-0.055519 -0.106000 0.730626
-0.054174 -0.105785 0.729147
-0.052833 -0.105568 0.727651
-0.051500 -0.105358 0.726204
-0.050174 -0.105151 0.724780
-0.048858 -0.104956 0.723436
-0.047565 -0.104803 0.722380
-0.046277 -0.104652 0.721339
-0.044994 -0.104503 0.720308
-0.043717 -0.104361 0.719333
-0.042443 -0.104220 0.718361
-0.041167 -0.104064 0.717284
-0.039897 -0.103914 0.716252
-0.038636 -0.103781 0.715332
-0.037386 -0.103667 0.714547
-0.036145 -0.103572 0.713896
-0.034915 -0.103504 0.713428
-0.033692 -0.103452 0.713066
-0.032470 -0.103400 0.712709
-0.031247 -0.103340 0.712296
-0.030023 -0.103272 0.711829
-0.028798 -0.103195 0.711296
