1680
-0.052164 -0.154975 0.908903
-0.050607 -0.154911 0.908531
-0.049035 -0.154797 0.907860
-0.047466 -0.154685 0.907203
-0.045873 -0.154485 0.906031
-0.044264 -0.154218 0.904466
-0.042659 -0.153941 0.902839
-0.041072 -0.153715 0.901516
-0.039503 -0.153542 0.900501
-0.037946 -0.153402 0.899676
-0.036402 -0.153305 0.899107
-0.034857 -0.153193 0.898455
-0.033311 -0.153069 0.897722
-0.031767 -0.152941 0.896973
-0.030227 -0.152824 0.896286
-0.028688 -0.152697 0.895541
-0.027152 -0.152573 0.894814
-0.025623 -0.152478 0.894257
-0.024094 -0.152367 0.893606
-0.022567 -0.152257 0.892962
-0.021045 -0.152163 0.892410
-0.019526 -0.152085 0.891955
-0.018004 -0.151966 0.891257
-0.016485 -0.151854 0.890599
-0.014969 -0.151754 0.890010
-0.013455 -0.151641 0.889347
-0.011940 -0.151491 0.888472
-0.010430 -0.151380 0.887821
-0.008926 -0.151324 0.887489
-0.007421 -0.151233 0.886956
-0.005918 -0.151148 0.886456
-0.004418 -0.151099 0.886171
-0.002919 -0.151062 0.885956
-0.001420 -0.150915 0.885091
0.000076 -0.150806 0.884452
0.001570 -0.150722 0.883958
0.003063 -0.150657 0.883580
0.004555 -0.150587 0.883166
0.006049 -0.150601 0.883252
0.007543 -0.150630 0.883420
0.009040 -0.150675 0.883687
0.010541 -0.150783 0.884316
0.012045 -0.150895 0.884972
0.013497 -0.150404 0.882096
0.018483 -0.142841 0.837742
0.019722 -0.141566 0.830261
0.021095 -0.141362 0.829066
0.022459 -0.141129 0.827700
0.023815 -0.140868 0.826168
0.025167 -0.140620 0.824716
0.026527 -0.140441 0.823663
0.027894 -0.140310 0.822895
0.029264 -0.140209 0.822301
0.030642 -0.140154 0.821979
0.032021 -0.140108 0.821710
0.033400 -0.140066 0.821466
0.034786 -0.140054 0.821395
0.036175 -0.140057 0.821414
0.037572 -0.140085 0.821577
0.038960 -0.140085 0.821576
0.040353 -0.140098 0.821654
0.041746 -0.140111 0.821728
0.043151 -0.140164 0.822039
0.044551 -0.140194 0.822217
0.045966 -0.140272 0.822671
0.047383 -0.140350 0.823128
0.048802 -0.140430 0.823596
0.050239 -0.140552 0.824314
0.051692 -0.140716 0.825277
0.053592 -0.143467 0.833126
0.053337 -0.141376 0.829149
0.066742 -0.156364 0.917047
0.068404 -0.156618 0.918539
0.070096 -0.156929 0.920363
0.071797 -0.157247 0.922231
0.073516 -0.157590 0.924238
0.075242 -0.157933 0.926254
-0.079754 -0.159441 0.944487
-0.078069 -0.159262 0.943423
-0.076360 -0.159024 0.942017
-0.074542 -0.158545 0.939179
-0.072716 -0.158027 0.936111
-0.070864 -0.157428 0.932562
-0.069053 -0.156894 0.929397
-0.067271 -0.156405 0.926499
-0.065538 -0.156009 0.924154
-0.063847 -0.155695 0.922293
-0.062182 -0.155429 0.920719
-0.060479 -0.155054 0.918497
-0.058787 -0.154687 0.916324
-0.057111 -0.154345 0.914298
-0.055431 -0.153972 0.912088
-0.053798 -0.153711 0.910545
-0.052209 -0.153567 0.909687
-0.050646 -0.153489 0.909226
-0.049081 -0.153401 0.908708
-0.047515 -0.153306 0.908146
-0.045926 -0.153126 0.907077
-0.044320 -0.152878 0.905610
-0.042716 -0.152616 0.904056
-0.041123 -0.152376 0.902633
-0.039544 -0.152173 0.901432
-0.037981 -0.152016 0.900503
-0.036436 -0.151920 0.899932
-0.034893 -0.151827 0.899385
-0.033349 -0.151722 0.898761
-0.031807 -0.151613 0.898114
-0.030266 -0.151498 0.897431
-0.028727 -0.151384 0.896760
-0.027189 -0.151259 0.896018
-0.025658 -0.151167 0.895472
-0.024129 -0.151072 0.894912
-0.022602 -0.150977 0.894345
-0.021077 -0.150880 0.893774
-0.019554 -0.150788 0.893228
-0.018029 -0.150667 0.892511
-0.016507 -0.150542 0.891773
-0.014988 -0.150428 0.891093
-0.013470 -0.150303 0.890353
-0.011954 -0.150167 0.889552
-0.010442 -0.150043 0.888816
-0.008936 -0.149988 0.888489
-0.007430 -0.149909 0.888023
-0.005926 -0.149839 0.887607
-0.004423 -0.149779 0.887250
-0.002923 -0.149757 0.887118
-0.001422 -0.149610 0.886247
0.000076 -0.149487 0.885519
0.001572 -0.149389 0.884940
0.003067 -0.149325 0.884564
0.004560 -0.149243 0.884074
0.006055 -0.149256 0.884154
0.007551 -0.149283 0.884312
0.009048 -0.149313 0.884490
0.010550 -0.149419 0.885116
0.012056 -0.149533 0.885794
0.013539 -0.149369 0.884822
0.018528 -0.141762 0.839762
0.019721 -0.140151 0.830220
0.021094 -0.139949 0.829018
0.022458 -0.139719 0.827655
0.023814 -0.139462 0.826136
0.025167 -0.139220 0.824704
0.026525 -0.139033 0.823591
0.027889 -0.138890 0.822746
0.029255 -0.138775 0.822066
0.030630 -0.138707 0.821664
0.032006 -0.138649 0.821320
0.033384 -0.138607 0.821073
0.034769 -0.138595 0.820998
0.036158 -0.138597 0.821012
0.037552 -0.138622 0.821160
0.038941 -0.138623 0.821164
0.040332 -0.138635 0.821235
0.041725 -0.138648 0.821316
0.043126 -0.138689 0.821557
0.044521 -0.138709 0.821673
0.045931 -0.138773 0.822053
0.047343 -0.138836 0.822429
0.048756 -0.138901 0.822813
0.050185 -0.139006 0.823432
0.051635 -0.139163 0.824364
0.053087 -0.139316 0.825272
0.066281 -0.153738 0.910703
0.068190 -0.154575 0.915663
0.070112 -0.155404 0.920573
0.071819 -0.155733 0.922520
0.073538 -0.156071 0.924520
0.075265 -0.156411 0.926534
-0.079902 -0.158134 0.946244
-0.078201 -0.157928 0.945012
-0.076487 -0.157689 0.943582
-0.074650 -0.157180 0.940538
-0.072813 -0.156648 0.937353
-0.070949 -0.156035 0.933682
-0.069134 -0.155501 0.930490
-0.067343 -0.155001 0.927497
-0.065615 -0.154623 0.925233
-0.063922 -0.154312 0.923376
-0.062254 -0.154049 0.921798
-0.060556 -0.153694 0.919676
-0.058868 -0.153346 0.917597
-0.057186 -0.152995 0.915493
-0.055502 -0.152622 0.913263
-0.053866 -0.152362 0.911705
-0.052269 -0.152199 0.910728
-0.050698 -0.152104 0.910164
-0.049131 -0.152016 0.909636
-0.047568 -0.151937 0.909165
-0.045979 -0.151763 0.908123
-0.044373 -0.151522 0.906681
-0.042763 -0.151249 0.905045
-0.041163 -0.150992 0.903506
-0.039577 -0.150771 0.902185
-0.038009 -0.150599 0.901155
-0.036458 -0.150488 0.900494
-0.034918 -0.150410 0.900028
-0.033377 -0.150321 0.899496
-0.031834 -0.150216 0.898866
-0.030297 -0.150131 0.898358
-0.028760 -0.150034 0.897779
-0.027220 -0.149913 0.897052
-0.025690 -0.149835 0.896587
-0.024162 -0.149755 0.896107
-0.022630 -0.149647 0.895462
-0.021103 -0.149552 0.894890
-0.019578 -0.149456 0.894315
-0.018049 -0.149319 0.893500
-0.016523 -0.149182 0.892676
-0.015002 -0.149054 0.891914
-0.013481 -0.148916 0.891087
-0.011964 -0.148782 0.890284
-0.010450 -0.148661 0.889562
-0.008943 -0.148607 0.889240
-0.007437 -0.148546 0.888872
-0.005933 -0.148504 0.888618
-0.004429 -0.148460 0.888356
-0.002927 -0.148453 0.888316
-0.001424 -0.148319 0.887517
0.000076 -0.148196 0.886775
0.001574 -0.148096 0.886180
0.003071 -0.148019 0.885721
0.004565 -0.147924 0.885150
0.006061 -0.147910 0.885067
0.007559 -0.147933 0.885205
0.009055 -0.147935 0.885217
0.010558 -0.148027 0.885766
0.012065 -0.148138 0.886433
0.013576 -0.148280 0.887279
0.019724 -0.138767 0.830354
0.021095 -0.138555 0.829087
0.022458 -0.138316 0.827657
0.023814 -0.138064 0.826148
0.025167 -0.137823 0.824708
0.026523 -0.137624 0.823519
0.027883 -0.137468 0.822586
0.029247 -0.137341 0.821822
0.030621 -0.137272 0.821408
0.031994 -0.137205 0.821012
0.033372 -0.137166 0.820777
0.034757 -0.137154 0.820702
0.036144 -0.137154 0.820707
0.037535 -0.137166 0.820779
0.038923 -0.137167 0.820782
0.040314 -0.137178 0.820849
0.041705 -0.137191 0.820927
0.043105 -0.137230 0.821158
0.044499 -0.137247 0.821261
0.045905 -0.137300 0.821577
0.047307 -0.137339 0.821811
0.048715 -0.137392 0.822126
0.050133 -0.137468 0.822585
0.051572 -0.137597 0.823354
0.053020 -0.137743 0.824226
0.067958 -0.152503 0.912553
0.070143 -0.153913 0.920988
0.071859 -0.154253 0.923022
0.073584 -0.154600 0.925099
0.075312 -0.154937 0.927117
-0.080074 -0.156866 0.948274
-0.078359 -0.156643 0.946930
-0.076629 -0.156380 0.945338
-0.074765 -0.155824 0.941980
-0.072900 -0.155246 0.938481
-0.071012 -0.154587 0.934502
-0.069180 -0.154027 0.931115
-0.067381 -0.153514 0.928013
-0.065657 -0.153153 0.925832
-0.063964 -0.152846 0.923976
-0.062307 -0.152614 0.922572
-0.060620 -0.152295 0.920646
-0.058943 -0.151984 0.918767
-0.057266 -0.151657 0.916785
-0.055591 -0.151316 0.914724
-0.053952 -0.151055 0.913146
-0.052341 -0.150861 0.911974
-0.050757 -0.150736 0.911221
-0.049177 -0.150615 0.910487
-0.047608 -0.150521 0.909923
-0.046014 -0.150338 0.908813
-0.044412 -0.150118 0.907482
-0.042801 -0.149847 0.905846
-0.041198 -0.149590 0.904290
-0.039606 -0.149352 0.902850
-0.038032 -0.149165 0.901722
-0.036477 -0.149039 0.900959
-0.034936 -0.148960 0.900484
-0.033397 -0.148885 0.900030
-0.031856 -0.148795 0.899488
-0.030322 -0.148730 0.899096
-0.028784 -0.148636 0.898524
-0.027245 -0.148530 0.897884
-0.025714 -0.148453 0.897419
-0.024185 -0.148377 0.896960
-0.022650 -0.148258 0.896239
-0.021121 -0.148161 0.895656
-0.019594 -0.148065 0.895075
-0.018063 -0.147916 0.894174
-0.016536 -0.147777 0.893335
-0.015013 -0.147651 0.892573
-0.013491 -0.147512 0.891728
-0.011973 -0.147378 0.890917
-0.010459 -0.147273 0.890284
-0.008950 -0.147210 0.889906
-0.007443 -0.147165 0.889631
-0.005938 -0.147139 0.889473
-0.004433 -0.147098 0.889225
-0.002930 -0.147093 0.889200
-0.001426 -0.146976 0.888489
0.000076 -0.146840 0.887668
0.001576 -0.146738 0.887051
0.003074 -0.146645 0.886491
0.004569 -0.146533 0.885815
0.006065 -0.146504 0.885639
0.007564 -0.146542 0.885863
0.009062 -0.146543 0.885872
0.010566 -0.146632 0.886413
0.012074 -0.146753 0.887142
0.013587 -0.146890 0.887969
0.019729 -0.137393 0.830557
0.021099 -0.137171 0.829217
0.022462 -0.136932 0.827774
0.023815 -0.136668 0.826179
0.025167 -0.136428 0.824724
0.026520 -0.136216 0.823447
0.027878 -0.136047 0.822424
0.029240 -0.135918 0.821640
0.030614 -0.135850 0.821233
0.031987 -0.135787 0.820852
0.033369 -0.135762 0.820702
0.034754 -0.135751 0.820633
0.036141 -0.135751 0.820633
0.037528 -0.135751 0.820633
0.038916 -0.135751 0.820633
0.040303 -0.135751 0.820633
0.041694 -0.135762 0.820702
0.043089 -0.135787 0.820852
0.044481 -0.135801 0.820937
0.045882 -0.135839 0.821168
0.047284 -0.135878 0.821403
0.048687 -0.135920 0.821656
0.050092 -0.135961 0.821905
0.051515 -0.136050 0.822442
0.052950 -0.136166 0.823139
0.069655 -0.151292 0.914581
0.071656 -0.152258 0.920420
0.073656 -0.153181 0.926001
0.075386 -0.153516 0.928022
-0.080207 -0.155517 0.949858
-0.078490 -0.155296 0.948506
-0.076747 -0.155016 0.946795
-0.074871 -0.154446 0.943314
-0.072987 -0.153837 0.939595
-0.071085 -0.153162 0.935472
-0.069237 -0.152574 0.931880
-0.067435 -0.152064 0.928763
-0.065705 -0.151693 0.926499
-0.064009 -0.151388 0.924637
-0.062352 -0.151160 0.923246
-0.060682 -0.150888 0.921584
-0.059012 -0.150601 0.919832
-0.057346 -0.150312 0.918066
-0.055681 -0.150007 0.916200
-0.054039 -0.149748 0.914618
-0.052409 -0.149511 0.913171
-0.050812 -0.149354 0.912210
-0.049219 -0.149200 0.911275
-0.047644 -0.149090 0.910601
-0.046047 -0.148905 0.909473
-0.044445 -0.148688 0.908147
-0.042828 -0.148406 0.906421
-0.041224 -0.148149 0.904850
-0.039627 -0.147897 0.903316
-0.038045 -0.147685 0.902022
-0.036486 -0.147547 0.901177
-0.034943 -0.147465 0.900678
-0.033403 -0.147389 0.900212
-0.031863 -0.147301 0.899676
-0.030335 -0.147268 0.899473
-0.028802 -0.147205 0.899085
-0.027268 -0.147130 0.898632
-0.025735 -0.147053 0.898161
-0.024207 -0.146991 0.897780
-0.022668 -0.146859 0.896975
-0.021137 -0.146752 0.896321
-0.019607 -0.146642 0.895648
-0.018074 -0.146493 0.894739
-0.016545 -0.146344 0.893826
-0.015019 -0.146203 0.892969
-0.013497 -0.146063 0.892113
-0.011977 -0.145927 0.891282
-0.010464 -0.145837 0.890732
-0.008955 -0.145778 0.890372
-0.007449 -0.145763 0.890280
-0.005943 -0.145750 0.890204
-0.004437 -0.145724 0.890045
-0.002933 -0.145723 0.890036
-0.001427 -0.145623 0.889428
0.000076 -0.145488 0.888603
0.001578 -0.145388 0.887990
0.003077 -0.145292 0.887403
0.004573 -0.145180 0.886719
0.006071 -0.145148 0.886524
0.007572 -0.145185 0.886750
0.009070 -0.145174 0.886682
0.010574 -0.145236 0.887063
0.012082 -0.145338 0.887686
0.013594 -0.145457 0.888414
0.019739 -0.136055 0.830987
0.021109 -0.135833 0.829630
0.022471 -0.135583 0.828104
0.023822 -0.135307 0.826417
0.025172 -0.135054 0.824875
0.026520 -0.134820 0.823442
0.027873 -0.134628 0.822271
0.029234 -0.134498 0.821478
0.030608 -0.134432 0.821073
0.031982 -0.134371 0.820702
0.033366 -0.134360 0.820633
0.034754 -0.134360 0.820633
0.036141 -0.134360 0.820633
0.037528 -0.134360 0.820633
0.038916 -0.134360 0.820633
0.040303 -0.134360 0.820633
0.041690 -0.134360 0.820633
0.043081 -0.134371 0.820702
0.044469 -0.134372 0.820707
0.045865 -0.134396 0.820854
0.047261 -0.134421 0.821009
0.048663 -0.134460 0.821246
0.050062 -0.134489 0.821421
0.051475 -0.134552 0.821809
0.052899 -0.134641 0.822347
0.054813 -0.137347 0.830283
0.054528 -0.135233 0.825965
0.071443 -0.150250 0.917685
0.073753 -0.151811 0.927222
0.075484 -0.152141 0.929238
-0.080408 -0.154291 0.952228
-0.078636 -0.153974 0.950272
-0.076850 -0.153616 0.948062
-0.074955 -0.153018 0.944372
-0.073057 -0.152391 0.940500
-0.071139 -0.151690 0.936175
-0.069274 -0.151075 0.932376
-0.067464 -0.150554 0.929160
-0.065732 -0.150186 0.926892
-0.064031 -0.149871 0.924946
-0.062373 -0.149646 0.923557
-0.060720 -0.149420 0.922164
-0.059062 -0.149170 0.920620
-0.057403 -0.148903 0.918973
-0.055754 -0.148647 0.917395
-0.054115 -0.148407 0.915909
-0.052473 -0.148142 0.914279
-0.050863 -0.147954 0.913118
-0.049256 -0.147767 0.911961
-0.047668 -0.147623 0.911074
-0.046066 -0.147423 0.909842
-0.044462 -0.147207 0.908507
-0.042845 -0.146927 0.906779
-0.041244 -0.146686 0.905292
-0.039646 -0.146438 0.903763
-0.038064 -0.146229 0.902471
-0.036504 -0.146093 0.901628
-0.034957 -0.145998 0.901043
-0.033416 -0.145921 0.900567
-0.031875 -0.145834 0.900030
-0.030347 -0.145803 0.899842
-0.028814 -0.145745 0.899480
-0.027285 -0.145698 0.899193
-0.025751 -0.145622 0.898726
-0.024222 -0.145560 0.898341
-0.022682 -0.145428 0.897524
-0.021149 -0.145319 0.896855
-0.019616 -0.145196 0.896096
-0.018083 -0.145049 0.895187
-0.016553 -0.144901 0.894275
-0.015027 -0.144762 0.893419
-0.013502 -0.144610 0.892480
-0.011982 -0.144473 0.891633
-0.010468 -0.144384 0.891082
-0.008958 -0.144325 0.890722
-0.007452 -0.144312 0.890638
-0.005946 -0.144312 0.890640
-0.004440 -0.144300 0.890566
-0.002935 -0.144312 0.890640
-0.001428 -0.144229 0.890130
0.000077 -0.144111 0.889398
0.001579 -0.144013 0.888794
0.003079 -0.143904 0.888122
0.004577 -0.143793 0.887434
0.006076 -0.143761 0.887239
0.007577 -0.143786 0.887394
0.009077 -0.143776 0.887329
0.010580 -0.143822 0.887617
0.012087 -0.143896 0.888074
0.013597 -0.143986 0.888626
0.019754 -0.134748 0.831615
0.021121 -0.134502 0.830092
0.022479 -0.134229 0.828409
0.023826 -0.133930 0.826564
0.025174 -0.133668 0.824946
0.026518 -0.133413 0.823373
0.027870 -0.133222 0.822196
0.029232 -0.133093 0.821401
0.030605 -0.133028 0.820998
0.031979 -0.132969 0.820633
0.033366 -0.132969 0.820633
0.034754 -0.132969 0.820633
0.036141 -0.132969 0.820633
0.037525 -0.132958 0.820563
0.038909 -0.132945 0.820489
0.040292 -0.132933 0.820412
0.041675 -0.132921 0.820338
0.043058 -0.132910 0.820269
0.044445 -0.132910 0.820269
0.045836 -0.132921 0.820338
0.047231 -0.132944 0.820482
0.048631 -0.132981 0.820708
0.050033 -0.133019 0.820943
0.051440 -0.133068 0.821244
0.052862 -0.133153 0.821768
0.054268 -0.133195 0.822029
0.056191 -0.135877 0.829901
0.055680 -0.133248 0.822358
0.073860 -0.150457 0.928566
0.075600 -0.150797 0.930662
0.077918 -0.153846 0.939649
0.077313 -0.151071 0.932353
-0.080582 -0.153008 0.954291
-0.078769 -0.152622 0.951881
-0.076950 -0.152207 0.949296
-0.075044 -0.151598 0.945494
-0.073130 -0.150947 0.941435
-0.071208 -0.150250 0.937087
-0.069326 -0.149608 0.933083
-0.067508 -0.149076 0.929767
-0.065767 -0.148694 0.927385
-0.064059 -0.148368 0.925352
-0.062394 -0.148128 0.923857
-0.060752 -0.147933 0.922642
-0.059099 -0.147702 0.921200
-0.057452 -0.147472 0.919761
-0.055819 -0.147264 0.918469
-0.054178 -0.147026 0.916985
-0.052534 -0.146763 0.915345
-0.050915 -0.146557 0.914060
-0.049292 -0.146326 0.912617
-0.047688 -0.146138 0.911444
-0.046079 -0.145923 0.910104
-0.044466 -0.145681 0.908592
-0.042849 -0.145405 0.906869
-0.041249 -0.145168 0.905392
-0.039655 -0.144937 0.903951
-0.038076 -0.144744 0.902750
-0.036519 -0.144624 0.901999
-0.034969 -0.144517 0.901337
-0.033427 -0.144440 0.900854
-0.031885 -0.144353 0.900309
-0.030356 -0.144321 0.900113
-0.028823 -0.144266 0.899765
-0.027297 -0.144236 0.899580
-0.025765 -0.144176 0.899209
-0.024235 -0.144114 0.898818
-0.022694 -0.143980 0.897983
-0.021160 -0.143870 0.897299
-0.019626 -0.143747 0.896530
-0.018092 -0.143601 0.895620
-0.016561 -0.143455 0.894708
-0.015034 -0.143318 0.893856
-0.013509 -0.143168 0.892920
-0.011988 -0.143032 0.892075
-0.010473 -0.142944 0.891521
-0.008962 -0.142872 0.891076
-0.007454 -0.142844 0.890897
-0.005947 -0.142830 0.890810
-0.004441 -0.142816 0.890728
-0.002935 -0.142816 0.890728
-0.001428 -0.142748 0.890301
0.000077 -0.142646 0.889662
0.001580 -0.142563 0.889147
0.003081 -0.142459 0.888501
0.004580 -0.142363 0.887897
0.006079 -0.142335 0.887722
0.007581 -0.142359 0.887874
0.009082 -0.142348 0.887809
0.010586 -0.142391 0.888075
0.012093 -0.142463 0.888521
0.013604 -0.142550 0.889068
0.019805 -0.133684 0.833770
0.021123 -0.133109 0.830183
0.022481 -0.132837 0.828485
0.023826 -0.132529 0.826564
0.025174 -0.132269 0.824946
0.026518 -0.132017 0.823373
0.027870 -0.131828 0.822196
0.029232 -0.131701 0.821401
0.030605 -0.131636 0.820998
0.031979 -0.131578 0.820633
0.033366 -0.131578 0.820633
0.034754 -0.131578 0.820633
0.036141 -0.131578 0.820633
0.037522 -0.131555 0.820489
0.038901 -0.131529 0.820332
0.040280 -0.131503 0.820168
0.041659 -0.131478 0.820011
0.043037 -0.131455 0.819868
0.044423 -0.131455 0.819868
0.045806 -0.131444 0.819799
0.047196 -0.131455 0.819868
0.048590 -0.131479 0.820018
0.049991 -0.131516 0.820251
0.051393 -0.131555 0.820490
0.052818 -0.131650 0.821082
0.054227 -0.131702 0.821407
0.055638 -0.131754 0.821735
0.057557 -0.134384 0.829365
0.057264 -0.132302 0.825148
0.073958 -0.149082 0.929802
0.075701 -0.149418 0.931901
0.077414 -0.149685 0.933565
-0.082481 -0.151917 0.957610
-0.080725 -0.151659 0.955988
-0.078882 -0.151224 0.953244
-0.077027 -0.150747 0.950238
-0.075109 -0.150126 0.946323
-0.073188 -0.149469 0.942182
-0.071264 -0.148778 0.937826
-0.069381 -0.148142 0.933817
-0.067560 -0.147613 0.930478
-0.065803 -0.147203 0.927894
-0.064092 -0.146876 0.925835
-0.062425 -0.146635 0.924318
-0.060783 -0.146444 0.923114
-0.059136 -0.146231 0.921771
-0.057500 -0.146033 0.920521
-0.055871 -0.145843 0.919325
-0.054229 -0.145608 0.917845
-0.052583 -0.145347 0.916200
-0.050952 -0.145114 0.914726
-0.049322 -0.144867 0.913172
-0.047707 -0.144651 0.911808
-0.046093 -0.144423 0.910375
-0.044479 -0.144183 0.908859
-0.042866 -0.143925 0.907232
-0.041262 -0.143679 0.905681
-0.039668 -0.143451 0.904246
-0.038088 -0.143258 0.903032
-0.036531 -0.143141 0.902289
-0.034981 -0.143038 0.901643
-0.033439 -0.142963 0.901167
-0.031898 -0.142886 0.900681
-0.030365 -0.142838 0.900385
-0.028832 -0.142782 0.900030
-0.027305 -0.142755 0.899857
-0.025776 -0.142712 0.899584
-0.024243 -0.142638 0.899120
-0.022704 -0.142518 0.898364
-0.021169 -0.142409 0.897674
-0.019632 -0.142273 0.896822
-0.018098 -0.142129 0.895910
-0.016568 -0.141996 0.895075
-0.015040 -0.141862 0.894227
-0.013515 -0.141714 0.893299
-0.011994 -0.141596 0.892553
-0.010479 -0.141506 0.891987
-0.008966 -0.141435 0.891536
-0.007458 -0.141404 0.891343
-0.005950 -0.141376 0.891164
-0.004442 -0.141348 0.890988
-0.002936 -0.141346 0.890979
-0.001429 -0.141266 0.890470
0.000077 -0.141166 0.889840
0.001580 -0.141085 0.889331
0.003082 -0.140996 0.888771
0.004581 -0.140902 0.888177
0.006082 -0.140902 0.888175
0.007585 -0.140927 0.888337
0.009087 -0.140930 0.888352
0.010592 -0.140971 0.888610
0.012100 -0.141039 0.889042
0.013610 -0.141112 0.889501
0.014971 -0.141272 0.881093
0.015015 -0.140184 0.883654
0.019912 -0.132987 0.838289
0.021180 -0.132052 0.832389
0.022485 -0.131456 0.828632
0.023828 -0.131140 0.826642
0.025176 -0.130883 0.825022
0.026523 -0.130643 0.823513
0.027873 -0.130446 0.822271
0.029234 -0.130321 0.821478
0.030608 -0.130256 0.821073
0.031982 -0.130198 0.820702
0.033366 -0.130186 0.820633
0.034754 -0.130186 0.820633
0.036138 -0.130176 0.820563
0.037515 -0.130140 0.820338
0.038890 -0.130101 0.820092
0.040264 -0.130059 0.819832
0.041637 -0.130022 0.819593
0.043015 -0.129998 0.819442
0.044400 -0.129998 0.819442
0.045778 -0.129975 0.819299
0.047166 -0.129985 0.819362
0.048556 -0.129998 0.819443
0.049952 -0.130026 0.819622
0.051354 -0.130066 0.819874
0.052779 -0.130162 0.820477
0.054187 -0.130214 0.820806
0.055602 -0.130277 0.821205
0.057006 -0.130313 0.821430
0.058929 -0.132911 0.828949
0.058409 -0.130346 0.821635
0.073785 -0.147161 0.927631
0.075820 -0.148072 0.933375
0.077505 -0.148275 0.934656
-0.084266 -0.152216 0.959497
-0.084348 -0.150738 0.960442
-0.082572 -0.150460 0.958670
-0.080816 -0.150208 0.957068
-0.078961 -0.149758 0.954200
-0.077085 -0.149250 0.950961
-0.075173 -0.148648 0.947125
-0.073259 -0.148015 0.943091
-0.071349 -0.147363 0.938937
-0.069464 -0.146735 0.934936
-0.067639 -0.146207 0.931571
-0.065866 -0.145768 0.928773
-0.064145 -0.145427 0.926599
-0.062464 -0.145160 0.924898
-0.060820 -0.144969 0.923685
-0.059173 -0.144759 0.922346
-0.057536 -0.144565 0.921108
-0.055912 -0.144391 0.919998
-0.054270 -0.144160 0.918530
-0.052622 -0.143901 0.916876
-0.050980 -0.143641 0.915222
-0.049348 -0.143396 0.913660
-0.047722 -0.143152 0.912110
-0.046108 -0.142926 0.910668
-0.044494 -0.142688 0.909152
-0.042888 -0.142461 0.907704
-0.041284 -0.142219 0.906162
-0.039689 -0.141994 0.904726
-0.038107 -0.141800 0.903495
-0.036550 -0.141682 0.902743
-0.034995 -0.141569 0.902021
-0.033450 -0.141483 0.901470
-0.031911 -0.141418 0.901058
-0.030375 -0.141356 0.900663
-0.028840 -0.141298 0.900295
-0.027313 -0.141271 0.900119
-0.025786 -0.141243 0.899941
-0.024253 -0.141172 0.899488
-0.022715 -0.141069 0.898835
-0.021180 -0.140961 0.898148
-0.019643 -0.140829 0.897306
-0.018108 -0.140686 0.896394
-0.016577 -0.140554 0.895553
-0.015050 -0.140434 0.894792
-0.013524 -0.140302 0.893946
-0.012003 -0.140187 0.893217
-0.010487 -0.140100 0.892659
-0.008973 -0.140027 0.892198
-0.007462 -0.139981 0.891906
-0.005953 -0.139939 0.891633
-0.004444 -0.139909 0.891445
-0.002937 -0.139907 0.891431
-0.001429 -0.139826 0.890915
0.000077 -0.139726 0.890280
0.001581 -0.139633 0.889687
0.003083 -0.139544 0.889116
0.004583 -0.139449 0.888513
0.006085 -0.139463 0.888601
0.007589 -0.139492 0.888785
0.009092 -0.139495 0.888808
0.010598 -0.139536 0.889067
0.012105 -0.139590 0.889411
0.013615 -0.139650 0.889791
0.015057 -0.139078 0.886148
0.019972 -0.131963 0.840814
0.021186 -0.130677 0.832621
0.022487 -0.130064 0.828716
0.023831 -0.129752 0.826730
0.025179 -0.129497 0.825106
0.026525 -0.129260 0.823594
0.027873 -0.129054 0.822279
0.029235 -0.128930 0.821488
0.030606 -0.128855 0.821012
0.031976 -0.128785 0.820564
0.033357 -0.128761 0.820412
0.034741 -0.128749 0.820338
0.036122 -0.128727 0.820194
0.037498 -0.128690 0.819960
0.038872 -0.128650 0.819704
0.040241 -0.128597 0.819367
0.041610 -0.128547 0.819049
0.042982 -0.128511 0.818822
0.044363 -0.128500 0.818747
0.045735 -0.128465 0.818528
0.047125 -0.128485 0.818653
0.048518 -0.128507 0.818794
0.049918 -0.128547 0.819050
0.051328 -0.128611 0.819455
0.052758 -0.128720 0.820149
0.054167 -0.128773 0.820488
0.055581 -0.128835 0.820886
0.056989 -0.128883 0.821188
0.058393 -0.128918 0.821411
0.075583 -0.146031 0.930453
0.077570 -0.146816 0.935452
-0.084408 -0.149214 0.961115
-0.082644 -0.148964 0.959503
-0.080891 -0.148723 0.957953
-0.079031 -0.148273 0.955049
-0.077135 -0.147733 0.951574
-0.075221 -0.147137 0.947733
-0.073314 -0.146527 0.943802
-0.071412 -0.145900 0.939766
-0.069533 -0.145295 0.935866
-0.067707 -0.144772 0.932504
-0.065925 -0.144322 0.929602
-0.064200 -0.143980 0.927397
-0.062511 -0.143701 0.925601
-0.060855 -0.143486 0.924216
-0.059206 -0.143276 0.922865
-0.057567 -0.143080 0.921604
-0.055932 -0.142882 0.920329
-0.054284 -0.142640 0.918767
-0.052640 -0.142396 0.917196
-0.050993 -0.142126 0.915454
-0.049360 -0.141882 0.913884
-0.047734 -0.141640 0.912328
-0.046123 -0.141430 0.910975
-0.044513 -0.141208 0.909543
-0.042916 -0.141013 0.908290
-0.041311 -0.140776 0.906763
-0.039718 -0.140564 0.905399
-0.038138 -0.140382 0.904226
-0.036575 -0.140250 0.903373
-0.035017 -0.140125 0.902568
-0.033467 -0.140026 0.901931
-0.031928 -0.139963 0.901523
-0.030387 -0.139887 0.901034
-0.028850 -0.139817 0.900582
-0.027319 -0.139775 0.900311
-0.025794 -0.139759 0.900209
-0.024260 -0.139689 0.899760
-0.022723 -0.139591 0.899127
-0.021189 -0.139499 0.898539
-0.019653 -0.139382 0.897785
-0.018119 -0.139253 0.896954
-0.016589 -0.139137 0.896204
-0.015062 -0.139033 0.895536
-0.013537 -0.138918 0.894792
-0.012016 -0.138816 0.894139
-0.010498 -0.138730 0.893582
-0.008982 -0.138645 0.893038
-0.007469 -0.138588 0.892668
-0.005957 -0.138531 0.892301
-0.004447 -0.138488 0.892022
-0.002939 -0.138471 0.891914
-0.001430 -0.138390 0.891395
0.000077 -0.138292 0.890759
0.001581 -0.138197 0.890148
0.003084 -0.138093 0.889481
0.004584 -0.137984 0.888778
0.006087 -0.137997 0.888859
0.007591 -0.138028 0.889058
0.009094 -0.138023 0.889026
0.010601 -0.138076 0.889372
0.012109 -0.138128 0.889707
0.013618 -0.138174 0.889999
0.015096 -0.137927 0.888413
0.021238 -0.129584 0.834670
0.022486 -0.128650 0.828658
0.023831 -0.128354 0.826752
0.025179 -0.128101 0.825119
0.026528 -0.127876 0.823674
0.027875 -0.127672 0.822358
0.029238 -0.127551 0.821577
0.030606 -0.127464 0.821017
0.031973 -0.127380 0.820478
0.033347 -0.127332 0.820168
0.034727 -0.127308 0.820011
0.036101 -0.127263 0.819722
0.037473 -0.127216 0.819417
0.038842 -0.127164 0.819085
0.040207 -0.127102 0.818687
0.041572 -0.127042 0.818302
0.042943 -0.127007 0.818072
0.044322 -0.126994 0.817989
0.045692 -0.126959 0.817765
0.047082 -0.126979 0.817890
0.048473 -0.127000 0.818031
0.049875 -0.127050 0.818353
0.051293 -0.127136 0.818905
0.052727 -0.127256 0.819676
0.054146 -0.127332 0.820169
0.055569 -0.127416 0.820711
0.056988 -0.127487 0.821168
0.058399 -0.127537 0.821489
0.075661 -0.144604 0.931417
-0.084459 -0.147676 0.961707
-0.082698 -0.147434 0.960129
-0.080918 -0.147149 0.958277
-0.079058 -0.146704 0.955373
-0.077161 -0.146169 0.951891
-0.075254 -0.145594 0.948148
-0.073354 -0.145006 0.944318
-0.071467 -0.144419 0.940493
-0.069595 -0.143836 0.936702
-0.067775 -0.143335 0.933437
-0.065983 -0.142873 0.930428
-0.064257 -0.142534 0.928220
-0.062561 -0.142244 0.926330
-0.060890 -0.142001 0.924748
-0.059239 -0.141790 0.923374
-0.057597 -0.141592 0.922086
-0.055955 -0.141381 0.920714
-0.054306 -0.141141 0.919150
-0.052667 -0.140914 0.917671
-0.051013 -0.140631 0.915827
-0.049380 -0.140389 0.914252
-0.047748 -0.140137 0.912608
-0.046137 -0.139929 0.911258
-0.044532 -0.139725 0.909927
-0.042943 -0.139562 0.908867
-0.041342 -0.139345 0.907450
-0.039757 -0.139164 0.906275
-0.038175 -0.138983 0.905098
-0.036602 -0.138822 0.904045
-0.035038 -0.138681 0.903131
-0.033484 -0.138567 0.902388
-0.031941 -0.138492 0.901900
-0.030400 -0.138419 0.901420
-0.028862 -0.138351 0.900979
-0.027328 -0.138293 0.900604
-0.025802 -0.138275 0.900484
-0.024267 -0.138205 0.900030
-0.022730 -0.138109 0.899405
-0.021198 -0.138034 0.898917
-0.019663 -0.137931 0.898244
-0.018130 -0.137817 0.897501
-0.016601 -0.137718 0.896856
-0.015075 -0.137630 0.896286
-0.013550 -0.137531 0.895641
-0.012028 -0.137444 0.895075
-0.010509 -0.137359 0.894521
-0.008991 -0.137273 0.893962
-0.007476 -0.137203 0.893506
-0.005962 -0.137133 0.893047
-0.004451 -0.137076 0.892679
-0.002941 -0.137047 0.892488
-0.001431 -0.136955 0.891889
0.000077 -0.136856 0.891245
0.001582 -0.136763 0.890636
0.003086 -0.136658 0.889951
0.004586 -0.136548 0.889236
0.006090 -0.136559 0.889309
0.007595 -0.136589 0.889508
0.009098 -0.136572 0.889394
0.010605 -0.136612 0.889652
0.012112 -0.136648 0.889891
0.013619 -0.136679 0.890089
0.015129 -0.136727 0.890404
0.016483 -0.136979 0.882308
0.016562 -0.136133 0.886537
0.021284 -0.128451 0.836508
0.022479 -0.127211 0.828434
0.023829 -0.126942 0.826682
0.025179 -0.126702 0.825119
0.026530 -0.126491 0.823746
0.027878 -0.126290 0.822437
0.029238 -0.126159 0.821584
0.030601 -0.126050 0.820875
0.031961 -0.125942 0.820168
0.033325 -0.125857 0.819612
0.034697 -0.125809 0.819300
0.036066 -0.125752 0.818931
0.037440 -0.125716 0.818697
0.038809 -0.125667 0.818380
0.040173 -0.125607 0.817989
0.041540 -0.125559 0.817672
0.042913 -0.125533 0.817505
0.044291 -0.125521 0.817425
0.045665 -0.125498 0.817280
0.047054 -0.125519 0.817411
0.048441 -0.125531 0.817491
0.049838 -0.125569 0.817739
0.051250 -0.125643 0.818222
0.052674 -0.125740 0.818856
0.054096 -0.125828 0.819423
0.055523 -0.125923 0.820042
0.056952 -0.126017 0.820656
0.058369 -0.126079 0.821062
0.060361 -0.128760 0.829366
0.060059 -0.126717 0.825217
-0.084503 -0.146121 0.962205
-0.082736 -0.145874 0.960575
-0.080935 -0.145555 0.958472
-0.079082 -0.145128 0.955661
-0.077177 -0.144586 0.952095
-0.075271 -0.144019 0.948361
-0.073385 -0.143467 0.944722
-0.071506 -0.142902 0.941006
-0.069641 -0.142342 0.937315
-0.067827 -0.141861 0.934152
-0.066040 -0.141418 0.931234
-0.064313 -0.141082 0.929018
-0.062620 -0.140807 0.927210
-0.060943 -0.140554 0.925540
-0.059293 -0.140354 0.924223
-0.057638 -0.140129 0.922744
-0.055989 -0.139904 0.921266
-0.054333 -0.139652 0.919606
-0.052693 -0.139425 0.918112
-0.051033 -0.139133 0.916183
-0.049404 -0.138907 0.914701
-0.047772 -0.138657 0.913055
-0.046160 -0.138453 0.911707
-0.044558 -0.138265 0.910468
-0.042974 -0.138120 0.909516
-0.041381 -0.137936 0.908306
-0.039799 -0.137775 0.907244
-0.038220 -0.137611 0.906165
-0.036642 -0.137438 0.905023
-0.035075 -0.137293 0.904072
-0.033512 -0.137150 0.903130
-0.031964 -0.137061 0.902541
-0.030419 -0.136976 0.901980
-0.028880 -0.136909 0.901538
-0.027342 -0.136840 0.901084
-0.025813 -0.136806 0.900860
-0.024277 -0.136735 0.900394
-0.022737 -0.136626 0.899677
-0.021204 -0.136552 0.899187
-0.019670 -0.136450 0.898521
-0.018137 -0.136352 0.897872
-0.016609 -0.136269 0.897326
-0.015086 -0.136212 0.896954
-0.013562 -0.136130 0.896409
-0.012040 -0.136056 0.895925
-0.010521 -0.135996 0.895532
-0.009001 -0.135913 0.894983
-0.007484 -0.135842 0.894516
-0.005969 -0.135770 0.894040
-0.004455 -0.135699 0.893575
-0.002943 -0.135643 0.893207
-0.001432 -0.135539 0.892517
0.000077 -0.135428 0.891789
0.001583 -0.135324 0.891106
0.003087 -0.135222 0.890435
0.004589 -0.135115 0.889725
0.006093 -0.135123 0.889781
0.007599 -0.135151 0.889965
0.009102 -0.135132 0.889837
0.010609 -0.135156 0.889999
0.012115 -0.135177 0.890134
0.013621 -0.135192 0.890234
0.015130 -0.135225 0.890450
0.016601 -0.134946 0.888616
0.022532 -0.126103 0.830381
0.023829 -0.125536 0.826653
0.025181 -0.125313 0.825181
0.026532 -0.125106 0.823818
0.027881 -0.124908 0.822517
0.029238 -0.124768 0.821591
0.030592 -0.124625 0.820648
0.031945 -0.124491 0.819770
0.033302 -0.124381 0.819043
0.034666 -0.124309 0.818573
0.036031 -0.124243 0.818134
0.037404 -0.124208 0.817904
0.038771 -0.124159 0.817582
0.040134 -0.124099 0.817189
0.041499 -0.124052 0.816875
0.042872 -0.124028 0.816720
0.044253 -0.124028 0.816719
0.045630 -0.124019 0.816663
0.047023 -0.124052 0.816876
0.048413 -0.124075 0.817028
0.049809 -0.124110 0.817263
0.051215 -0.124171 0.817663
0.052633 -0.124255 0.818217
0.054049 -0.124331 0.818714
0.055480 -0.124436 0.819407
0.056919 -0.124553 0.820176
0.058346 -0.124639 0.820741
0.059769 -0.124713 0.821230
-0.086191 -0.144594 0.962892
-0.084492 -0.144472 0.962080
-0.082726 -0.144228 0.960461
-0.080926 -0.143914 0.958364
-0.079081 -0.143507 0.955656
-0.077185 -0.142987 0.952194
-0.075287 -0.142440 0.948554
-0.073415 -0.141923 0.945105
-0.071549 -0.141393 0.941581
-0.069685 -0.140843 0.937913
-0.067883 -0.140394 0.934928
-0.066102 -0.139969 0.932097
-0.064366 -0.139623 0.929793
-0.062667 -0.139339 0.927903
-0.060988 -0.139088 0.926226
-0.059332 -0.138876 0.924819
-0.057670 -0.138640 0.923244
-0.056019 -0.138416 0.921757
-0.054357 -0.138153 0.920002
-0.052716 -0.137929 0.918507
-0.051055 -0.137639 0.916577
-0.049421 -0.137403 0.915006
-0.047788 -0.137155 0.913359
-0.046179 -0.136964 0.912088
-0.044581 -0.136791 0.910934
-0.043001 -0.136663 0.910083
-0.041420 -0.136524 0.909155
-0.039846 -0.136396 0.908300
-0.038269 -0.136251 0.907334
-0.036689 -0.136079 0.906191
-0.035116 -0.135919 0.905128
-0.033546 -0.135761 0.904073
-0.031991 -0.135644 0.903296
-0.030442 -0.135547 0.902645
-0.028898 -0.135465 0.902104
-0.027359 -0.135396 0.901644
-0.025824 -0.135337 0.901247
-0.024287 -0.135265 0.900771
-0.022746 -0.135155 0.900038
-0.021213 -0.135081 0.899547
-0.019679 -0.134994 0.898966
-0.018149 -0.134911 0.898415
-0.016621 -0.134843 0.897961
-0.015100 -0.134814 0.897768
-0.013575 -0.134747 0.897321
-0.012052 -0.134679 0.896866
-0.010533 -0.134632 0.896553
-0.009011 -0.134549 0.896003
-0.007491 -0.134454 0.895371
-0.005974 -0.134382 0.894890
-0.004459 -0.134308 0.894397
-0.002946 -0.134238 0.893930
-0.001433 -0.134132 0.893224
0.000077 -0.134034 0.892571
0.001584 -0.133920 0.891811
0.003089 -0.133809 0.891072
0.004592 -0.133703 0.890367
0.006097 -0.133687 0.890265
0.007602 -0.133688 0.890270
0.009105 -0.133665 0.890116
0.010611 -0.133675 0.890183
0.012116 -0.133682 0.890228
0.013623 -0.133694 0.890306
0.015130 -0.133711 0.890421
0.016601 -0.133435 0.888581
0.017917 -0.133558 0.879475
0.017950 -0.132312 0.881106
0.021367 -0.126104 0.839766
0.022529 -0.124679 0.830275
0.023821 -0.124098 0.826409
0.025177 -0.123895 0.825057
0.026530 -0.123701 0.823760
0.027881 -0.123515 0.822525
0.029236 -0.123363 0.821512
0.030581 -0.123187 0.820341
0.031924 -0.123020 0.819227
0.033273 -0.122886 0.818332
0.034627 -0.122781 0.817636
0.035986 -0.122704 0.817125
0.037358 -0.122671 0.816901
0.038727 -0.122634 0.816656
0.040092 -0.122585 0.816333
0.041459 -0.122548 0.816081
0.042831 -0.122525 0.815931
0.044211 -0.122528 0.815952
0.045592 -0.122532 0.815978
0.046984 -0.122566 0.816201
0.048373 -0.122588 0.816352
0.049771 -0.122633 0.816649
0.051176 -0.122690 0.817031
0.052587 -0.122760 0.817493
0.054000 -0.122831 0.817966
0.055430 -0.122934 0.818657
0.056864 -0.123043 0.819380
0.058290 -0.123130 0.819961
0.059717 -0.123213 0.820512
0.061474 -0.125360 0.825491
0.061120 -0.123246 0.820735
-0.086209 -0.142991 0.963094
-0.084505 -0.142862 0.962224
-0.082736 -0.142618 0.960578
-0.080933 -0.142302 0.958454
-0.079081 -0.141886 0.955651
-0.077185 -0.141373 0.952194
-0.075287 -0.140832 0.948554
-0.073423 -0.140335 0.945205
-0.071565 -0.139828 0.941791
-0.069709 -0.139301 0.938237
-0.067913 -0.138871 0.935345
-0.066138 -0.138465 0.932606
-0.064401 -0.138122 0.930295
-0.062701 -0.137842 0.928415
-0.061021 -0.137593 0.926737
-0.059365 -0.137386 0.925343
-0.057703 -0.137153 0.923769
-0.056045 -0.136920 0.922199
-0.054381 -0.136655 0.920420
-0.052739 -0.136433 0.918919
-0.051078 -0.136147 0.916992
-0.049444 -0.135915 0.915431
-0.047814 -0.135683 0.913868
-0.046204 -0.135492 0.912584
-0.044610 -0.135334 0.911520
-0.043028 -0.135207 0.910666
-0.041451 -0.135084 0.909837
-0.039883 -0.134984 0.909163
-0.038314 -0.134869 0.908391
-0.036732 -0.134702 0.907264
-0.035161 -0.134558 0.906293
-0.033589 -0.134400 0.905226
-0.032025 -0.134256 0.904259
-0.030470 -0.134142 0.903491
-0.028922 -0.134046 0.902846
-0.027379 -0.133965 0.902296
-0.025840 -0.133893 0.901817
-0.024302 -0.133822 0.901334
-0.022758 -0.133699 0.900507
-0.021224 -0.133626 0.900013
-0.019690 -0.133540 0.899436
-0.018160 -0.133472 0.898979
-0.016633 -0.133417 0.898608
-0.015112 -0.133402 0.898508
-0.013588 -0.133350 0.898155
-0.012065 -0.133296 0.897793
-0.010544 -0.133252 0.897496
-0.009021 -0.133171 0.896951
-0.007499 -0.133077 0.896315
-0.005981 -0.133004 0.895827
-0.004463 -0.132919 0.895255
-0.002948 -0.132836 0.894694
-0.001434 -0.132715 0.893878
0.000077 -0.132616 0.893212
0.001586 -0.132502 0.892447
0.003092 -0.132393 0.891713
0.004596 -0.132288 0.891005
0.006100 -0.132259 0.890808
0.007605 -0.132233 0.890632
0.009108 -0.132197 0.890391
0.010613 -0.132195 0.890375
0.012118 -0.132191 0.890352
0.013623 -0.132190 0.890345
0.015129 -0.132192 0.890360
0.016637 -0.132218 0.890529
0.018036 -0.131443 0.885311
0.022516 -0.123200 0.829794
0.023805 -0.122611 0.825823
0.025166 -0.122440 0.824676
0.026524 -0.122274 0.823559
0.027876 -0.122100 0.822386
0.029227 -0.121936 0.821280
0.030569 -0.121749 0.820021
0.031906 -0.121561 0.818751
0.033247 -0.121406 0.817708
0.034597 -0.121290 0.816926
0.035955 -0.121213 0.816408
0.037322 -0.121169 0.816115
0.038690 -0.121134 0.815879
0.040057 -0.121097 0.815625
0.041427 -0.121072 0.815458
0.042802 -0.121060 0.815382
0.044185 -0.121074 0.815471
0.045569 -0.121087 0.815562
0.046957 -0.121111 0.815724
0.048340 -0.121122 0.815798
0.049734 -0.121156 0.816028
0.051128 -0.121191 0.816264
0.052528 -0.121238 0.816577
0.053934 -0.121294 0.816958
0.055360 -0.121395 0.817635
0.056787 -0.121490 0.818277
0.058218 -0.121589 0.818945
0.059653 -0.121693 0.819641
0.061062 -0.121738 0.819945
-0.084502 -0.141226 0.962188
-0.082736 -0.140989 0.960578
-0.080938 -0.140686 0.958509
-0.079098 -0.140297 0.955860
-0.077202 -0.139789 0.952398
-0.075309 -0.139266 0.948838
-0.073452 -0.138789 0.945584
-0.071596 -0.138291 0.942197
-0.069747 -0.137786 0.938751
-0.067958 -0.137376 0.935963
-0.066181 -0.136973 0.933212
-0.064437 -0.136620 0.930810
-0.062735 -0.136342 0.928916
-0.061054 -0.136096 0.927237
-0.059397 -0.135891 0.925841
-0.057734 -0.135661 0.924272
-0.056081 -0.135443 0.922789
-0.054422 -0.135196 0.921107
-0.052783 -0.134988 0.919689
-0.051126 -0.134718 0.917852
-0.049490 -0.134489 0.916290
-0.047855 -0.134247 0.914639
-0.046239 -0.134044 0.913260
-0.044638 -0.133875 0.912108
-0.043056 -0.133750 0.911257
-0.041486 -0.133654 0.910600
-0.039921 -0.133568 0.910013
-0.038354 -0.133469 0.909340
-0.036778 -0.133331 0.908400
-0.035206 -0.133190 0.907440
-0.033632 -0.133035 0.906384
-0.032065 -0.132892 0.905408
-0.030506 -0.132765 0.904546
-0.028952 -0.132653 0.903784
-0.027407 -0.132570 0.903215
-0.025861 -0.132475 0.902568
-0.024320 -0.132392 0.902000
-0.022776 -0.132281 0.901249
-0.021239 -0.132197 0.900673
-0.019703 -0.132102 0.900027
-0.018172 -0.132033 0.899560
-0.016644 -0.131979 0.899191
-0.015122 -0.131964 0.899084
-0.013598 -0.131927 0.898835
-0.012075 -0.131887 0.898565
-0.010554 -0.131856 0.898348
-0.009031 -0.131799 0.897962
-0.007508 -0.131707 0.897334
-0.005988 -0.131637 0.896860
-0.004469 -0.131553 0.896285
-0.002951 -0.131470 0.895718
-0.001436 -0.131326 0.894742
0.000077 -0.131215 0.893982
0.001587 -0.131088 0.893119
0.003094 -0.130965 0.892284
0.004598 -0.130846 0.891469
0.006104 -0.130814 0.891255
0.007609 -0.130787 0.891067
0.009113 -0.130751 0.890825
0.010618 -0.130739 0.890738
0.012123 -0.130736 0.890720
0.013629 -0.130735 0.890714
0.015136 -0.130749 0.890811
0.016645 -0.130768 0.890938
0.018095 -0.130366 0.888198
0.023786 -0.121115 0.825172
0.025153 -0.120980 0.824250
0.026515 -0.120837 0.823280
0.027869 -0.120672 0.822154
0.029219 -0.120508 0.821036
0.030557 -0.120312 0.819700
0.031888 -0.120105 0.818288
0.033225 -0.119941 0.817170
0.034570 -0.119813 0.816298
0.035927 -0.119735 0.815768
0.037292 -0.119692 0.815476
0.038664 -0.119670 0.815326
0.040034 -0.119646 0.815166
0.041408 -0.119633 0.815077
0.042782 -0.119623 0.815003
0.044164 -0.119634 0.815084
0.045547 -0.119646 0.815166
0.046933 -0.119668 0.815313
0.048316 -0.119679 0.815390
0.049704 -0.119702 0.815544
0.051089 -0.119716 0.815638
0.052478 -0.119741 0.815810
0.053872 -0.119774 0.816034
0.055287 -0.119851 0.816557
0.056706 -0.119932 0.817112
0.058139 -0.120038 0.817835
0.059579 -0.120153 0.818615
0.060998 -0.120222 0.819086
0.063120 -0.123049 0.828776
0.062730 -0.120892 0.823655
-0.084499 -0.139590 0.962159
-0.082740 -0.139367 0.960618
-0.080965 -0.139108 0.958833
-0.079133 -0.138737 0.956278
-0.077236 -0.138235 0.952818
-0.075350 -0.137732 0.949350
-0.073492 -0.137259 0.946091
-0.071635 -0.136768 0.942706
-0.069779 -0.136256 0.939178
-0.067989 -0.135851 0.936387
-0.066210 -0.135450 0.933623
-0.064465 -0.135102 0.931218
-0.062762 -0.134826 0.929319
-0.061086 -0.134594 0.927720
-0.059427 -0.134390 0.926313
-0.057764 -0.134163 0.924746
-0.056110 -0.133948 0.923265
-0.054451 -0.133706 0.921597
-0.052817 -0.133514 0.920276
-0.051165 -0.133263 0.918546
-0.049528 -0.133037 0.916985
-0.047891 -0.132796 0.915325
-0.046273 -0.132595 0.913939
-0.044666 -0.132412 0.912681
-0.043079 -0.132276 0.911743
-0.041512 -0.132193 0.911171
-0.039946 -0.132110 0.910597
-0.038382 -0.132025 0.910013
-0.036813 -0.131915 0.909253
-0.035246 -0.131803 0.908484
-0.033672 -0.131653 0.907445
-0.032107 -0.131525 0.906568
-0.030544 -0.131398 0.905692
-0.028986 -0.131275 0.904840
-0.027436 -0.131178 0.904177
-0.025886 -0.131070 0.903427
-0.024341 -0.130973 0.902762
-0.022796 -0.130865 0.902014
-0.021257 -0.130780 0.901434
-0.019717 -0.130674 0.900701
-0.018185 -0.130605 0.900226
-0.016656 -0.130550 0.899846
-0.015132 -0.130522 0.899655
-0.013607 -0.130486 0.899405
-0.012084 -0.130460 0.899224
-0.010562 -0.130443 0.899105
-0.009040 -0.130399 0.898806
-0.007515 -0.130320 0.898263
-0.005994 -0.130252 0.897793
-0.004473 -0.130171 0.897231
-0.002955 -0.130089 0.896670
-0.001437 -0.129934 0.895598
0.000077 -0.129810 0.894744
0.001588 -0.129670 0.893783
0.003096 -0.129534 0.892845
0.004600 -0.129403 0.891940
0.006107 -0.129370 0.891711
0.007613 -0.129342 0.891521
0.009118 -0.129319 0.891357
0.010625 -0.129319 0.891357
0.012133 -0.129329 0.891431
0.013640 -0.129329 0.891431
0.015150 -0.129356 0.891616
0.016659 -0.129369 0.891707
0.018172 -0.129410 0.891990
0.022606 -0.120867 0.833101
0.023768 -0.119626 0.824546
0.025137 -0.119505 0.823717
0.026502 -0.119382 0.822869
0.027858 -0.119232 0.821835
0.029210 -0.119080 0.820787
0.030548 -0.118887 0.819453
0.031881 -0.118692 0.818115
0.033219 -0.118532 0.817007
0.034563 -0.118405 0.816130
0.035916 -0.118316 0.815519
0.037278 -0.118263 0.815153
0.038649 -0.118242 0.815011
0.040023 -0.118231 0.814935
0.041397 -0.118220 0.814861
0.042771 -0.118210 0.814792
0.044152 -0.118220 0.814861
0.045530 -0.118221 0.814866
0.046912 -0.118231 0.814937
0.048294 -0.118242 0.815008
0.049680 -0.118263 0.815153
0.051064 -0.118275 0.815240
0.052452 -0.118298 0.815395
0.053836 -0.118310 0.815476
0.055239 -0.118362 0.815838
0.056650 -0.118429 0.816297
0.058081 -0.118532 0.817010
0.059520 -0.118649 0.817814
0.060951 -0.118743 0.818462
0.062382 -0.118833 0.819081
-0.082698 -0.137669 0.960135
-0.080954 -0.137464 0.958702
-0.079146 -0.137139 0.956440
-0.077273 -0.136686 0.953275
-0.075401 -0.136215 0.949996
-0.073541 -0.135747 0.946730
-0.071683 -0.135261 0.943337
-0.069824 -0.134752 0.939787
-0.068025 -0.134335 0.936881
-0.066238 -0.133925 0.934022
-0.064492 -0.133579 0.931606
-0.062783 -0.133294 0.929618
-0.061100 -0.133052 0.927934
-0.059429 -0.132823 0.926337
-0.057769 -0.132608 0.924836
-0.056116 -0.132396 0.923358
-0.054463 -0.132173 0.921802
-0.052836 -0.132001 0.920605
-0.051193 -0.131779 0.919054
-0.049561 -0.131569 0.917593
-0.047922 -0.131331 0.915929
-0.046303 -0.131129 0.914522
-0.044694 -0.130946 0.913242
-0.043105 -0.130809 0.912293
-0.041533 -0.130716 0.911644
-0.039968 -0.130636 0.911086
-0.038403 -0.130554 0.910508
-0.036836 -0.130456 0.909827
-0.035272 -0.130359 0.909154
-0.033704 -0.130238 0.908307
-0.032141 -0.130128 0.907538
-0.030581 -0.130017 0.906764
-0.029018 -0.129882 0.905827
-0.027463 -0.129771 0.905053
-0.025906 -0.129638 0.904125
-0.024357 -0.129528 0.903356
-0.022811 -0.129418 0.902592
-0.021271 -0.129336 0.902015
-0.019730 -0.129231 0.901282
-0.018197 -0.129160 0.900792
-0.016666 -0.129103 0.900395
-0.015139 -0.129063 0.900111
-0.013614 -0.129026 0.899857
-0.012090 -0.129002 0.899685
-0.010568 -0.128986 0.899577
-0.009045 -0.128958 0.899384
-0.007521 -0.128895 0.898939
-0.005999 -0.128840 0.898558
-0.004477 -0.128770 0.898072
-0.002958 -0.128702 0.897593
-0.001438 -0.128536 0.896439
0.000077 -0.128399 0.895485
0.001589 -0.128246 0.894415
0.003097 -0.128098 0.893382
0.004603 -0.127957 0.892397
0.006110 -0.127926 0.892181
0.007617 -0.127900 0.892002
0.009123 -0.127878 0.891849
0.010631 -0.127878 0.891849
0.012140 -0.127899 0.891996
0.013650 -0.127912 0.892084
0.015163 -0.127954 0.892381
0.016678 -0.128002 0.892714
0.018199 -0.128086 0.893302
0.025115 -0.118008 0.823012
0.026487 -0.117923 0.822422
0.027849 -0.117803 0.821584
0.029204 -0.117665 0.820623
0.030545 -0.117486 0.819372
0.031881 -0.117307 0.818123
0.033219 -0.117148 0.817014
0.034561 -0.117013 0.816074
0.035910 -0.116914 0.815384
0.037271 -0.116860 0.815008
0.038642 -0.116839 0.814861
0.040016 -0.116829 0.814792
0.041393 -0.116829 0.814792
0.042771 -0.116829 0.814792
0.044148 -0.116829 0.814792
0.045526 -0.116829 0.814792
0.046903 -0.116829 0.814792
0.048281 -0.116829 0.814792
0.049662 -0.116839 0.814861
0.051045 -0.116850 0.814935
0.052427 -0.116861 0.815011
0.053810 -0.116871 0.815084
0.055202 -0.116901 0.815295
0.056601 -0.116945 0.815601
0.058025 -0.117035 0.816225
0.059468 -0.117160 0.817102
0.060910 -0.117277 0.817916
0.062364 -0.117410 0.818843
-0.084424 -0.136207 0.961305
-0.082693 -0.136033 0.960076
-0.080948 -0.135828 0.958629
-0.079164 -0.135548 0.956652
-0.077308 -0.135131 0.953710
-0.075453 -0.134698 0.950654
-0.073593 -0.134237 0.947401
-0.071739 -0.133766 0.944073
-0.069876 -0.133257 0.940484
-0.068060 -0.132817 0.937373
-0.066258 -0.132383 0.934311
-0.064512 -0.132040 0.931891
-0.062796 -0.131746 0.929816
-0.061107 -0.131495 0.928045
-0.059430 -0.131254 0.926348
-0.057769 -0.131039 0.924827
-0.056115 -0.130828 0.923342
-0.054468 -0.130622 0.921887
-0.052848 -0.130469 0.920806
-0.051220 -0.130289 0.919535
-0.049597 -0.130109 0.918262
-0.047958 -0.129874 0.916609
-0.046333 -0.129663 0.915115
-0.044718 -0.129466 0.913723
-0.043123 -0.129316 0.912665
-0.041546 -0.129211 0.911929
-0.039981 -0.129133 0.911379
-0.038423 -0.129077 0.910978
-0.036859 -0.128993 0.910388
-0.035297 -0.128910 0.909805
-0.033732 -0.128805 0.909060
-0.032174 -0.128723 0.908483
-0.030613 -0.128615 0.907723
-0.029051 -0.128494 0.906869
-0.027492 -0.128373 0.906010
-0.025933 -0.128236 0.905045
-0.024379 -0.128113 0.904175
-0.022829 -0.127992 0.903320
-0.021286 -0.127898 0.902662
-0.019744 -0.127793 0.901922
-0.018208 -0.127712 0.901350
-0.016673 -0.127630 0.900771
-0.015144 -0.127576 0.900385
-0.013618 -0.127537 0.900113
-0.012094 -0.127514 0.899947
-0.010571 -0.127501 0.899857
-0.009049 -0.127488 0.899765
-0.007526 -0.127450 0.899495
-0.006003 -0.127409 0.899209
-0.004481 -0.127353 0.898815
-0.002960 -0.127286 0.898342
-0.001439 -0.127121 0.897175
0.000077 -0.126971 0.896119
0.001590 -0.126805 0.894946
0.003099 -0.126647 0.893829
0.004605 -0.126508 0.892851
0.006114 -0.126492 0.892740
0.007622 -0.126481 0.892658
0.009131 -0.126472 0.892594
0.010641 -0.126484 0.892683
0.012153 -0.126519 0.892926
0.013664 -0.126533 0.893024
0.015180 -0.126586 0.893404
0.016698 -0.126642 0.893794
0.018218 -0.126705 0.894242
0.025099 -0.116539 0.822491
0.026472 -0.116464 0.821960
0.027841 -0.116377 0.821345
0.029199 -0.116254 0.820479
0.030545 -0.116098 0.819382
0.031890 -0.115954 0.818361
0.033232 -0.115809 0.817338
0.034575 -0.115677 0.816409
0.035924 -0.115577 0.815700
0.037281 -0.115511 0.815235
0.038645 -0.115468 0.814935
0.040016 -0.115448 0.814792
0.041393 -0.115448 0.814792
0.042771 -0.115448 0.814792
0.044148 -0.115448 0.814792
0.045526 -0.115448 0.814792
0.046903 -0.115448 0.814792
0.048281 -0.115448 0.814792
0.049658 -0.115448 0.814792
0.051036 -0.115448 0.814792
0.052413 -0.115448 0.814792
0.053790 -0.115448 0.814792
0.055173 -0.115458 0.814861
0.056570 -0.115499 0.815153
0.057992 -0.115586 0.815764
0.059429 -0.115699 0.816565
0.060876 -0.115825 0.817453
0.062340 -0.115978 0.818531
-0.082685 -0.134393 0.959984
-0.080949 -0.134205 0.958640
-0.079203 -0.133993 0.957126
-0.077372 -0.133626 0.954502
-0.075533 -0.133228 0.951665
-0.073674 -0.132777 0.948439
-0.071817 -0.132310 0.945105
-0.069958 -0.131817 0.941580
-0.068125 -0.131352 0.938262
-0.066308 -0.130897 0.935012
-0.064552 -0.130541 0.932471
-0.062821 -0.130222 0.930191
-0.061114 -0.129935 0.928137
-0.059423 -0.129670 0.926249
-0.057761 -0.129455 0.924711
-0.056107 -0.129246 0.923216
-0.054467 -0.129057 0.921871
-0.052852 -0.128920 0.920892
-0.051240 -0.128782 0.919901
-0.049622 -0.128618 0.918735
