1686
0.071257 -0.173133 0.915298
0.073096 -0.173827 0.918967
-0.077668 -0.175945 0.938575
-0.076043 -0.175856 0.938105
-0.074335 -0.175569 0.936570
-0.072566 -0.175121 0.934181
-0.070746 -0.174526 0.931006
-0.068913 -0.173871 0.927517
-0.067070 -0.173162 0.923733
-0.065293 -0.172592 0.920693
-0.063553 -0.172097 0.918048
-0.061856 -0.171692 0.915892
-0.060178 -0.171325 0.913931
-0.058540 -0.171052 0.912475
-0.056925 -0.170837 0.911328
-0.055333 -0.170676 0.910470
-0.053764 -0.170583 0.909975
-0.052037 -0.169968 0.906693
-0.050158 -0.168801 0.900469
-0.041260 -0.158040 0.843064
-0.039430 -0.156437 0.834514
-0.037982 -0.156283 0.833689
-0.036540 -0.156143 0.832946
-0.035101 -0.156008 0.832226
-0.033675 -0.155920 0.831754
-0.032260 -0.155873 0.831505
-0.030850 -0.155856 0.831415
-0.029442 -0.155842 0.831336
-0.028039 -0.155856 0.831415
-0.026637 -0.155873 0.831505
-0.025236 -0.155906 0.831678
-0.023837 -0.155951 0.831921
-0.022443 -0.156038 0.832384
-0.021048 -0.156129 0.832869
-0.019661 -0.156292 0.833741
-0.018280 -0.156534 0.835032
-0.016900 -0.156827 0.836591
-0.015512 -0.157097 0.838032
-0.014121 -0.157387 0.839580
-0.012721 -0.157628 0.840865
-0.011315 -0.157840 0.841999
-0.009991 -0.159426 0.850457
-0.008642 -0.161076 0.859260
-0.007265 -0.162782 0.868361
-0.005853 -0.164337 0.876652
-0.004407 -0.165722 0.884041
-0.002912 -0.165660 0.883714
-0.001418 -0.165660 0.883712
0.000076 -0.165659 0.883707
0.001570 -0.165657 0.883695
0.003064 -0.165641 0.883614
0.004557 -0.165624 0.883520
0.006049 -0.165572 0.883243
0.007535 -0.165421 0.882437
0.009019 -0.165278 0.881676
0.010499 -0.165120 0.880830
0.011980 -0.165002 0.880202
0.013462 -0.164923 0.879783
0.014953 -0.164972 0.880042
0.016448 -0.165041 0.880412
0.017944 -0.165116 0.880811
0.019444 -0.165204 0.881278
0.020950 -0.165334 0.881976
0.022451 -0.165406 0.882360
0.023951 -0.165462 0.882655
0.025458 -0.165558 0.883166
0.026969 -0.165670 0.883767
0.028476 -0.165743 0.884156
0.029987 -0.165834 0.884640
0.031501 -0.165932 0.885164
0.033010 -0.165998 0.885514
0.034521 -0.166064 0.885867
0.036041 -0.166166 0.886414
0.037563 -0.166272 0.886979
0.039095 -0.166410 0.887715
0.040625 -0.166530 0.888351
0.042153 -0.166632 0.888899
0.043678 -0.166719 0.889360
0.045209 -0.166821 0.889903
0.046738 -0.166907 0.890364
0.048278 -0.167026 0.890999
0.049844 -0.167228 0.892077
0.051412 -0.167424 0.893124
0.053000 -0.167671 0.894442
0.054587 -0.167900 0.895659
0.056176 -0.168124 0.896858
0.057747 -0.168283 0.897704
0.059360 -0.168555 0.899154
0.060982 -0.168836 0.900654
0.062630 -0.169177 0.902474
0.064305 -0.169571 0.904573
0.066013 -0.170029 0.907021
0.067731 -0.170495 0.909502
0.069482 -0.171020 0.912303
0.071281 -0.171638 0.915600
0.073117 -0.172318 0.919228
-0.077693 -0.174411 0.938885
-0.076068 -0.174323 0.938410
-0.074375 -0.174073 0.937065
-0.072634 -0.173698 0.935048
-0.070839 -0.173175 0.932230
-0.069012 -0.172547 0.928852
-0.067180 -0.171878 0.925248
-0.065404 -0.171324 0.922266
-0.063649 -0.170799 0.919439
-0.061948 -0.170393 0.917255
-0.060261 -0.170011 0.915196
-0.058608 -0.169703 0.913541
-0.056980 -0.169454 0.912202
-0.055374 -0.169259 0.911152
-0.053783 -0.169099 0.910287
-0.051876 -0.167908 0.903875
-0.049805 -0.166096 0.894123
-0.042928 -0.157504 0.847869
-0.041060 -0.155853 0.838986
-0.039377 -0.154815 0.833395
-0.037942 -0.154705 0.832803
-0.036508 -0.154596 0.832215
-0.035071 -0.154464 0.831506
-0.033649 -0.154390 0.831107
-0.032235 -0.154344 0.830860
-0.030824 -0.154314 0.830699
-0.029417 -0.154300 0.830622
-0.028018 -0.154328 0.830775
-0.026619 -0.154358 0.830938
-0.025219 -0.154389 0.831104
-0.023821 -0.154433 0.831339
-0.022424 -0.154491 0.831653
-0.021028 -0.154568 0.832064
-0.019639 -0.154702 0.832790
-0.018259 -0.154940 0.834068
-0.016879 -0.155216 0.835552
-0.015494 -0.155497 0.837067
-0.014105 -0.155784 0.838612
-0.012708 -0.156038 0.839978
-0.011304 -0.156263 0.841191
-0.009987 -0.157924 0.850134
-0.008643 -0.159642 0.859379
-0.007269 -0.161387 0.868773
-0.005858 -0.162989 0.877400
-0.004412 -0.164388 0.884928
-0.002914 -0.164292 0.884413
-0.001419 -0.164260 0.884238
0.000076 -0.164241 0.884138
0.001570 -0.164207 0.883953
0.003064 -0.164174 0.883775
0.004557 -0.164139 0.883586
0.006049 -0.164090 0.883324
0.007536 -0.163958 0.882616
0.009022 -0.163836 0.881957
0.010504 -0.163696 0.881206
0.011986 -0.163596 0.880664
0.013469 -0.163518 0.880244
0.014961 -0.163565 0.880497
0.016455 -0.163617 0.880778
0.017950 -0.163673 0.881080
0.019449 -0.163756 0.881526
0.020956 -0.163884 0.882216
0.022457 -0.163957 0.882608
0.023960 -0.164031 0.883006
0.025471 -0.164143 0.883612
0.026983 -0.164257 0.884225
0.028491 -0.164331 0.884621
0.030002 -0.164421 0.885105
0.031521 -0.164534 0.885717
0.033035 -0.164618 0.886166
0.034547 -0.164687 0.886539
0.036068 -0.164790 0.887091
0.037591 -0.164890 0.887633
0.039119 -0.165007 0.888259
0.040646 -0.165109 0.888809
0.042175 -0.165213 0.889372
0.043702 -0.165300 0.889837
0.045229 -0.165383 0.890285
0.046762 -0.165481 0.890814
0.048307 -0.165616 0.891541
0.049876 -0.165821 0.892643
0.051445 -0.166016 0.893691
0.053038 -0.166272 0.895073
0.054614 -0.166464 0.896104
0.056198 -0.166669 0.897207
0.057764 -0.166812 0.897975
0.059372 -0.167064 0.899336
0.060994 -0.167344 0.900844
0.062650 -0.167699 0.902752
0.064333 -0.168108 0.904957
0.066062 -0.168617 0.907693
0.067791 -0.169102 0.910304
0.069550 -0.169641 0.913206
0.071356 -0.170265 0.916564
0.073184 -0.170916 0.920068
-0.076084 -0.172769 0.938610
-0.074378 -0.172493 0.937113
-0.072647 -0.172145 0.935219
-0.070874 -0.171679 0.932690
-0.069080 -0.171142 0.929770
-0.067275 -0.170550 0.926555
-0.065503 -0.170017 0.923662
-0.063745 -0.169494 0.920820
-0.062034 -0.169075 0.918541
-0.060340 -0.168678 0.916387
-0.058672 -0.168338 0.914541
-0.057035 -0.168070 0.913083
-0.055245 -0.167324 0.909031
-0.053472 -0.166589 0.905037
-0.051373 -0.164763 0.895115
-0.042581 -0.154805 0.841016
-0.040880 -0.153754 0.835304
-0.039339 -0.153251 0.832577
-0.037912 -0.153173 0.832150
-0.036483 -0.153079 0.831640
-0.035047 -0.152951 0.830946
-0.033626 -0.152877 0.830545
-0.032210 -0.152818 0.830222
-0.030797 -0.152774 0.829985
-0.029389 -0.152748 0.829843
-0.027992 -0.152777 0.829998
-0.026594 -0.152807 0.830164
-0.025195 -0.152837 0.830327
-0.023800 -0.152893 0.830628
-0.022404 -0.152950 0.830939
-0.021010 -0.153025 0.831344
-0.019622 -0.153158 0.832068
-0.018243 -0.153391 0.833335
-0.016862 -0.153649 0.834739
-0.015480 -0.153939 0.836312
-0.014093 -0.154226 0.837871
-0.012698 -0.154491 0.839313
-0.011318 -0.155027 0.842225
-0.010005 -0.156755 0.851611
-0.008661 -0.158518 0.861188
-0.007286 -0.160290 0.870813
-0.005872 -0.161886 0.879489
-0.004415 -0.163006 0.885572
-0.002916 -0.162878 0.884877
-0.001419 -0.162815 0.884532
0.000076 -0.162792 0.884406
0.001571 -0.162741 0.884132
0.003064 -0.162693 0.883869
0.004558 -0.162661 0.883695
0.006051 -0.162627 0.883512
0.007538 -0.162502 0.882832
0.009025 -0.162399 0.882274
0.010509 -0.162278 0.881617
0.011993 -0.162193 0.881154
0.013476 -0.162116 0.880734
0.014968 -0.162146 0.880899
0.016462 -0.162194 0.881160
0.017957 -0.162245 0.881434
0.019457 -0.162325 0.881869
0.020962 -0.162437 0.882477
0.022466 -0.162522 0.882942
0.023969 -0.162595 0.883338
0.025478 -0.162694 0.883876
0.026991 -0.162808 0.884495
0.028505 -0.162912 0.885060
0.030020 -0.163016 0.885624
0.031542 -0.163147 0.886335
0.033067 -0.163276 0.887035
0.034582 -0.163349 0.887435
0.036101 -0.163435 0.887899
0.037621 -0.163516 0.888344
0.039146 -0.163613 0.888869
0.040667 -0.163685 0.889258
0.042197 -0.163788 0.889821
0.043720 -0.163859 0.890204
0.045251 -0.163954 0.890723
0.046789 -0.164068 0.891341
0.048346 -0.164236 0.892254
0.049918 -0.164446 0.893394
0.051498 -0.164672 0.894619
0.053087 -0.164908 0.895903
0.054658 -0.165078 0.896825
0.056237 -0.165263 0.897834
0.057809 -0.165419 0.898678
0.059420 -0.165673 0.900059
0.061044 -0.165952 0.901577
0.062707 -0.166320 0.903574
0.064398 -0.166743 0.905875
0.066137 -0.167268 0.908727
0.067877 -0.167772 0.911463
0.069646 -0.168324 0.914464
0.071454 -0.168943 0.917827
0.073277 -0.169571 0.921236
-0.074320 -0.170771 0.936377
-0.072602 -0.170454 0.934643
-0.070865 -0.170076 0.932567
-0.069102 -0.169620 0.930069
-0.067333 -0.169127 0.927362
-0.065581 -0.168652 0.924762
-0.063833 -0.168165 0.922088
-0.062120 -0.167748 0.919806
-0.060429 -0.167371 0.917738
-0.058764 -0.167051 0.915979
-0.056948 -0.166269 0.911695
-0.054957 -0.164918 0.904288
-0.052977 -0.163526 0.896655
-0.044626 -0.156998 0.852931
-0.046092 -0.155634 0.853380
-0.044147 -0.153880 0.843763
-0.042277 -0.152283 0.835003
-0.040730 -0.151780 0.832247
-0.039315 -0.151749 0.832077
-0.037886 -0.151659 0.831582
-0.036455 -0.151556 0.831018
-0.035024 -0.151442 0.830393
-0.033604 -0.151368 0.829991
-0.032188 -0.151308 0.829659
-0.030779 -0.151276 0.829485
-0.029374 -0.151262 0.829409
-0.027975 -0.151279 0.829498
-0.026576 -0.151297 0.829599
-0.025176 -0.151313 0.829688
-0.023780 -0.151354 0.829914
-0.022383 -0.151398 0.830151
-0.020990 -0.151471 0.830554
-0.019601 -0.151588 0.831195
-0.018222 -0.151805 0.832383
-0.016841 -0.152044 0.833693
-0.015461 -0.152330 0.835264
-0.014075 -0.152614 0.836823
-0.012683 -0.152894 0.838354
-0.011331 -0.153770 0.843161
-0.010021 -0.155574 0.853051
-0.008680 -0.157402 0.863073
-0.007303 -0.159189 0.872872
-0.005886 -0.160786 0.881631
-0.004418 -0.161605 0.886118
-0.002918 -0.161478 0.885425
-0.001420 -0.161383 0.884904
0.000076 -0.161344 0.884686
0.001571 -0.161277 0.884320
0.003065 -0.161213 0.883970
0.004558 -0.161182 0.883802
0.006052 -0.161165 0.883709
0.007541 -0.161058 0.883120
0.009029 -0.160972 0.882651
0.010514 -0.160868 0.882079
0.011999 -0.160784 0.881616
0.013483 -0.160707 0.881195
0.014974 -0.160721 0.881275
0.016469 -0.160767 0.881526
0.017964 -0.160816 0.881796
0.019463 -0.160883 0.882160
0.020969 -0.160994 0.882768
0.022475 -0.161094 0.883316
0.023979 -0.161163 0.883695
0.025488 -0.161260 0.884227
0.027004 -0.161386 0.884919
0.028519 -0.161490 0.885490
0.030035 -0.161595 0.886064
0.031562 -0.161741 0.886868
0.033090 -0.161887 0.887666
0.034610 -0.161976 0.888156
0.036131 -0.162062 0.888623
0.037652 -0.162141 0.889060
0.039173 -0.162220 0.889492
0.040691 -0.162274 0.889788
0.042214 -0.162346 0.890183
0.043737 -0.162413 0.890551
0.045273 -0.162523 0.891156
0.046822 -0.162671 0.891963
0.048386 -0.162861 0.893005
0.049966 -0.163089 0.894257
0.051553 -0.163328 0.895566
0.053138 -0.163546 0.896764
0.054705 -0.163699 0.897599
0.056280 -0.163866 0.898516
0.057858 -0.164034 0.899437
0.059470 -0.164287 0.900827
0.061097 -0.164566 0.902355
0.062756 -0.164918 0.904284
0.064448 -0.165336 0.906578
0.066188 -0.165856 0.909429
0.067929 -0.166355 0.912164
0.069709 -0.166924 0.915283
0.071528 -0.167560 0.918773
0.073362 -0.168205 0.922308
-0.072501 -0.168635 0.933343
-0.070811 -0.168367 0.931859
-0.069093 -0.168022 0.929948
-0.067370 -0.167644 0.927859
-0.065651 -0.167263 0.925747
-0.063927 -0.166846 0.923442
-0.062223 -0.166466 0.921336
-0.060543 -0.166128 0.919467
-0.058882 -0.165828 0.917808
-0.056868 -0.164490 0.910402
-0.054657 -0.162493 0.899347
-0.045584 -0.152488 0.843976
-0.043826 -0.151345 0.837646
-0.042121 -0.150313 0.831936
-0.040704 -0.150272 0.831708
-0.039283 -0.150214 0.831388
-0.037857 -0.150137 0.830959
-0.036431 -0.150047 0.830466
-0.035001 -0.149935 0.829844
-0.033579 -0.149849 0.829368
-0.032163 -0.149787 0.829024
-0.030753 -0.149742 0.828774
-0.029346 -0.149715 0.828625
-0.027948 -0.149730 0.828710
-0.026550 -0.149746 0.828799
-0.025152 -0.149761 0.828883
-0.023755 -0.149789 0.829038
-0.022359 -0.149831 0.829269
-0.020968 -0.149905 0.829675
-0.019578 -0.150007 0.830241
-0.018197 -0.150193 0.831270
-0.016818 -0.150426 0.832561
-0.015437 -0.150681 0.833974
-0.014052 -0.150950 0.835460
-0.012662 -0.151215 0.836926
-0.011339 -0.152446 0.843740
-0.008699 -0.156272 0.864919
-0.007320 -0.158072 0.874882
-0.005900 -0.159684 0.883801
-0.004421 -0.160202 0.886668
-0.002919 -0.160075 0.885968
-0.001421 -0.159978 0.885429
0.000076 -0.159924 0.885130
0.001572 -0.159871 0.884838
0.003067 -0.159810 0.884499
0.004561 -0.159792 0.884399
0.006056 -0.159775 0.884307
0.007546 -0.159668 0.883710
0.009034 -0.159568 0.883158
0.010520 -0.159463 0.882579
0.012005 -0.159365 0.882035
0.013490 -0.159289 0.881614
0.014980 -0.159289 0.881614
0.016477 -0.159349 0.881949
0.017975 -0.159416 0.882318
0.019477 -0.159502 0.882796
0.020985 -0.159616 0.883427
0.022494 -0.159728 0.884044
0.023996 -0.159779 0.884329
0.025506 -0.159873 0.884845
0.027020 -0.159983 0.885457
0.028536 -0.160086 0.886024
0.030054 -0.160192 0.886611
0.031584 -0.160354 0.887508
0.033112 -0.160487 0.888243
0.034633 -0.160574 0.888728
0.036154 -0.160659 0.889199
0.037675 -0.160736 0.889624
0.039191 -0.160785 0.889897
0.040709 -0.160835 0.890174
0.042227 -0.160888 0.890463
0.043750 -0.160952 0.890819
0.045292 -0.161079 0.891522
0.046852 -0.161261 0.892530
0.048424 -0.161473 0.893705
0.050014 -0.161729 0.895121
0.051608 -0.161982 0.896521
0.053189 -0.162181 0.897623
0.054758 -0.162334 0.898468
0.056340 -0.162515 0.899471
0.057921 -0.162685 0.900411
0.059535 -0.162938 0.901814
0.061169 -0.163230 0.903425
0.062829 -0.163576 0.905340
0.064516 -0.163972 0.907532
0.066250 -0.164469 0.910286
0.067980 -0.164931 0.912844
0.069747 -0.165463 0.915786
0.071568 -0.166095 0.919287
0.073399 -0.166724 0.922766
-0.072402 -0.166824 0.932063
-0.070761 -0.166671 0.931207
-0.069090 -0.166437 0.929901
-0.067397 -0.166140 0.928243
-0.065701 -0.165819 0.926450
-0.063996 -0.165461 0.924450
-0.062311 -0.165136 0.922635
-0.060647 -0.164853 0.921052
-0.059004 -0.164612 0.919706
-0.047036 -0.151137 0.844417
-0.045256 -0.149971 0.837905
-0.043674 -0.149404 0.834734
-0.042117 -0.148887 0.831849
-0.040691 -0.148817 0.831458
-0.039263 -0.148731 0.830977
-0.037839 -0.148655 0.830551
-0.036410 -0.148553 0.829984
-0.034977 -0.148427 0.829276
-0.033552 -0.148327 0.828717
-0.032135 -0.148253 0.828306
-0.030721 -0.148184 0.827921
-0.029316 -0.148156 0.827763
-0.027919 -0.148169 0.827837
-0.026520 -0.148171 0.827848
-0.025122 -0.148185 0.827924
-0.023729 -0.148223 0.828139
-0.022333 -0.148252 0.828302
-0.020941 -0.148311 0.828630
-0.019552 -0.148398 0.829115
-0.018169 -0.148554 0.829986
-0.016789 -0.148755 0.831111
-0.015410 -0.149004 0.832500
-0.014026 -0.149255 0.833906
-0.012639 -0.149529 0.835434
-0.011346 -0.151114 0.844291
-0.008715 -0.155097 0.866543
-0.007336 -0.156941 0.876845
-0.005915 -0.158565 0.885919
-0.004422 -0.158767 0.887047
-0.002921 -0.158654 0.886416
-0.001421 -0.158543 0.885797
0.000076 -0.158505 0.885585
0.001573 -0.158469 0.885385
0.003069 -0.158438 0.885212
0.004565 -0.158422 0.885124
0.006061 -0.158419 0.885102
0.007552 -0.158296 0.884415
0.009040 -0.158179 0.883766
0.010526 -0.158059 0.883094
0.012012 -0.157959 0.882537
0.013496 -0.157870 0.882035
0.014986 -0.157855 0.881955
0.016485 -0.157931 0.882376
0.017986 -0.158015 0.882848
0.019491 -0.158120 0.883435
0.021000 -0.158238 0.884091
0.022513 -0.158362 0.884788
0.024016 -0.158413 0.885070
0.025525 -0.158491 0.885505
0.027038 -0.158587 0.886043
0.028554 -0.158688 0.886605
0.030075 -0.158805 0.887262
0.031604 -0.158951 0.888074
0.033133 -0.159082 0.888810
0.034655 -0.159170 0.889301
0.036177 -0.159253 0.889761
0.037696 -0.159315 0.890111
0.039212 -0.159361 0.890367
0.040730 -0.159410 0.890639
0.042248 -0.159459 0.890917
0.043776 -0.159538 0.891358
0.045324 -0.159682 0.892159
0.046891 -0.159883 0.893282
0.048465 -0.160094 0.894464
0.050062 -0.160363 0.895968
0.051656 -0.160611 0.897352
0.053233 -0.160793 0.898367
0.054804 -0.160946 0.899220
0.056393 -0.161142 0.900318
0.057982 -0.161330 0.901370
0.059605 -0.161599 0.902871
0.061247 -0.161905 0.904580
0.062908 -0.162244 0.906476
0.064595 -0.162633 0.908648
0.066324 -0.163107 0.911299
0.068041 -0.163531 0.913666
0.069808 -0.164054 0.916585
0.071628 -0.164676 0.920065
0.073453 -0.165283 0.923454
0.075140 -0.167128 0.924999
0.075203 -0.165698 0.925771
-0.072300 -0.165011 0.930749
-0.070693 -0.164933 0.930307
-0.069077 -0.164831 0.929733
-0.067419 -0.164620 0.928541
-0.065751 -0.164372 0.927146
-0.064078 -0.164104 0.925635
-0.062406 -0.163822 0.924042
-0.060754 -0.163580 0.922678
-0.059120 -0.163376 0.921526
-0.046546 -0.148145 0.835615
-0.044960 -0.147577 0.832414
-0.043535 -0.147519 0.832084
-0.042111 -0.147457 0.831738
-0.040685 -0.147385 0.831330
-0.039251 -0.147276 0.830712
-0.037824 -0.147189 0.830222
-0.036392 -0.147073 0.829570
-0.034959 -0.146946 0.828851
-0.033532 -0.146832 0.828209
-0.032116 -0.146758 0.827794
-0.030702 -0.146690 0.827407
-0.029298 -0.146662 0.827250
-0.027896 -0.146649 0.827176
-0.026493 -0.146623 0.827029
-0.025093 -0.146609 0.826951
-0.023699 -0.146633 0.827088
-0.022305 -0.146662 0.827252
-0.020915 -0.146720 0.827581
-0.019529 -0.146819 0.828135
-0.018146 -0.146956 0.828909
-0.016765 -0.147138 0.829938
-0.015386 -0.147368 0.831235
-0.014003 -0.147602 0.832555
-0.012616 -0.147845 0.833926
-0.007351 -0.155755 0.878542
-0.005928 -0.157415 0.887905
-0.004425 -0.157346 0.887516
-0.002923 -0.157261 0.887035
-0.001422 -0.157165 0.886496
0.000076 -0.157131 0.886302
0.001574 -0.157116 0.886217
0.003072 -0.157103 0.886145
0.004570 -0.157089 0.886065
0.006068 -0.157086 0.886047
0.007559 -0.156948 0.885271
0.009049 -0.156828 0.884594
0.010535 -0.156692 0.883824
0.012021 -0.156577 0.883177
0.013504 -0.156472 0.882585
0.014995 -0.156456 0.882493
0.016495 -0.156530 0.882914
0.017999 -0.156630 0.883474
0.019506 -0.156738 0.884087
0.021016 -0.156856 0.884748
0.022532 -0.156993 0.885522
0.024036 -0.157041 0.885797
0.025544 -0.157107 0.886169
0.027059 -0.157204 0.886713
0.028578 -0.157317 0.887350
0.030100 -0.157430 0.887991
0.031627 -0.157559 0.888717
0.033160 -0.157702 0.889523
0.034686 -0.157803 0.890094
0.036206 -0.157870 0.890473
0.037726 -0.157931 0.890817
0.039243 -0.157976 0.891067
0.040758 -0.158011 0.891264
0.042278 -0.158061 0.891548
0.043813 -0.158158 0.892096
0.045366 -0.158316 0.892985
0.046935 -0.158517 0.894118
0.048514 -0.158738 0.895366
0.050107 -0.158989 0.896782
0.051697 -0.159217 0.898067
0.053266 -0.159369 0.898924
0.054842 -0.159532 0.899843
0.056438 -0.159744 0.901040
0.058041 -0.159965 0.902289
0.059674 -0.160253 0.903912
0.061324 -0.160572 0.905712
0.062986 -0.160907 0.907603
0.064670 -0.161279 0.909698
0.066388 -0.161719 0.912181
0.068093 -0.162105 0.914361
0.069837 -0.162568 0.916969
0.071640 -0.163142 0.920210
0.073462 -0.163737 0.923562
-0.072260 -0.163343 0.930234
-0.070662 -0.163285 0.929906
-0.069060 -0.163213 0.929493
-0.067427 -0.163063 0.928643
-0.065787 -0.162891 0.927661
-0.064147 -0.162709 0.926626
-0.062500 -0.162499 0.925427
-0.060870 -0.162325 0.924441
-0.059255 -0.162183 0.923632
-0.046380 -0.146207 0.832648
-0.044947 -0.146125 0.832180
-0.043519 -0.146053 0.831767
-0.042091 -0.145978 0.831344
-0.040666 -0.145907 0.830938
-0.039232 -0.145798 0.830319
-0.037803 -0.145701 0.829765
-0.036368 -0.145572 0.829032
-0.034933 -0.145431 0.828228
-0.033506 -0.145315 0.827567
-0.032088 -0.145232 0.827092
-0.030676 -0.145163 0.826702
-0.029273 -0.145135 0.826544
-0.027872 -0.145119 0.826451
-0.026468 -0.145081 0.826231
-0.025068 -0.145065 0.826143
-0.023673 -0.145075 0.826201
-0.022279 -0.145092 0.826297
-0.020891 -0.145149 0.826620
-0.019504 -0.145233 0.827098
-0.018121 -0.145355 0.827794
-0.016742 -0.145533 0.828810
-0.015365 -0.145758 0.830091
-0.013983 -0.145977 0.831335
-0.012597 -0.146204 0.832629
-0.005919 -0.155672 0.886550
-0.004428 -0.155954 0.888156
-0.002925 -0.155883 0.887753
-0.001424 -0.155790 0.887219
0.000076 -0.155745 0.886964
0.001576 -0.155747 0.886976
0.003075 -0.155752 0.887005
0.004575 -0.155740 0.886936
0.006074 -0.155738 0.886928
0.007567 -0.155614 0.886219
0.009059 -0.155497 0.885555
0.010546 -0.155359 0.884769
0.012033 -0.155244 0.884114
0.013519 -0.155138 0.883510
0.015011 -0.155121 0.883412
0.016510 -0.155179 0.883741
0.018013 -0.155260 0.884202
0.019522 -0.155365 0.884802
0.021033 -0.155480 0.885456
0.022550 -0.155617 0.886236
0.024058 -0.155681 0.886598
0.025570 -0.155761 0.887056
0.027084 -0.155843 0.887525
0.028602 -0.155939 0.888070
0.030122 -0.156036 0.888620
0.031647 -0.156147 0.889257
0.033177 -0.156276 0.889992
0.034707 -0.156390 0.890640
0.036228 -0.156457 0.891019
0.037749 -0.156517 0.891364
0.039267 -0.156562 0.891618
0.040783 -0.156596 0.891814
0.042306 -0.156650 0.892120
0.043845 -0.156763 0.892762
0.045401 -0.156923 0.893672
0.046971 -0.157120 0.894794
0.048549 -0.157334 0.896017
0.050138 -0.157565 0.897333
0.051719 -0.157761 0.898447
0.053283 -0.157895 0.899209
0.054863 -0.158069 0.900198
0.056466 -0.158295 0.901490
0.058083 -0.158549 0.902936
0.059731 -0.158871 0.904769
0.061395 -0.159222 0.906766
0.063061 -0.159557 0.908672
0.064739 -0.159908 0.910676
0.066441 -0.160300 0.912904
0.068133 -0.160650 0.914900
0.069855 -0.161056 0.917212
0.071642 -0.161588 0.920243
0.073463 -0.162174 0.923581
-0.070670 -0.161726 0.930008
-0.069080 -0.161684 0.929761
-0.067470 -0.161592 0.929235
-0.065847 -0.161466 0.928510
-0.064241 -0.161373 0.927977
-0.062618 -0.161234 0.927177
-0.061005 -0.161114 0.926483
-0.059428 -0.161087 0.926329
-0.046366 -0.144752 0.832395
-0.044934 -0.144671 0.831929
-0.043502 -0.144587 0.831445
-0.042072 -0.144502 0.830956
-0.040647 -0.144431 0.830553
-0.039211 -0.144312 0.829867
-0.037782 -0.144214 0.829300
-0.036344 -0.144073 0.828490
-0.034906 -0.143919 0.827606
-0.033478 -0.143792 0.826875
-0.032061 -0.143708 0.826392
-0.030647 -0.143629 0.825938
-0.029245 -0.143601 0.825779
-0.027846 -0.143586 0.825688
-0.026443 -0.143545 0.825454
-0.025044 -0.143527 0.825354
-0.023651 -0.143538 0.825415
-0.022258 -0.143553 0.825500
-0.020870 -0.143610 0.825829
-0.019486 -0.143693 0.826309
-0.018104 -0.143815 0.827010
-0.016727 -0.143993 0.828033
-0.015351 -0.144216 0.829316
-0.013969 -0.144432 0.830558
-0.012584 -0.144644 0.831775
-0.011311 -0.147799 0.841711
-0.011301 -0.146236 0.840929
-0.007334 -0.153930 0.876629
-0.007335 -0.152447 0.876644
-0.005922 -0.154257 0.887052
-0.004432 -0.154577 0.888897
-0.002928 -0.154524 0.888591
-0.001425 -0.154460 0.888221
0.000076 -0.154431 0.888053
0.001578 -0.154447 0.888149
0.003080 -0.154465 0.888251
0.004581 -0.154453 0.888179
0.006082 -0.154451 0.888170
0.007577 -0.154316 0.887394
0.009070 -0.154187 0.886650
0.010558 -0.154037 0.885789
0.012047 -0.153924 0.885139
0.013533 -0.153803 0.884444
0.015026 -0.153786 0.884346
0.016527 -0.153841 0.884665
0.018032 -0.153920 0.885116
0.019541 -0.154020 0.885691
0.021052 -0.154118 0.886253
0.022568 -0.154238 0.886948
0.024075 -0.154288 0.887232
0.025586 -0.154354 0.887612
0.027095 -0.154404 0.887902
0.028613 -0.154497 0.888436
0.030134 -0.154592 0.888984
0.031657 -0.154691 0.889550
0.033188 -0.154819 0.890286
0.034722 -0.154947 0.891020
0.036244 -0.155015 0.891413
0.037766 -0.155077 0.891770
0.039289 -0.155135 0.892105
0.040809 -0.155183 0.892379
0.042336 -0.155251 0.892768
0.043882 -0.155378 0.893503
0.045440 -0.155540 0.894433
0.047005 -0.155718 0.895457
0.048581 -0.155916 0.896592
0.050164 -0.156125 0.897794
0.051736 -0.156290 0.898746
0.053300 -0.156419 0.899489
0.054890 -0.156620 0.900643
0.056505 -0.156876 0.902117
0.058132 -0.157150 0.903693
0.059794 -0.157505 0.905734
0.061473 -0.157883 0.907907
0.063140 -0.158216 0.909818
0.064815 -0.158551 0.911747
0.066511 -0.158921 0.913873
0.068196 -0.159248 0.915753
0.069913 -0.159633 0.917968
0.071695 -0.160146 0.920921
0.073519 -0.160731 0.924285
-0.069120 -0.160201 0.930306
-0.067539 -0.160182 0.930196
-0.065929 -0.160091 0.929663
-0.064345 -0.160059 0.929480
-0.062739 -0.159971 0.928970
-0.061155 -0.159936 0.928762
-0.059610 -0.160003 0.929153
-0.046337 -0.143252 0.831878
-0.044912 -0.143190 0.831519
-0.043485 -0.143120 0.831112
-0.042055 -0.143038 0.830635
-0.040631 -0.142968 0.830232
-0.039195 -0.142849 0.829537
-0.037763 -0.142736 0.828882
-0.036323 -0.142584 0.828002
-0.034885 -0.142430 0.827105
-0.033458 -0.142305 0.826380
-0.032042 -0.142221 0.825893
-0.030629 -0.142146 0.825455
-0.029230 -0.142129 0.825360
-0.027832 -0.142114 0.825272
-0.026427 -0.142063 0.824972
-0.025030 -0.142046 0.824879
-0.023637 -0.142056 0.824936
-0.022243 -0.142059 0.824949
-0.020856 -0.142114 0.825271
-0.019474 -0.142208 0.825818
-0.018092 -0.142320 0.826468
-0.016714 -0.142485 0.827425
-0.015341 -0.142719 0.828784
-0.013959 -0.142921 0.829956
-0.012574 -0.143118 0.831100
-0.011294 -0.144722 0.840416
-0.005926 -0.152855 0.887647
-0.004435 -0.153202 0.889657
-0.002931 -0.153164 0.889440
-0.001427 -0.153115 0.889157
0.000077 -0.153086 0.888986
0.001580 -0.153101 0.889073
0.003083 -0.153116 0.889162
0.004586 -0.153102 0.889081
0.006089 -0.153114 0.889146
0.007586 -0.152995 0.888459
0.009082 -0.152883 0.887805
0.010573 -0.152751 0.887040
0.012065 -0.152652 0.886465
0.013553 -0.152534 0.885780
0.015048 -0.152505 0.885610
0.016548 -0.152531 0.885765
0.018051 -0.152578 0.886039
0.019557 -0.152645 0.886425
0.021065 -0.152713 0.886818
0.022580 -0.152819 0.887434
0.024088 -0.152867 0.887713
0.025597 -0.152915 0.887991
0.027106 -0.152961 0.888259
0.028625 -0.153051 0.888785
0.030146 -0.153146 0.889333
0.031670 -0.153245 0.889909
0.033205 -0.153386 0.890730
0.034739 -0.153514 0.891470
0.036263 -0.153583 0.891873
0.037790 -0.153661 0.892324
0.039317 -0.153735 0.892755
0.040839 -0.153782 0.893028
0.042371 -0.153862 0.893493
0.043921 -0.154003 0.894309
0.045477 -0.154150 0.895164
0.047035 -0.154298 0.896024
0.048606 -0.154476 0.897059
0.050179 -0.154651 0.898073
0.051742 -0.154784 0.898847
0.053305 -0.154912 0.899588
0.054908 -0.155143 0.900933
0.056536 -0.155432 0.902609
0.058177 -0.155740 0.904396
0.059852 -0.156122 0.906617
0.061533 -0.156498 0.908801
0.063195 -0.156810 0.910615
0.064870 -0.157138 0.912516
0.066560 -0.157486 0.914540
0.068245 -0.157809 0.916411
0.069984 -0.158236 0.918894
0.071785 -0.158784 0.922073
0.073623 -0.159388 0.925581
-0.067642 -0.158846 0.931608
-0.066054 -0.158814 0.931420
-0.064485 -0.158830 0.931510
-0.062890 -0.158777 0.931201
-0.061316 -0.158778 0.931208
-0.059782 -0.158885 0.931834
-0.046305 -0.141744 0.831304
-0.044881 -0.141685 0.830957
-0.043455 -0.141616 0.830554
-0.042024 -0.141524 0.830015
-0.040601 -0.141455 0.829608
-0.039165 -0.141333 0.828894
-0.037730 -0.141208 0.828164
-0.036291 -0.141057 0.827277
-0.034858 -0.140919 0.826464
-0.033435 -0.140807 0.825811
-0.032023 -0.140738 0.825407
-0.030616 -0.140687 0.825104
-0.029219 -0.140673 0.825024
-0.027819 -0.140648 0.824876
-0.026415 -0.140596 0.824575
-0.025018 -0.140580 0.824481
-0.023624 -0.140579 0.824471
-0.022231 -0.140582 0.824489
-0.020846 -0.140648 0.824879
-0.019465 -0.140741 0.825425
-0.018084 -0.140852 0.826072
-0.016705 -0.141002 0.826955
-0.015331 -0.141220 0.828234
-0.013949 -0.141406 0.829321
-0.012563 -0.141587 0.830386
-0.005933 -0.151529 0.888692
-0.004440 -0.151863 0.890654
-0.002934 -0.151829 0.890453
-0.001428 -0.151782 0.890175
0.000077 -0.151737 0.889912
0.001581 -0.151723 0.889830
0.003085 -0.151723 0.889830
0.004589 -0.151707 0.889740
0.006093 -0.151705 0.889728
0.007592 -0.151601 0.889118
0.009089 -0.151505 0.888554
0.010583 -0.151389 0.887869
0.012077 -0.151292 0.887304
0.013567 -0.151190 0.886705
0.015065 -0.151174 0.886612
0.016565 -0.151188 0.886692
0.018068 -0.151219 0.886875
0.019574 -0.151269 0.887171
0.021081 -0.151320 0.887465
0.022592 -0.151395 0.887904
0.024100 -0.151440 0.888169
0.025609 -0.151485 0.888433
0.027120 -0.151530 0.888697
0.028639 -0.151619 0.889221
0.030161 -0.151713 0.889772
0.031686 -0.151812 0.890353
0.033221 -0.151952 0.891174
0.034760 -0.152092 0.891993
0.036288 -0.152176 0.892488
0.037820 -0.152270 0.893037
0.039349 -0.152345 0.893481
0.040872 -0.152393 0.893760
0.042401 -0.152457 0.894137
0.043949 -0.152583 0.894873
0.045500 -0.152712 0.895632
0.047055 -0.152845 0.896409
0.048625 -0.153016 0.897412
0.050194 -0.153173 0.898333
0.051751 -0.153288 0.899009
0.053311 -0.153402 0.899677
0.054925 -0.153663 0.901208
0.056562 -0.153972 0.903019
0.058211 -0.154297 0.904924
0.059894 -0.154691 0.907238
0.061585 -0.155087 0.909563
0.063247 -0.155394 0.911361
0.064918 -0.155706 0.913190
0.066602 -0.156034 0.915117
0.068288 -0.156352 0.916980
0.070029 -0.156781 0.919495
0.071828 -0.157316 0.922635
0.073678 -0.157938 0.926280
-0.067846 -0.157742 0.934421
-0.066240 -0.157678 0.934043
-0.064642 -0.157634 0.933783
-0.063049 -0.157596 0.933557
-0.061477 -0.157613 0.933654
-0.059919 -0.157667 0.933979
-0.046259 -0.140195 0.830477
-0.044838 -0.140142 0.830166
-0.043414 -0.140075 0.829765
-0.041984 -0.139983 0.829222
-0.040558 -0.139901 0.828736
-0.039123 -0.139780 0.828017
-0.037690 -0.139656 0.827287
-0.036256 -0.139520 0.826477
-0.034829 -0.139399 0.825760
-0.033410 -0.139303 0.825191
-0.031999 -0.139237 0.824801
-0.030594 -0.139185 0.824497
-0.029195 -0.139160 0.824349
-0.027796 -0.139135 0.824199
-0.026395 -0.139096 0.823968
-0.025002 -0.139092 0.823945
-0.023610 -0.139102 0.824003
-0.022220 -0.139119 0.824103
-0.020837 -0.139185 0.824497
-0.019454 -0.139266 0.824972
-0.018072 -0.139360 0.825530
-0.016692 -0.139493 0.826316
-0.015317 -0.139691 0.827492
-0.013935 -0.139860 0.828492
-0.012551 -0.140051 0.829622
-0.005941 -0.150231 0.889925
-0.004445 -0.150524 0.891663
-0.002937 -0.150462 0.891296
-0.001430 -0.150412 0.891000
0.000077 -0.150351 0.890640
0.001582 -0.150323 0.890470
0.003087 -0.150309 0.890391
0.004592 -0.150294 0.890301
0.006097 -0.150291 0.890285
0.007597 -0.150190 0.889685
0.009095 -0.150095 0.889123
0.010591 -0.149995 0.888532
0.012087 -0.149914 0.888053
0.013580 -0.149828 0.887539
0.015079 -0.149813 0.887449
0.016581 -0.149825 0.887524
0.018083 -0.149839 0.887607
0.019588 -0.149872 0.887803
0.021093 -0.149905 0.887998
0.022603 -0.149964 0.888345
0.024112 -0.150008 0.888607
0.025622 -0.150053 0.888875
0.027133 -0.150100 0.889155
0.028651 -0.150176 0.889603
0.030174 -0.150270 0.890160
0.031699 -0.150366 0.890730
0.033232 -0.150491 0.891470
0.034772 -0.150631 0.892295
0.036307 -0.150741 0.892947
0.037840 -0.150835 0.893508
0.039371 -0.150913 0.893967
0.040899 -0.150976 0.894342
0.042428 -0.151038 0.894708
0.043972 -0.151146 0.895348
0.045520 -0.151258 0.896011
0.047070 -0.151373 0.896690
0.048635 -0.151525 0.897591
0.050198 -0.151664 0.898416
0.051750 -0.151762 0.898995
0.053315 -0.151890 0.899755
0.054936 -0.152165 0.901385
0.056580 -0.152489 0.903302
0.058236 -0.152827 0.905305
0.059924 -0.153232 0.907704
0.061622 -0.153639 0.910115
0.063286 -0.153943 0.911919
0.064958 -0.154253 0.913753
0.066638 -0.154567 0.915614
0.068325 -0.154883 0.917484
0.070068 -0.155308 0.920001
0.071862 -0.155824 0.923062
0.073691 -0.156395 0.926445
-0.068045 -0.156615 0.937156
-0.066437 -0.156560 0.936826
-0.064819 -0.156478 0.936334
-0.063220 -0.156438 0.936096
-0.061641 -0.156446 0.936142
-0.060057 -0.156443 0.936126
-0.058079 -0.156961 0.929798
-0.058176 -0.155645 0.931354
-0.046207 -0.138629 0.829531
-0.044790 -0.138586 0.829275
-0.043364 -0.138507 0.828798
-0.041931 -0.138403 0.828178
-0.040507 -0.138321 0.827689
-0.039071 -0.138190 0.826902
-0.037643 -0.138081 0.826249
-0.036214 -0.137960 0.825527
-0.034795 -0.137867 0.824969
-0.033379 -0.137777 0.824434
-0.031976 -0.137737 0.824191
-0.030574 -0.137698 0.823958
-0.029178 -0.137684 0.823874
-0.027780 -0.137658 0.823722
-0.026382 -0.137631 0.823559
-0.024989 -0.137626 0.823529
-0.023599 -0.137638 0.823600
-0.022210 -0.137656 0.823709
-0.020827 -0.137723 0.824108
-0.019445 -0.137801 0.824579
-0.018061 -0.137879 0.825045
-0.016679 -0.137983 0.825666
-0.015302 -0.138152 0.826675
-0.013918 -0.138290 0.827504
-0.012536 -0.138478 0.828627
-0.005931 -0.148455 0.888329
-0.004439 -0.148809 0.890449
-0.002940 -0.149105 0.892218
-0.001431 -0.149038 0.891815
0.000077 -0.148960 0.891352
0.001583 -0.148915 0.891083
0.003089 -0.148901 0.890994
0.004595 -0.148874 0.890832
0.006101 -0.148871 0.890819
0.007601 -0.148771 0.890218
0.009101 -0.148677 0.889656
0.010597 -0.148566 0.888992
0.012093 -0.148486 0.888515
0.013587 -0.148401 0.888007
0.015087 -0.148387 0.887920
0.016590 -0.148399 0.887991
0.018092 -0.148412 0.888073
0.019596 -0.148428 0.888168
0.021100 -0.148444 0.888264
0.022610 -0.148501 0.888601
0.024120 -0.148547 0.888875
0.025631 -0.148596 0.889169
0.027146 -0.148660 0.889557
0.028664 -0.148735 0.890005
0.030187 -0.148826 0.890545
0.031712 -0.148920 0.891108
0.033247 -0.149044 0.891853
0.034787 -0.149182 0.892680
0.036326 -0.149306 0.893420
0.037860 -0.149402 0.893992
0.039392 -0.149479 0.894455
0.040921 -0.149540 0.894819
0.042451 -0.149600 0.895177
0.043995 -0.149705 0.895806
0.045538 -0.149801 0.896380
0.047084 -0.149898 0.896962
0.048645 -0.150033 0.897771
0.050203 -0.150156 0.898504
0.051751 -0.150240 0.899009
0.053320 -0.150379 0.899840
0.054946 -0.150665 0.901550
0.056595 -0.150998 0.903546
0.058252 -0.151335 0.905561
0.059941 -0.151736 0.907959
0.061646 -0.152154 0.910464
0.063312 -0.152461 0.912299
0.064988 -0.152774 0.914171
0.066682 -0.153115 0.916213
0.068382 -0.153454 0.918242
0.070131 -0.153887 0.920833
0.071925 -0.154396 0.923878
0.073738 -0.154923 0.927033
-0.069715 -0.155219 0.938320
-0.068171 -0.155315 0.938902
-0.066574 -0.155291 0.938757
-0.064957 -0.155221 0.938330
-0.063363 -0.155202 0.938218
-0.061786 -0.155223 0.938344
-0.060172 -0.155152 0.937913
-0.046162 -0.137092 0.828738
-0.044742 -0.137033 0.828384
-0.043312 -0.136940 0.827821
-0.041880 -0.136834 0.827180
-0.040455 -0.136742 0.826622
-0.039021 -0.136614 0.825848
-0.037598 -0.136519 0.825273
-0.036179 -0.136425 0.824710
-0.034762 -0.136337 0.824174
-0.033350 -0.136262 0.823723
-0.031948 -0.136222 0.823483
-0.030547 -0.136182 0.823238
-0.029150 -0.136156 0.823081
-0.027753 -0.136131 0.822929
-0.026359 -0.136117 0.822845
-0.024970 -0.136126 0.822902
-0.023583 -0.136151 0.823054
-0.022197 -0.136181 0.823232
-0.020817 -0.136259 0.823704
-0.019435 -0.136336 0.824171
-0.018051 -0.136402 0.824567
-0.016666 -0.136479 0.825033
-0.015287 -0.136617 0.825871
-0.013902 -0.136728 0.826541
-0.012522 -0.136914 0.827662
-0.005903 -0.146272 0.884237
-0.004432 -0.147044 0.888903
-0.002942 -0.147702 0.892878
-0.001432 -0.147606 0.892299
0.000077 -0.147498 0.891647
0.001583 -0.147437 0.891276
0.003090 -0.147421 0.891183
0.004596 -0.147394 0.891016
0.006102 -0.147393 0.891012
0.007604 -0.147306 0.890486
0.009104 -0.147226 0.889999
0.010601 -0.147115 0.889330
0.012098 -0.147037 0.888859
0.013594 -0.146966 0.888432
0.015095 -0.146953 0.888351
0.016598 -0.146965 0.888426
0.018101 -0.146980 0.888511
0.019605 -0.146995 0.888604
0.021110 -0.147010 0.888697
0.022621 -0.147066 0.889037
0.024132 -0.147114 0.889323
0.025644 -0.147166 0.889638
0.027162 -0.147243 0.890102
0.028679 -0.147303 0.890470
0.030202 -0.147391 0.890998
0.031731 -0.147496 0.891631
0.033266 -0.147620 0.892383
0.034805 -0.147746 0.893145
0.036348 -0.147883 0.893973
0.037884 -0.147976 0.894537
0.039416 -0.148052 0.894997
0.040945 -0.148112 0.895356
0.042476 -0.148171 0.895716
0.044017 -0.148261 0.896260
0.045557 -0.148343 0.896751
0.047094 -0.148408 0.897148
0.048650 -0.148527 0.897869
0.050204 -0.148634 0.898514
0.051757 -0.148732 0.899104
0.053326 -0.148871 0.899943
0.054947 -0.149139 0.901567
0.056590 -0.149454 0.903469
0.058245 -0.149782 0.905451
0.059934 -0.150180 0.907857
0.061647 -0.150614 0.910480
0.063334 -0.150965 0.912606
0.065030 -0.151323 0.914766
0.066744 -0.151705 0.917075
0.068453 -0.152057 0.919205
0.070197 -0.152470 0.921700
0.071977 -0.152940 0.924544
0.073780 -0.153439 0.927558
-0.068349 -0.154124 0.941348
-0.066749 -0.154105 0.941234
-0.065129 -0.154036 0.940810
-0.063532 -0.154021 0.940719
-0.061905 -0.153929 0.940158
-0.060272 -0.153818 0.939479
-0.047838 -0.136470 0.833521
-0.046137 -0.135613 0.828286
-0.044707 -0.135522 0.827733
-0.043273 -0.135414 0.827074
-0.041838 -0.135296 0.826349
-0.040407 -0.135181 0.825650
-0.038975 -0.135056 0.824883
-0.037558 -0.134975 0.824391
-0.036143 -0.134895 0.823901
-0.034728 -0.134808 0.823373
-0.033321 -0.134746 0.822992
-0.031920 -0.134706 0.822745
-0.030520 -0.134665 0.822499
-0.029121 -0.134628 0.822271
-0.027726 -0.134604 0.822126
-0.026336 -0.134604 0.822126
-0.024949 -0.134617 0.822201
-0.023565 -0.134655 0.822433
-0.022182 -0.134695 0.822682
-0.020803 -0.134772 0.823150
-0.019421 -0.134837 0.823548
-0.018037 -0.134903 0.823950
-0.016652 -0.134967 0.824342
-0.015271 -0.135080 0.825031
-0.013887 -0.135185 0.825674
-0.012511 -0.135391 0.826931
-0.011233 -0.138278 0.835910
-0.011195 -0.136393 0.833050
-0.005873 -0.144037 0.879738
-0.004423 -0.145240 0.887088
-0.002944 -0.146278 0.893427
-0.001432 -0.146169 0.892762
0.000077 -0.146062 0.892109
0.001584 -0.145999 0.891721
0.003091 -0.145982 0.891617
0.004597 -0.145942 0.891373
0.006104 -0.145929 0.891295
0.007605 -0.145827 0.890670
0.009105 -0.145732 0.890090
0.010601 -0.145607 0.889330
0.012098 -0.145530 0.888859
0.013594 -0.145460 0.888432
0.015096 -0.145460 0.888432
0.016601 -0.145488 0.888601
0.018107 -0.145518 0.888785
0.019614 -0.145550 0.888977
0.021121 -0.145580 0.889161
0.022633 -0.145637 0.889508
0.024144 -0.145682 0.889788
0.025660 -0.145746 0.890174
0.027179 -0.145822 0.890639
0.028699 -0.145895 0.891086
0.030226 -0.145995 0.891697
0.031756 -0.146100 0.892338
0.033293 -0.146225 0.893100
0.034833 -0.146349 0.893862
0.036378 -0.146486 0.894696
0.037910 -0.146563 0.895168
0.039443 -0.146637 0.895619
0.040970 -0.146682 0.895894
0.042502 -0.146742 0.896260
0.044036 -0.146805 0.896643
0.045572 -0.146870 0.897042
0.047108 -0.146932 0.897418
0.048664 -0.147048 0.898129
0.050219 -0.147154 0.898778
0.051778 -0.147267 0.899465
0.053353 -0.147419 0.900396
0.054964 -0.147658 0.901856
0.056596 -0.147939 0.903571
0.058245 -0.148246 0.905448
0.059928 -0.148624 0.907752
0.061647 -0.149070 0.910479
0.063354 -0.149467 0.912901
0.065066 -0.149854 0.915268
0.066802 -0.150280 0.917868
0.068527 -0.150661 0.920197
0.070262 -0.151046 0.922550
0.072022 -0.151468 0.925126
0.073823 -0.151956 0.928105
-0.065287 -0.152812 0.943097
-0.063684 -0.152790 0.942963
-0.062035 -0.152656 0.942134
-0.060411 -0.152575 0.941638
-0.047541 -0.134219 0.828349
-0.046124 -0.134172 0.828057
-0.044687 -0.134058 0.827356
-0.043249 -0.133937 0.826609
-0.041810 -0.133805 0.825794
-0.040373 -0.133667 0.824942
-0.038942 -0.133542 0.824174
-0.037526 -0.133463 0.823681
-0.036112 -0.133385 0.823202
-0.034698 -0.133298 0.822667
-0.033292 -0.133235 0.822277
-0.031889 -0.133181 0.821946
-0.030487 -0.133130 0.821629
-0.029090 -0.133092 0.821396
-0.027699 -0.133081 0.821324
-0.026313 -0.133094 0.821404
-0.024927 -0.133109 0.821496
-0.023548 -0.133159 0.821809
-0.022165 -0.133199 0.822055
-0.020787 -0.133274 0.822518
-0.019406 -0.133340 0.822922
-0.018024 -0.133406 0.823331
-0.016641 -0.133481 0.823792
-0.015261 -0.133591 0.824472
-0.013877 -0.133683 0.825038
-0.012502 -0.133898 0.826366
-0.011158 -0.134540 0.830330
-0.009864 -0.137473 0.839650
-0.009803 -0.135210 0.834468
-0.004412 -0.143391 0.884958
-0.002945 -0.144806 0.893691
-0.001433 -0.144701 0.893037
0.000077 -0.144610 0.892479
0.001585 -0.144561 0.892178
0.003093 -0.144545 0.892078
0.004600 -0.144505 0.891830
0.006107 -0.144491 0.891746
0.007609 -0.144389 0.891115
0.009109 -0.144293 0.890525
0.010606 -0.144169 0.889758
0.012104 -0.144093 0.889287
0.013600 -0.144024 0.888859
0.015103 -0.144024 0.888859
0.016609 -0.144052 0.889037
0.018116 -0.144085 0.889236
0.019624 -0.144120 0.889453
0.021133 -0.144152 0.889652
0.022645 -0.144208 0.889999
0.024157 -0.144251 0.890265
0.025673 -0.144311 0.890632
0.027193 -0.144386 0.891095
0.028717 -0.144474 0.891637
0.030245 -0.144577 0.892276
0.031777 -0.144682 0.892923
0.033318 -0.144819 0.893769
0.034855 -0.144929 0.894449
0.036397 -0.145048 0.895183
0.037930 -0.145123 0.895642
0.039464 -0.145195 0.896089
0.040988 -0.145228 0.896291
0.042525 -0.145302 0.896751
0.044060 -0.145363 0.897125
0.045595 -0.145424 0.897500
0.047132 -0.145483 0.897869
0.048684 -0.145584 0.898492
0.050234 -0.145677 0.899061
0.051799 -0.145802 0.899832
0.053381 -0.145969 0.900866
0.054989 -0.146196 0.902264
0.056615 -0.146456 0.903871
0.058261 -0.146751 0.905694
0.059937 -0.147107 0.907888
0.061652 -0.147539 0.910553
0.063368 -0.147952 0.913105
0.065094 -0.148367 0.915666
0.066853 -0.148837 0.918568
0.068596 -0.149251 0.921118
0.070336 -0.149639 0.923518
0.072096 -0.150054 0.926079
0.073891 -0.150520 0.928955
-0.067056 -0.151608 0.945558
-0.065427 -0.151538 0.945122
-0.063816 -0.151504 0.944913
-0.062161 -0.151366 0.944050
-0.060191 -0.150430 0.938212
-0.047548 -0.132832 0.828459
-0.046114 -0.132738 0.827870
-0.044672 -0.132611 0.827078
-0.043226 -0.132466 0.826175
-0.041781 -0.132311 0.825206
-0.040343 -0.132172 0.824337
-0.038913 -0.132048 0.823565
-0.037495 -0.131957 0.822999
-0.036082 -0.131880 0.822516
-0.034669 -0.131793 0.821974
-0.033264 -0.131730 0.821582
-0.031864 -0.131688 0.821320
-0.030464 -0.131638 0.821007
-0.029071 -0.131611 0.820841
-0.027683 -0.131610 0.820835
-0.026298 -0.131623 0.820916
-0.024913 -0.131638 0.821012
-0.023534 -0.131688 0.821320
-0.022150 -0.131715 0.821491
-0.020771 -0.131778 0.821884
-0.019391 -0.131842 0.822282
-0.018010 -0.131907 0.822687
-0.016628 -0.131983 0.823158
-0.015249 -0.132092 0.823839
-0.013866 -0.132183 0.824408
-0.012491 -0.132383 0.825659
-0.011119 -0.132665 0.827416
-0.009743 -0.132968 0.829306
-0.002938 -0.142946 0.891536
-0.001433 -0.143201 0.893127
0.000077 -0.143130 0.892681
0.001586 -0.143099 0.892488
0.003094 -0.143096 0.892472
0.004602 -0.143057 0.892228
0.006110 -0.143042 0.892133
0.007613 -0.142953 0.891581
0.009114 -0.142859 0.890991
0.010611 -0.142737 0.890230
0.012110 -0.142661 0.889758
0.013608 -0.142592 0.889330
0.015111 -0.142592 0.889330
0.016618 -0.142621 0.889508
0.018126 -0.142653 0.889707
0.019635 -0.142688 0.889924
0.021144 -0.142719 0.890123
0.022655 -0.142761 0.890382
0.024165 -0.142789 0.890557
0.025681 -0.142847 0.890917
0.027201 -0.142922 0.891385
0.028730 -0.143027 0.892041
0.030263 -0.143146 0.892784
0.031799 -0.143267 0.893535
0.033343 -0.143413 0.894451
0.034881 -0.143519 0.895112
0.036421 -0.143623 0.895761
0.037954 -0.143695 0.896209
0.039489 -0.143768 0.896662
0.041011 -0.143787 0.896782
0.042544 -0.143846 0.897148
0.044078 -0.143903 0.897507
0.045614 -0.143962 0.897876
0.047152 -0.144023 0.898252
0.048705 -0.144124 0.898882
0.050256 -0.144216 0.899459
0.051826 -0.144352 0.900303
0.053410 -0.144520 0.901354
0.055019 -0.144744 0.902752
0.056635 -0.144975 0.904191
0.058278 -0.145260 0.905971
0.059947 -0.145595 0.908055
0.061657 -0.146008 0.910633
0.063375 -0.146420 0.913200
0.065115 -0.146862 0.915959
0.066889 -0.147359 0.919057
0.068648 -0.147801 0.921815
0.070404 -0.148218 0.924414
0.072173 -0.148643 0.927067
0.073983 -0.149132 0.930115
-0.067178 -0.150277 0.947276
-0.065540 -0.150194 0.946748
-0.063917 -0.150140 0.946410
-0.061961 -0.149284 0.941013
-0.049324 -0.132439 0.834829
-0.047582 -0.131524 0.829061
-0.046135 -0.131393 0.828238
-0.044684 -0.131244 0.827295
-0.043230 -0.131075 0.826236
-0.041775 -0.130896 0.825107
-0.040327 -0.130723 0.824017
-0.038894 -0.130587 0.823157
-0.037473 -0.130486 0.822522
-0.036061 -0.130409 0.822037
-0.034646 -0.130313 0.821427
-0.033241 -0.130250 0.821032
-0.031841 -0.130199 0.820714
-0.030439 -0.130139 0.820331
-0.029044 -0.130102 0.820099
-0.027657 -0.130099 0.820083
-0.026274 -0.130113 0.820169
-0.024890 -0.130128 0.820262
-0.023514 -0.130187 0.820634
-0.022133 -0.130224 0.820866
-0.020755 -0.130284 0.821247
-0.019376 -0.130347 0.821641
-0.017995 -0.130411 0.822045
-0.016615 -0.130485 0.822517
-0.015236 -0.130584 0.823138
-0.013856 -0.130686 0.823781
-0.012481 -0.130872 0.824955
-0.011108 -0.131136 0.826620
-0.009732 -0.131424 0.828432
-0.002929 -0.141042 0.889058
-0.001433 -0.141701 0.893215
0.000077 -0.141660 0.892954
0.001586 -0.141644 0.892857
0.003095 -0.141630 0.892769
0.004604 -0.141604 0.892606
0.006112 -0.141589 0.892511
0.007616 -0.141505 0.891977
0.009118 -0.141413 0.891402
0.010617 -0.141307 0.890731
0.012117 -0.141232 0.890259
0.013615 -0.141164 0.889830
0.015120 -0.141164 0.889830
0.016627 -0.141191 0.889999
0.018135 -0.141220 0.890183
0.019645 -0.141251 0.890375
0.021154 -0.141280 0.890559
0.022666 -0.141319 0.890810
0.024177 -0.141348 0.890988
0.025694 -0.141406 0.891357
0.027218 -0.141496 0.891919
0.028750 -0.141615 0.892671
0.030287 -0.141748 0.893513
0.031828 -0.141882 0.894356
0.033374 -0.142027 0.895270
0.034910 -0.142118 0.895844
0.036447 -0.142206 0.896399
0.037978 -0.142264 0.896763
0.039510 -0.142323 0.897133
0.041032 -0.142340 0.897244
0.042561 -0.142383 0.897515
0.044096 -0.142439 0.897868
0.045633 -0.142499 0.898243
0.047173 -0.142563 0.898646
0.048727 -0.142665 0.899293
0.050279 -0.142755 0.899856
0.051853 -0.142900 0.900770
0.053437 -0.143065 0.901814
0.055049 -0.143292 0.903242
0.056660 -0.143506 0.904595
0.058309 -0.143801 0.906452
0.059972 -0.144115 0.908431
0.061682 -0.144523 0.911005
0.063407 -0.144946 0.913667
0.065166 -0.145425 0.916686
0.066955 -0.145945 0.919969
0.068724 -0.146400 0.922837
0.070483 -0.146815 0.925449
0.072255 -0.147238 0.928116
0.074058 -0.147705 0.931060
0.075810 -0.149634 0.933249
0.075848 -0.148127 0.933722
-0.067258 -0.148848 0.948401
-0.065626 -0.148783 0.947988
-0.064005 -0.148742 0.947725
-0.049059 -0.130317 0.830331
-0.047616 -0.130211 0.829653
-0.046157 -0.130051 0.828633
-0.044696 -0.129876 0.827518
-0.043233 -0.129684 0.826294
-0.041770 -0.129482 0.825008
-0.040315 -0.129286 0.823757
-0.038878 -0.129139 0.822822
-0.037451 -0.129017 0.822043
-0.036037 -0.128928 0.821478
-0.034622 -0.128832 0.820869
-0.033219 -0.128771 0.820477
-0.031817 -0.128712 0.820100
-0.030416 -0.128652 0.819717
-0.029025 -0.128625 0.819548
-0.027636 -0.128612 0.819463
-0.026252 -0.128615 0.819481
-0.024869 -0.128629 0.819571
-0.023494 -0.128686 0.819937
-0.022112 -0.128712 0.820100
-0.020735 -0.128771 0.820477
-0.019357 -0.128832 0.820869
-0.017978 -0.128895 0.821264
-0.016601 -0.128980 0.821810
-0.015223 -0.129078 0.822435
-0.013844 -0.129179 0.823074
-0.012469 -0.129350 0.824165
-0.011096 -0.129595 0.825726
-0.009719 -0.129840 0.827291
-0.008419 -0.132797 0.837091
-0.008383 -0.130812 0.833481
-0.002914 -0.138805 0.884409
-0.001430 -0.139908 0.891438
0.000077 -0.140228 0.893477
0.001587 -0.140199 0.893294
0.003097 -0.140172 0.893117
0.004606 -0.140146 0.892954
0.006115 -0.140132 0.892866
0.007620 -0.140051 0.892346
0.009122 -0.139963 0.891786
0.010623 -0.139871 0.891202
0.012123 -0.139797 0.890730
0.013623 -0.139730 0.890301
0.015128 -0.139730 0.890301
0.016636 -0.139755 0.890463
0.018145 -0.139783 0.890639
0.019654 -0.139811 0.890819
0.021164 -0.139838 0.890995
0.022677 -0.139878 0.891245
0.024189 -0.139907 0.891431
0.025707 -0.139965 0.891803
0.027231 -0.140053 0.892363
0.028767 -0.140185 0.893203
0.030306 -0.140319 0.894054
0.031847 -0.140452 0.894904
0.033395 -0.140596 0.895819
0.034931 -0.140685 0.896389
0.036466 -0.140760 0.896864
0.037997 -0.140817 0.897229
0.039526 -0.140859 0.897499
0.041044 -0.140862 0.897515
0.042570 -0.140889 0.897687
0.044105 -0.140944 0.898040
0.045643 -0.141006 0.898431
0.047188 -0.141084 0.898932
0.048743 -0.141188 0.899594
0.050299 -0.141288 0.900228
0.051874 -0.141431 0.901145
0.053464 -0.141606 0.902259
0.055083 -0.141848 0.903798
0.056702 -0.142076 0.905250
0.058353 -0.142371 0.907128
0.060011 -0.142667 0.909015
0.061716 -0.143056 0.911498
0.063441 -0.143474 0.914156
0.065209 -0.143964 0.917282
0.067000 -0.144483 0.920586
0.068783 -0.144961 0.923631
0.070550 -0.145383 0.926323
0.072325 -0.145806 0.929016
0.074116 -0.146241 0.931790
0.075889 -0.146623 0.934223
-0.067331 -0.147401 0.949433
-0.065704 -0.147353 0.949123
-0.064080 -0.147306 0.948823
-0.049090 -0.128993 0.830862
-0.047640 -0.128870 0.830073
-0.046172 -0.128690 0.828916
-0.044705 -0.128502 0.827702
-0.043234 -0.128286 0.826314
-0.041763 -0.128061 0.824861
-0.040303 -0.127852 0.823519
-0.038859 -0.127683 0.822430
-0.037426 -0.127538 0.821492
-0.036010 -0.127439 0.820856
-0.034596 -0.127343 0.820236
-0.033193 -0.127283 0.819848
-0.031792 -0.127223 0.819462
-0.030393 -0.127163 0.819076
-0.029002 -0.127135 0.818897
-0.027612 -0.127111 0.818742
-0.026226 -0.127102 0.818684
-0.024845 -0.127116 0.818775
-0.023471 -0.127173 0.819143
