1761
0.093690 0.076328 0.710051
0.094852 0.076297 0.709760
0.096027 0.076277 0.709577
0.097209 0.076264 0.709449
0.098395 0.076253 0.709350
0.099594 0.076253 0.709352
0.100785 0.076247 0.709296
0.101958 0.076227 0.709112
0.103130 0.076207 0.708924
0.104301 0.076187 0.708741
0.105450 0.076152 0.708408
0.107088 0.076466 0.711334
-0.047852 0.079354 0.726736
-0.046353 0.078893 0.722516
-0.045123 0.078877 0.722372
-0.043886 0.078850 0.722124
-0.042639 0.078801 0.721675
-0.041394 0.078754 0.721241
-0.040158 0.078721 0.720944
-0.038927 0.078696 0.720716
-0.037699 0.078677 0.720540
-0.036469 0.078651 0.720300
-0.035239 0.078624 0.720052
-0.034013 0.078603 0.719863
-0.032799 0.078609 0.719921
-0.031583 0.078613 0.719954
-0.030374 0.078634 0.720146
-0.029159 0.078641 0.720213
-0.027939 0.078634 0.720143
-0.026721 0.078631 0.720119
-0.025505 0.078636 0.720164
-0.024288 0.078639 0.720188
-0.023075 0.078653 0.720318
-0.021869 0.078696 0.720713
-0.020654 0.078710 0.720841
-0.019445 0.078749 0.721198
-0.018237 0.078795 0.721620
-0.017028 0.078848 0.722106
-0.015821 0.078915 0.722717
-0.014615 0.079002 0.723514
-0.013406 0.079085 0.724276
-0.012196 0.079179 0.725139
-0.010980 0.079247 0.725760
-0.009759 0.079294 0.726192
-0.008537 0.079345 0.726659
-0.007313 0.079393 0.727095
-0.006087 0.079438 0.727505
-0.004862 0.079513 0.728192
-0.003634 0.079593 0.728930
-0.002404 0.079674 0.729669
-0.001172 0.079768 0.730531
0.000063 0.079864 0.731411
0.001302 0.080014 0.732786
0.002545 0.080159 0.734107
0.003796 0.080354 0.735902
0.005050 0.080523 0.737444
0.006313 0.080723 0.739274
0.007575 0.080854 0.740474
0.008841 0.080986 0.741690
0.010103 0.081053 0.742300
0.011366 0.081110 0.742820
0.012626 0.081135 0.743055
0.013887 0.081168 0.743355
0.015152 0.081211 0.743742
0.016420 0.081263 0.744227
0.017694 0.081335 0.744880
0.018972 0.081419 0.745649
0.020264 0.081545 0.746800
0.021551 0.081637 0.747644
0.022842 0.081735 0.748540
0.024137 0.081832 0.749435
0.025429 0.081915 0.750196
0.026704 0.081934 0.750367
0.027978 0.081949 0.750507
0.029240 0.081932 0.750351
0.030491 0.081884 0.749912
0.031731 0.081813 0.749254
0.032980 0.081769 0.748853
0.034226 0.081721 0.748414
0.035464 0.081659 0.747845
0.036707 0.081612 0.747414
0.037952 0.081571 0.747048
0.039192 0.081524 0.746615
0.040445 0.081506 0.746444
0.041721 0.081532 0.746688
0.042987 0.081541 0.746768
0.044255 0.081550 0.746854
0.045529 0.081571 0.747046
0.046796 0.081579 0.747112
0.048045 0.081554 0.746883
0.049282 0.081512 0.746504
0.050516 0.081467 0.746091
0.051711 0.081362 0.745128
0.052901 0.081255 0.744149
0.054081 0.081139 0.743084
0.055269 0.081037 0.742156
0.056442 0.080920 0.741084
0.057644 0.080849 0.740435
0.058840 0.080773 0.739731
0.060033 0.080696 0.739033
0.061214 0.080606 0.738204
0.062390 0.080513 0.737356
0.063559 0.080415 0.736459
0.064700 0.080286 0.735273
0.065825 0.080142 0.733960
0.066947 0.080001 0.732661
0.068056 0.079848 0.731262
0.069146 0.079679 0.729720
0.070253 0.079537 0.728413
0.071356 0.079394 0.727103
0.072432 0.079226 0.725568
0.073508 0.079064 0.724083
0.074609 0.078933 0.722885
0.075680 0.078776 0.721450
0.076766 0.078640 0.720197
0.077864 0.078519 0.719095
0.078959 0.078399 0.717992
0.080021 0.078251 0.716634
0.081128 0.078149 0.715707
0.082232 0.078050 0.714794
0.083331 0.077947 0.713852
0.084445 0.077862 0.713074
0.085590 0.077807 0.712567
0.086730 0.077749 0.712038
0.087892 0.077712 0.711698
0.089060 0.077681 0.711416
0.090225 0.077648 0.711118
0.091380 0.077608 0.710752
0.092541 0.077575 0.710445
0.093698 0.077538 0.710105
0.094868 0.077513 0.709880
0.096052 0.077500 0.709764
0.097244 0.077494 0.709704
0.098444 0.077494 0.709708
0.099653 0.077501 0.709771
0.100854 0.077502 0.709776
0.102036 0.077489 0.709656
0.103208 0.077468 0.709463
0.104362 0.077434 0.709156
0.105501 0.077390 0.708752
0.107643 0.078075 0.715023
-0.046645 0.080622 0.727062
-0.045172 0.080190 0.723172
-0.043936 0.080165 0.722946
-0.042693 0.080127 0.722599
-0.041450 0.080084 0.722215
-0.040213 0.080052 0.721921
-0.038982 0.080032 0.721745
-0.037750 0.080006 0.721508
-0.036512 0.079966 0.721148
-0.035275 0.079925 0.720783
-0.034045 0.079898 0.720535
-0.032826 0.079897 0.720530
-0.031607 0.079893 0.720493
-0.030397 0.079914 0.720680
-0.029178 0.079915 0.720683
-0.027955 0.079901 0.720561
-0.026736 0.079899 0.720542
-0.025518 0.079898 0.720538
-0.024299 0.079893 0.720495
-0.023084 0.079907 0.720612
-0.021876 0.079943 0.720944
-0.020658 0.079946 0.720967
-0.019447 0.079980 0.721271
-0.018236 0.080013 0.721569
-0.017023 0.080047 0.721877
-0.015813 0.080100 0.722357
-0.014605 0.080174 0.723021
-0.013394 0.080237 0.723590
-0.012181 0.080305 0.724207
-0.010964 0.080358 0.724685
-0.009742 0.080385 0.724925
-0.008520 0.080417 0.725211
-0.007297 0.080457 0.725579
-0.006074 0.080508 0.726033
-0.004852 0.080585 0.726729
-0.003626 0.080649 0.727307
-0.002398 0.080712 0.727877
-0.001169 0.080792 0.728595
0.000063 0.080868 0.729284
0.001297 0.080972 0.730222
0.002535 0.081084 0.731235
0.003779 0.081250 0.732724
0.005026 0.081383 0.733923
0.006280 0.081560 0.735523
0.007536 0.081686 0.736661
0.008800 0.081865 0.738271
0.010061 0.081970 0.739223
0.011325 0.082074 0.740154
0.012586 0.082134 0.740696
0.013850 0.082209 0.741378
0.015113 0.082259 0.741825
0.016378 0.082312 0.742306
0.017648 0.082385 0.742963
0.018919 0.082449 0.743539
0.020199 0.082545 0.744406
0.021474 0.082606 0.744954
0.022753 0.082681 0.745628
0.024035 0.082752 0.746274
0.025322 0.082837 0.747037
0.026599 0.082879 0.747413
0.027875 0.082917 0.747766
0.029144 0.082931 0.747884
0.030402 0.082913 0.747721
0.031650 0.082872 0.747358
0.032904 0.082848 0.747140
0.034153 0.082813 0.746827
0.035395 0.082766 0.746400
0.036646 0.082740 0.746167
0.037889 0.082701 0.745813
0.039127 0.082653 0.745378
0.040374 0.082626 0.745135
0.041640 0.082639 0.745253
0.042891 0.082622 0.745099
0.044148 0.082616 0.745047
0.045407 0.082616 0.745043
0.046663 0.082608 0.744976
0.047896 0.082563 0.744568
0.049125 0.082513 0.744114
0.050353 0.082465 0.743681
0.051548 0.082365 0.742782
0.052739 0.082265 0.741877
0.053927 0.082163 0.740965
0.055121 0.082075 0.740168
0.056290 0.081957 0.739101
0.057484 0.081877 0.738385
0.058680 0.081804 0.737722
0.059870 0.081726 0.737019
0.061048 0.081636 0.736206
0.062223 0.081544 0.735378
0.063393 0.081450 0.734530
0.064531 0.081320 0.733356
0.065656 0.081177 0.732069
0.066773 0.081031 0.730752
0.067890 0.080889 0.729475
0.068977 0.080719 0.727939
0.070077 0.080568 0.726580
0.071182 0.080430 0.725331
0.072273 0.080279 0.723972
0.073360 0.080129 0.722621
0.074472 0.080012 0.721560
0.075561 0.079873 0.720313
0.076664 0.079754 0.719233
0.077766 0.079638 0.718190
0.078861 0.079517 0.717099
0.079933 0.079378 0.715846
0.081045 0.079282 0.714976
0.082156 0.079188 0.714133
0.083274 0.079103 0.713369
0.084410 0.079038 0.712774
0.085569 0.078995 0.712391
0.086723 0.078949 0.711979
0.087891 0.078918 0.711694
0.089066 0.078893 0.711468
0.090239 0.078866 0.711231
0.091402 0.078832 0.710925
0.092571 0.078805 0.710676
0.093742 0.078778 0.710439
0.094913 0.078754 0.710220
0.096098 0.078741 0.710103
0.097298 0.078740 0.710096
0.098506 0.078747 0.710154
0.099718 0.078755 0.710232
0.100928 0.078763 0.710301
0.102122 0.078757 0.710249
0.103286 0.078730 0.710002
0.104880 0.079026 0.712674
0.106509 0.079342 0.715522
-0.043212 0.082340 0.731374
-0.041803 0.082001 0.728365
-0.040409 0.081673 0.725449
-0.039044 0.081383 0.722879
-0.037806 0.081349 0.722572
-0.036559 0.081294 0.722085
-0.035320 0.081251 0.721700
-0.034085 0.081214 0.721378
-0.032857 0.081194 0.721200
-0.031631 0.081176 0.721038
-0.030416 0.081188 0.721148
-0.029195 0.081182 0.721091
-0.027972 0.081169 0.720979
-0.026754 0.081174 0.721019
-0.025535 0.081174 0.721021
-0.024315 0.081169 0.720977
-0.023098 0.081175 0.721031
-0.021886 0.081200 0.721252
-0.020665 0.081196 0.721219
-0.019454 0.081231 0.721523
-0.018239 0.081252 0.721714
-0.017024 0.081273 0.721897
-0.015812 0.081318 0.722298
-0.014601 0.081372 0.722778
-0.013385 0.081410 0.723118
-0.012171 0.081465 0.723603
-0.010952 0.081498 0.723899
-0.009728 0.081498 0.723900
-0.008506 0.081516 0.724061
-0.007285 0.081549 0.724354
-0.006063 0.081586 0.724682
-0.004843 0.081663 0.725362
-0.003619 0.081733 0.725985
-0.002394 0.081796 0.726550
-0.001167 0.081859 0.727100
0.000063 0.081921 0.727653
0.001294 0.081977 0.728152
0.002526 0.082031 0.728634
0.003763 0.082137 0.729574
0.005002 0.082229 0.730392
0.006248 0.082373 0.731669
0.007497 0.082508 0.732867
0.008757 0.082711 0.734672
0.010019 0.082878 0.736155
0.011286 0.083038 0.737576
0.012548 0.083139 0.738473
0.013812 0.083233 0.739313
0.015073 0.083294 0.739849
0.016329 0.083321 0.740087
0.017591 0.083374 0.740560
0.018854 0.083424 0.741003
0.020124 0.083493 0.741617
0.021387 0.083530 0.741945
0.022657 0.083586 0.742448
0.023928 0.083643 0.742953
0.025206 0.083715 0.743591
0.026482 0.083775 0.744126
0.027763 0.083844 0.744740
0.029039 0.083895 0.745193
0.030306 0.083916 0.745376
0.031565 0.083913 0.745346
0.032826 0.083916 0.745372
0.034081 0.083902 0.745253
0.035327 0.083869 0.744961
0.036582 0.083860 0.744880
0.037831 0.083836 0.744662
0.039070 0.083793 0.744282
0.040311 0.083757 0.743968
0.041564 0.083749 0.743888
0.042797 0.083701 0.743467
0.044036 0.083666 0.743153
0.045272 0.083629 0.742828
0.046512 0.083599 0.742563
0.047731 0.083537 0.742012
0.048952 0.083479 0.741497
0.050176 0.083430 0.741062
0.051380 0.083351 0.740354
0.052578 0.083266 0.739604
0.053772 0.083180 0.738838
0.054976 0.083111 0.738229
0.056148 0.082999 0.737232
0.057338 0.082918 0.736512
0.058527 0.082838 0.735804
0.059720 0.082767 0.735169
0.060892 0.082671 0.734319
0.062069 0.082585 0.733555
0.063236 0.082491 0.732717
0.064378 0.082366 0.731607
0.065504 0.082227 0.730375
0.066625 0.082087 0.729129
0.067745 0.081951 0.727923
0.068837 0.081786 0.726455
0.069934 0.081634 0.725101
0.071038 0.081494 0.723859
0.072133 0.081349 0.722574
0.073226 0.081205 0.721299
0.074349 0.081101 0.720369
0.075459 0.080985 0.719345
0.076573 0.080877 0.718383
0.077687 0.080773 0.717459
0.078792 0.080662 0.716474
0.079876 0.080534 0.715338
0.080995 0.080444 0.714539
0.082120 0.080363 0.713818
0.083253 0.080292 0.713183
0.084403 0.080239 0.712717
0.085577 0.080210 0.712461
0.086746 0.080177 0.712166
0.087921 0.080151 0.711936
0.089096 0.080126 0.711708
0.090269 0.080099 0.711470
0.091434 0.080065 0.711173
0.092605 0.080038 0.710932
0.093776 0.080012 0.710696
0.094961 0.079998 0.710573
0.096146 0.079984 0.710453
0.097345 0.079983 0.710443
0.098554 0.079990 0.710501
0.099774 0.080005 0.710633
0.100987 0.080014 0.710718
0.102610 0.080344 0.713646
0.104256 0.080684 0.716668
-0.042179 0.083985 0.734924
-0.040616 0.083327 0.729163
-0.039102 0.082732 0.723961
-0.037858 0.082688 0.723576
-0.036607 0.082625 0.723023
-0.035365 0.082580 0.722624
-0.034123 0.082530 0.722189
-0.032888 0.082495 0.721882
-0.031655 0.082462 0.721592
-0.030435 0.082460 0.721579
-0.029207 0.082440 0.721403
-0.027986 0.082433 0.721343
-0.026770 0.082445 0.721447
-0.025553 0.082452 0.721512
-0.024332 0.082448 0.721475
-0.023114 0.082454 0.721527
-0.021900 0.082479 0.721744
-0.020678 0.082468 0.721650
-0.019464 0.082496 0.721893
-0.018248 0.082517 0.722076
-0.017030 0.082531 0.722195
-0.015815 0.082557 0.722427
-0.014601 0.082598 0.722782
-0.013383 0.082622 0.722999
-0.012166 0.082658 0.723313
-0.010946 0.082678 0.723489
-0.009721 0.082665 0.723368
-0.008498 0.082669 0.723405
-0.007277 0.082688 0.723573
-0.006056 0.082711 0.723778
-0.004836 0.082781 0.724383
-0.003615 0.082851 0.724998
-0.002391 0.082907 0.725493
-0.001165 0.082963 0.725979
0.000063 0.083024 0.726515
0.001291 0.083035 0.726612
0.002519 0.083042 0.726672
0.003750 0.083097 0.727149
0.004982 0.083137 0.727499
0.006219 0.083230 0.728313
0.007462 0.083359 0.729448
0.008716 0.083564 0.731241
0.009976 0.083758 0.732937
0.011241 0.083957 0.734681
0.012505 0.084100 0.735934
0.013767 0.084213 0.736922
0.015025 0.084281 0.737511
0.016276 0.084303 0.737709
0.017533 0.084348 0.738104
0.018789 0.084385 0.738427
0.020049 0.084434 0.738852
0.021303 0.084456 0.739043
0.022564 0.084498 0.739412
0.023830 0.084554 0.739901
0.025100 0.084619 0.740475
0.026378 0.084706 0.741227
0.027663 0.084800 0.742058
0.028950 0.084897 0.742903
0.030226 0.084952 0.743388
0.031496 0.084988 0.743704
0.032763 0.085014 0.743930
0.034023 0.085021 0.743991
0.035274 0.085004 0.743836
0.036529 0.084997 0.743781
0.037773 0.084968 0.743527
0.039007 0.084918 0.743084
0.040235 0.084858 0.742566
0.041468 0.084813 0.742169
0.042683 0.084734 0.741479
0.043906 0.084675 0.740960
0.045122 0.084607 0.740363
0.046345 0.084554 0.739902
0.047552 0.084476 0.739222
0.048767 0.084417 0.738705
0.049988 0.084370 0.738294
0.051201 0.084312 0.737782
0.052409 0.084249 0.737235
0.053615 0.084185 0.736676
0.054825 0.084131 0.736201
0.056007 0.084037 0.735379
0.057196 0.083958 0.734683
0.058388 0.083885 0.734048
0.059587 0.083827 0.733542
0.060754 0.083726 0.732655
0.061919 0.083627 0.731788
0.063074 0.083517 0.730830
0.064205 0.083382 0.729644
0.065318 0.083229 0.728307
0.066436 0.083087 0.727061
0.067558 0.082956 0.725914
0.068663 0.082808 0.724618
0.069765 0.082662 0.723347
0.070878 0.082534 0.722225
0.071988 0.082407 0.721114
0.073096 0.082282 0.720019
0.074230 0.082190 0.719218
0.075358 0.082094 0.718378
0.076483 0.081998 0.717536
0.077609 0.081907 0.716735
0.078721 0.081803 0.715825
0.079817 0.081686 0.714809
0.080942 0.081602 0.714073
0.082081 0.081534 0.713475
0.083233 0.081482 0.713018
0.084405 0.081449 0.712732
0.085589 0.081429 0.712555
0.086765 0.081402 0.712321
0.087946 0.081381 0.712140
0.089127 0.081360 0.711956
0.090308 0.081340 0.711776
0.091481 0.081313 0.711541
0.092660 0.081292 0.711356
0.093832 0.081265 0.711122
0.095010 0.081245 0.710945
0.096189 0.081225 0.710770
0.097388 0.081223 0.710754
0.098597 0.081230 0.710810
0.099817 0.081244 0.710942
0.101031 0.081254 0.711021
0.103104 0.081946 0.717081
0.105254 0.082683 0.723526
0.106390 0.081390 0.722937
0.107526 0.083497 0.730654
0.108557 0.082104 0.729282
-0.039276 0.084333 0.727179
-0.037906 0.084021 0.724490
-0.036651 0.083951 0.723887
-0.035405 0.083899 0.723435
-0.034158 0.083840 0.722932
-0.032917 0.083791 0.722509
-0.031679 0.083749 0.722147
-0.030457 0.083746 0.722122
-0.029227 0.083720 0.721892
-0.028004 0.083712 0.721829
-0.026792 0.083738 0.722048
-0.025574 0.083747 0.722127
-0.024353 0.083744 0.722103
-0.023135 0.083756 0.722205
-0.021919 0.083773 0.722353
-0.020693 0.083754 0.722191
-0.019477 0.083775 0.722372
-0.018259 0.083790 0.722499
-0.017038 0.083791 0.722511
-0.015819 0.083804 0.722617
-0.014602 0.083830 0.722848
-0.013383 0.083848 0.722997
-0.012164 0.083871 0.723200
-0.010943 0.083885 0.723317
-0.009718 0.083869 0.723180
-0.008495 0.083865 0.723147
-0.007273 0.083871 0.723202
-0.006052 0.083889 0.723351
-0.004832 0.083946 0.723841
-0.003611 0.084003 0.724332
-0.002388 0.084040 0.724657
-0.001163 0.084089 0.725076
0.000062 0.084137 0.725492
0.001289 0.084147 0.725576
0.002516 0.084155 0.725644
0.003743 0.084165 0.725732
0.004970 0.084157 0.725665
0.006199 0.084197 0.726008
0.007433 0.084275 0.726680
0.008677 0.084425 0.727976
0.009931 0.084624 0.729691
0.011193 0.084840 0.731554
0.012456 0.085018 0.733087
0.013717 0.085148 0.734211
0.014972 0.085230 0.734914
0.016221 0.085261 0.735183
0.017471 0.085297 0.735493
0.018721 0.085329 0.735766
0.019974 0.085366 0.736090
0.021223 0.085388 0.736275
0.022477 0.085422 0.736571
0.023735 0.085466 0.736953
0.024996 0.085520 0.737417
0.026274 0.085622 0.738293
0.027553 0.085719 0.739129
0.028847 0.085851 0.740270
0.030134 0.085952 0.741142
0.031420 0.086043 0.741927
0.032697 0.086102 0.742433
0.033971 0.086150 0.742845
0.035227 0.086151 0.742859
0.036481 0.086145 0.742810
0.037721 0.086110 0.742501
0.038949 0.086050 0.741988
0.040159 0.085955 0.741163
0.041362 0.085850 0.740267
0.042555 0.085732 0.739247
0.043758 0.085641 0.738462
0.044948 0.085531 0.737514
0.046161 0.085469 0.736977
0.047366 0.085395 0.736337
0.048582 0.085344 0.735895
0.049804 0.085306 0.735574
0.051034 0.085283 0.735375
0.052248 0.085236 0.734969
0.053459 0.085185 0.734531
0.054675 0.085146 0.734189
0.055860 0.085059 0.733445
0.057043 0.084975 0.732718
0.058227 0.084896 0.732034
0.059415 0.084824 0.731415
0.060571 0.084712 0.730449
0.061728 0.084605 0.729523
0.062873 0.084487 0.728507
0.064005 0.084355 0.727370
0.065118 0.084204 0.726072
0.066236 0.084066 0.724880
0.067363 0.083943 0.723817
0.068481 0.083814 0.722708
0.069598 0.083688 0.721617
0.070726 0.083579 0.720681
0.071852 0.083471 0.719752
0.072976 0.083366 0.718840
0.074116 0.083281 0.718111
0.075255 0.083199 0.717400
0.076392 0.083116 0.716689
0.077526 0.083033 0.715970
0.078650 0.082942 0.715188
0.079772 0.082851 0.714401
0.080904 0.082774 0.713738
0.082049 0.082712 0.713200
0.083214 0.082671 0.712852
0.084399 0.082651 0.712680
0.085590 0.082638 0.712569
0.086781 0.082625 0.712451
0.087977 0.082617 0.712383
0.089172 0.082608 0.712311
0.090361 0.082595 0.712192
0.091542 0.082574 0.712014
0.092722 0.082553 0.711833
0.093901 0.082531 0.711646
0.095073 0.082505 0.711416
0.096245 0.082479 0.711190
0.097439 0.082471 0.711126
0.098648 0.082477 0.711174
0.099852 0.082478 0.711188
0.101064 0.082486 0.711256
0.103584 0.083549 0.720418
0.106232 0.084689 0.730251
-0.039564 0.086192 0.732505
-0.038049 0.085571 0.727223
-0.036676 0.085236 0.724381
-0.035432 0.085191 0.724000
-0.034187 0.085138 0.723549
-0.032944 0.085087 0.723116
-0.031706 0.085044 0.722750
-0.030481 0.085035 0.722672
-0.029250 0.085008 0.722439
-0.028026 0.085000 0.722377
-0.026813 0.085027 0.722603
-0.025595 0.085037 0.722691
-0.024374 0.085041 0.722725
-0.023157 0.085060 0.722885
-0.021939 0.085077 0.723025
-0.020711 0.085051 0.722804
-0.019492 0.085065 0.722926
-0.018271 0.085072 0.722985
-0.017047 0.085060 0.722881
-0.015824 0.085059 0.722871
-0.014606 0.085077 0.723028
-0.013385 0.085086 0.723107
-0.012165 0.085103 0.723248
-0.010942 0.085104 0.723254
-0.009717 0.085080 0.723057
-0.008494 0.085075 0.723015
-0.007272 0.085075 0.723015
-0.006050 0.085087 0.723111
-0.004830 0.085138 0.723544
-0.003609 0.085188 0.723968
-0.002386 0.085212 0.724172
-0.001162 0.085247 0.724473
0.000062 0.085289 0.724829
0.001288 0.085299 0.724913
0.002514 0.085313 0.725038
0.003740 0.085326 0.725144
0.004966 0.085325 0.725135
0.006192 0.085325 0.725139
0.007421 0.085360 0.725437
0.008656 0.085451 0.726209
0.009901 0.085598 0.727451
0.011153 0.085770 0.728917
0.012412 0.085951 0.730454
0.013668 0.086084 0.731590
0.014919 0.086170 0.732315
0.016166 0.086215 0.732702
0.017412 0.086250 0.732999
0.018658 0.086283 0.733276
0.019906 0.086322 0.733606
0.021154 0.086351 0.733853
0.022401 0.086378 0.734082
0.023658 0.086435 0.734571
0.024910 0.086472 0.734886
0.026185 0.086578 0.735784
0.027457 0.086669 0.736557
0.028745 0.086797 0.737646
0.030032 0.086913 0.738634
0.031326 0.087038 0.739691
0.032613 0.087136 0.740523
0.033898 0.087222 0.741256
0.035171 0.087271 0.741670
0.036423 0.087265 0.741625
0.037663 0.087234 0.741359
0.038876 0.087143 0.740588
0.040068 0.087014 0.739489
0.041247 0.086863 0.738206
0.042421 0.086713 0.736930
0.043613 0.086605 0.736013
0.044796 0.086487 0.735012
0.046005 0.086425 0.734482
0.047218 0.086371 0.734027
0.048438 0.086334 0.733713
0.049658 0.086300 0.733417
0.050898 0.086299 0.733409
0.052117 0.086264 0.733116
0.053317 0.086201 0.732584
0.054531 0.086162 0.732245
0.055721 0.086088 0.731619
0.056892 0.085989 0.730782
0.058064 0.085895 0.729982
0.059245 0.085818 0.729327
0.060396 0.085702 0.728342
0.061540 0.085580 0.727302
0.062681 0.085460 0.726279
0.063813 0.085332 0.725196
0.064924 0.085180 0.723905
0.066041 0.085043 0.722743
0.067176 0.084933 0.721803
0.068309 0.084825 0.720888
0.069436 0.084714 0.719940
0.070581 0.084627 0.719203
0.071717 0.084533 0.718404
0.072852 0.084441 0.717620
0.073997 0.084363 0.716960
0.075153 0.084300 0.716426
0.076308 0.084238 0.715897
0.077460 0.084175 0.715364
0.078597 0.084098 0.714705
0.079738 0.084026 0.714097
0.080882 0.083961 0.713545
0.082034 0.083906 0.713073
0.083212 0.083877 0.712832
0.084409 0.083870 0.712769
0.085608 0.083864 0.712717
0.086806 0.083857 0.712664
0.088010 0.083856 0.712654
0.089208 0.083849 0.712596
0.090399 0.083837 0.712493
0.091589 0.083824 0.712382
0.092777 0.083809 0.712255
0.093963 0.083793 0.712117
0.095143 0.083772 0.711938
0.096316 0.083745 0.711712
0.097502 0.083731 0.711589
0.098696 0.083724 0.711525
0.100223 0.083994 0.713827
0.101799 0.084300 0.716426
0.104759 0.085732 0.728595
-0.038401 0.087608 0.733960
-0.036894 0.086978 0.728687
-0.035544 0.086692 0.726289
-0.034204 0.086408 0.723913
-0.032961 0.086357 0.723481
-0.031722 0.086314 0.723126
-0.030497 0.086306 0.723057
-0.029267 0.086286 0.722885
-0.028047 0.086291 0.722931
-0.026835 0.086325 0.723212
-0.025618 0.086343 0.723364
-0.024399 0.086354 0.723455
-0.023180 0.086373 0.723613
-0.021960 0.086384 0.723708
-0.020730 0.086357 0.723487
-0.019509 0.086364 0.723544
-0.018286 0.086364 0.723545
-0.017058 0.086343 0.723367
-0.015832 0.086327 0.723233
-0.014610 0.086331 0.723266
-0.013387 0.086326 0.723221
-0.012166 0.086335 0.723303
-0.010941 0.086323 0.723198
-0.009715 0.086293 0.722945
-0.008492 0.086287 0.722896
-0.007270 0.086287 0.722896
-0.006049 0.086293 0.722945
-0.004829 0.086344 0.723371
-0.003608 0.086392 0.723779
-0.002385 0.086408 0.723908
-0.001162 0.086430 0.724092
0.000062 0.086465 0.724386
0.001287 0.086475 0.724474
0.002512 0.086491 0.724606
0.003738 0.086498 0.724667
0.004963 0.086498 0.724660
0.006188 0.086503 0.724711
0.007416 0.086538 0.725000
0.008646 0.086582 0.725369
0.009884 0.086682 0.726204
0.011128 0.086812 0.727298
0.012377 0.086949 0.728439
0.013624 0.087045 0.729249
0.014872 0.087133 0.729986
0.016116 0.087189 0.730453
0.017358 0.087225 0.730757
0.018601 0.087259 0.731041
0.019846 0.087298 0.731371
0.021089 0.087328 0.731615
0.022331 0.087347 0.731778
0.023585 0.087411 0.732312
0.024836 0.087454 0.732674
0.026102 0.087549 0.733468
0.027364 0.087620 0.734061
0.028639 0.087724 0.734933
0.029918 0.087830 0.735823
0.031208 0.087958 0.736899
0.032510 0.088111 0.738179
0.033797 0.088214 0.739040
0.035088 0.088320 0.739928
0.036332 0.088302 0.739776
0.037563 0.088255 0.739385
0.038756 0.088125 0.738300
0.039951 0.088009 0.737323
0.041109 0.087819 0.735735
0.042287 0.087685 0.734609
0.043482 0.087589 0.733808
0.044664 0.087474 0.732839
0.045871 0.087414 0.732337
0.047088 0.087374 0.732003
0.048313 0.087352 0.731819
0.049531 0.087319 0.731543
0.050772 0.087326 0.731600
0.051992 0.087297 0.731358
0.053188 0.087232 0.730814
0.054389 0.087177 0.730351
0.055577 0.087103 0.729729
0.056740 0.086995 0.728825
0.057893 0.086877 0.727836
0.059058 0.086781 0.727031
0.060200 0.086654 0.725970
0.061335 0.086524 0.724881
0.062475 0.086407 0.723899
0.063621 0.086300 0.723006
0.064744 0.086168 0.721899
0.065875 0.086052 0.720926
0.067019 0.085956 0.720125
0.068174 0.085877 0.719460
0.069316 0.085785 0.718694
0.070472 0.085714 0.718093
0.071615 0.085628 0.717377
0.072760 0.085548 0.716709
0.073909 0.085477 0.716110
0.075076 0.085427 0.715689
0.076242 0.085378 0.715279
0.077413 0.085335 0.714921
0.078569 0.085278 0.714442
0.079722 0.085219 0.713952
0.080874 0.085162 0.713469
0.082032 0.085112 0.713056
0.083210 0.085083 0.712814
0.084408 0.085076 0.712754
0.085607 0.085070 0.712705
0.086813 0.085072 0.712717
0.088025 0.085079 0.712774
0.089231 0.085079 0.712779
0.090429 0.085074 0.712732
0.091628 0.085067 0.712680
0.092817 0.085053 0.712559
0.094005 0.085038 0.712432
0.095192 0.085022 0.712302
0.096366 0.084996 0.712079
0.097544 0.084973 0.711893
0.098729 0.084958 0.711761
0.100601 0.085526 0.716525
0.102574 0.086166 0.721882
-0.034496 0.088383 0.730089
-0.033148 0.088080 0.727584
-0.031815 0.087795 0.725229
-0.030508 0.087563 0.723312
-0.029280 0.087549 0.723200
-0.028062 0.087562 0.723307
-0.026850 0.087597 0.723599
-0.025634 0.087622 0.723804
-0.024415 0.087640 0.723952
-0.023198 0.087667 0.724171
-0.021977 0.087679 0.724273
-0.020748 0.087660 0.724118
-0.019524 0.087660 0.724119
-0.018300 0.087658 0.724100
-0.017071 0.087635 0.723910
-0.015842 0.087605 0.723663
-0.014617 0.087595 0.723582
-0.013391 0.087581 0.723465
-0.012168 0.087576 0.723421
-0.010941 0.087549 0.723200
-0.009715 0.087518 0.722945
-0.008492 0.087506 0.722842
-0.007269 0.087499 0.722784
-0.006047 0.087497 0.722772
-0.004828 0.087541 0.723136
-0.003607 0.087583 0.723484
-0.002384 0.087598 0.723604
-0.001161 0.087619 0.723779
0.000062 0.087647 0.724013
0.001286 0.087657 0.724089
0.002511 0.087673 0.724223
0.003736 0.087680 0.724281
0.004960 0.087680 0.724282
0.006185 0.087686 0.724331
0.007411 0.087708 0.724511
0.008639 0.087738 0.724764
0.009870 0.087790 0.725189
0.011107 0.087877 0.725905
0.012348 0.087974 0.726707
0.013589 0.088053 0.727366
0.014830 0.088124 0.727946
0.016074 0.088196 0.728544
0.017314 0.088241 0.728912
0.018555 0.088281 0.729248
0.019795 0.088314 0.729520
0.021036 0.088343 0.729762
0.022272 0.088355 0.729859
0.023519 0.088405 0.730268
0.024764 0.088439 0.730553
0.026020 0.088511 0.731147
0.027268 0.088551 0.731474
0.028528 0.088622 0.732061
0.029790 0.088696 0.732675
0.031060 0.088786 0.733419
0.032354 0.088933 0.734635
0.033633 0.089034 0.735463
0.034922 0.089150 0.736424
0.036165 0.089145 0.736380
0.037396 0.089111 0.736103
0.038591 0.088998 0.735167
0.039795 0.088909 0.734437
0.040960 0.088745 0.733082
0.042150 0.088642 0.732225
0.043356 0.088576 0.731684
0.044549 0.088488 0.730959
0.045758 0.088438 0.730540
0.046976 0.088406 0.730277
0.048199 0.088384 0.730093
0.049411 0.088343 0.729761
0.050636 0.088329 0.729645
0.051848 0.088292 0.729337
0.053040 0.088224 0.728778
0.054233 0.088160 0.728250
0.055416 0.088084 0.727615
0.056571 0.087966 0.726647
0.057719 0.087845 0.725649
0.058876 0.087741 0.724781
0.060018 0.087620 0.723782
0.061152 0.087491 0.722718
0.062301 0.087389 0.721874
0.063460 0.087304 0.721175
0.064592 0.087187 0.720212
0.065733 0.087086 0.719374
0.066892 0.087011 0.718757
0.068066 0.086959 0.718323
0.069220 0.086882 0.717693
0.070392 0.086832 0.717272
0.071544 0.086758 0.716668
0.072699 0.086691 0.716111
0.073847 0.086618 0.715507
0.075019 0.086574 0.715142
0.076191 0.086532 0.714800
0.077374 0.086504 0.714565
0.078537 0.086454 0.714157
0.079702 0.086409 0.713781
0.080867 0.086364 0.713412
0.082039 0.086328 0.713113
0.083225 0.086308 0.712943
0.084436 0.086314 0.712994
0.085636 0.086308 0.712948
0.086835 0.086302 0.712900
0.088047 0.086309 0.712952
0.089253 0.086309 0.712955
0.090459 0.086310 0.712963
0.091672 0.086317 0.713022
0.092869 0.086310 0.712963
0.094059 0.086296 0.712846
0.095248 0.086281 0.712723
0.096414 0.086246 0.712440
0.097586 0.086217 0.712198
0.099062 0.086455 0.714159
0.101301 0.087344 0.721507
0.103701 0.088350 0.729818
-0.032088 0.089789 0.731464
-0.030680 0.089291 0.727402
-0.029367 0.089039 0.725347
-0.028075 0.088831 0.723658
-0.026863 0.088868 0.723961
-0.025647 0.088895 0.724179
-0.024430 0.088920 0.724380
-0.023214 0.088954 0.724661
-0.021991 0.088961 0.724715
-0.020762 0.088948 0.724612
-0.019537 0.088948 0.724612
-0.018311 0.088940 0.724542
-0.017081 0.088917 0.724355
-0.015851 0.088886 0.724102
-0.014624 0.088869 0.723963
-0.013397 0.088846 0.723780
-0.012172 0.088832 0.723662
-0.010943 0.088789 0.723317
-0.009716 0.088750 0.722999
-0.008491 0.088724 0.722784
-0.007268 0.088709 0.722661
-0.006046 0.088699 0.722581
-0.004826 0.088730 0.722830
-0.003605 0.088759 0.723067
-0.002383 0.088767 0.723135
-0.001160 0.088782 0.723254
0.000062 0.088810 0.723484
0.001286 0.088825 0.723609
0.002509 0.088847 0.723789
0.003734 0.088862 0.723905
0.004958 0.088868 0.723956
0.006182 0.088875 0.724013
0.007407 0.088890 0.724140
0.008633 0.088908 0.724285
0.009862 0.088946 0.724592
0.011095 0.089011 0.725126
0.012330 0.089073 0.725623
0.013565 0.089128 0.726078
0.014801 0.089181 0.726510
0.016038 0.089233 0.726928
0.017275 0.089272 0.727245
0.018513 0.089312 0.727572
0.019748 0.089337 0.727780
0.020985 0.089366 0.728011
0.022219 0.089378 0.728116
0.023456 0.089400 0.728293
0.024692 0.089418 0.728440
0.025935 0.089458 0.728760
0.027167 0.089459 0.728772
0.028407 0.089483 0.728964
0.029655 0.089530 0.729353
0.030905 0.089580 0.729760
0.032183 0.089704 0.730770
0.033451 0.089790 0.731470
0.034733 0.089909 0.732441
0.035974 0.089915 0.732485
0.037212 0.089915 0.732485
0.038415 0.089831 0.731802
0.039631 0.089785 0.731427
0.040816 0.089671 0.730498
0.042022 0.089609 0.729991
0.043240 0.089576 0.729725
0.044445 0.089519 0.729258
0.045659 0.089481 0.728951
0.046878 0.089455 0.728739
0.048093 0.089424 0.728488
0.049297 0.089375 0.728084
0.050511 0.089345 0.727845
0.051711 0.089291 0.727407
0.052891 0.089208 0.726730
0.054076 0.089137 0.726146
0.055252 0.089052 0.725459
0.056408 0.088941 0.724555
0.057554 0.088820 0.723569
0.058709 0.088717 0.722725
0.059863 0.088616 0.721907
0.061014 0.088515 0.721084
0.062181 0.088443 0.720492
0.063360 0.088388 0.720045
0.064517 0.088306 0.719378
0.065673 0.088224 0.718714
0.066842 0.088164 0.718221
0.068017 0.088113 0.717804
0.069180 0.088049 0.717286
0.070357 0.088004 0.716922
0.071509 0.087930 0.716318
0.072663 0.087862 0.715761
0.073822 0.087801 0.715263
0.074994 0.087757 0.714906
0.076172 0.087722 0.714623
0.077362 0.087701 0.714454
0.078538 0.087666 0.714162
0.079711 0.087628 0.713855
0.080888 0.087596 0.713597
0.082068 0.087568 0.713365
0.083261 0.087554 0.713257
0.084474 0.087562 0.713316
0.085680 0.087562 0.713320
0.086879 0.087555 0.713263
0.088091 0.087560 0.713306
0.089296 0.087560 0.713300
0.090502 0.087560 0.713305
0.091716 0.087568 0.713369
0.092923 0.087569 0.713372
0.094121 0.087561 0.713311
0.095318 0.087553 0.713248
0.096762 0.087770 0.715009
0.098232 0.088004 0.716916
0.100046 0.088536 0.721254
0.102642 0.089740 0.731062
-0.029628 0.091071 0.731799
-0.028240 0.090585 0.727893
-0.026942 0.090358 0.726069
-0.025654 0.090146 0.724364
-0.024438 0.090178 0.724622
-0.023222 0.090213 0.724907
-0.021998 0.090220 0.724961
-0.020771 0.090214 0.724913
-0.019546 0.090214 0.724913
-0.018319 0.090206 0.724848
-0.017090 0.090191 0.724725
-0.015861 0.090168 0.724542
-0.014633 0.090151 0.724409
-0.013404 0.090120 0.724160
-0.012177 0.090097 0.723968
-0.010946 0.090038 0.723495
-0.009717 0.089983 0.723057
-0.008490 0.089942 0.722724
-0.007267 0.089918 0.722533
-0.006044 0.089898 0.722376
-0.004824 0.089921 0.722559
-0.003603 0.089944 0.722739
-0.002382 0.089960 0.722871
-0.001160 0.089976 0.722997
0.000062 0.090005 0.723230
0.001285 0.090021 0.723357
0.002509 0.090043 0.723535
0.003732 0.090051 0.723602
0.004956 0.090058 0.723658
0.006180 0.090065 0.723715
0.007404 0.090080 0.723834
0.008630 0.090097 0.723968
0.009857 0.090128 0.724218
0.011087 0.090174 0.724587
0.012316 0.090205 0.724844
0.013546 0.090236 0.725092
0.014777 0.090265 0.725326
0.016008 0.090294 0.725554
0.017240 0.090324 0.725797
0.018475 0.090363 0.726112
0.019707 0.090382 0.726262
0.020940 0.090404 0.726438
0.022171 0.090417 0.726542
0.023400 0.090418 0.726548
0.024628 0.090419 0.726559
0.025858 0.090426 0.726613
0.027082 0.090410 0.726489
0.028305 0.090392 0.726341
0.029540 0.090416 0.726538
0.030772 0.090426 0.726613
0.032033 0.090517 0.727345
0.033281 0.090568 0.727754
0.034551 0.090673 0.728602
0.035791 0.090692 0.728754
0.037031 0.090713 0.728924
0.038245 0.090669 0.728572
0.039476 0.090668 0.728557
0.040685 0.090618 0.728159
0.041910 0.090606 0.728058
0.043138 0.090599 0.728008
0.044355 0.090571 0.727777
0.045569 0.090539 0.727522
0.046782 0.090506 0.727255
0.047990 0.090465 0.726932
0.049191 0.090413 0.726510
0.050392 0.090365 0.726128
0.051584 0.090303 0.725626
0.052757 0.090211 0.724887
0.053936 0.090133 0.724263
0.055109 0.090050 0.723592
0.056272 0.089953 0.722818
0.057427 0.089848 0.721969
0.058590 0.089761 0.721268
0.059754 0.089676 0.720592
0.060918 0.089596 0.719950
0.062094 0.089538 0.719483
0.063282 0.089499 0.719164
0.064450 0.089432 0.718627
0.065616 0.089364 0.718085
0.066794 0.089317 0.717706
0.067973 0.089272 0.717345
0.069142 0.089216 0.716888
0.070324 0.089177 0.716581
0.071480 0.089109 0.716032
0.072635 0.089040 0.715478
0.073804 0.088992 0.715093
0.074988 0.088962 0.714853
0.076179 0.088942 0.714690
0.077388 0.088942 0.714691
0.078582 0.088926 0.714565
0.079763 0.088896 0.714320
0.080954 0.088878 0.714180
0.082148 0.088864 0.714064
0.083351 0.088859 0.714024
0.084560 0.088861 0.714037
0.085760 0.088854 0.713980
0.086938 0.088824 0.713745
0.088134 0.088814 0.713661
0.089326 0.088799 0.713545
0.090541 0.088808 0.713612
0.091763 0.088823 0.713737
0.093230 0.089072 0.715733
0.094706 0.089323 0.717751
0.096203 0.089587 0.719871
0.097970 0.090092 0.723930
-0.029814 0.092891 0.736389
-0.028329 0.092109 0.730189
-0.026949 0.091615 0.726280
-0.025658 0.091388 0.724479
-0.024444 0.091428 0.724794
-0.023227 0.091464 0.725080
-0.022002 0.091464 0.725080
-0.020776 0.091464 0.725080
-0.019550 0.091464 0.725080
-0.018323 0.091457 0.725025
-0.017097 0.091457 0.725022
-0.015869 0.091442 0.724907
-0.014641 0.091427 0.724785
-0.013411 0.091396 0.724542
-0.012183 0.091371 0.724340
-0.010950 0.091302 0.723796
-0.009721 0.091246 0.723349
-0.008492 0.091189 0.722897
-0.007267 0.091149 0.722583
-0.006043 0.091113 0.722298
-0.004823 0.091120 0.722356
-0.003602 0.091129 0.722421
-0.002381 0.091145 0.722547
-0.001160 0.091161 0.722676
0.000062 0.091184 0.722862
0.001285 0.091208 0.723049
0.002508 0.091232 0.723243
0.003731 0.091248 0.723371
0.004955 0.091263 0.723489
0.006179 0.091277 0.723598
0.007403 0.091284 0.723656
0.008627 0.091299 0.723775
0.009853 0.091323 0.723958
0.011081 0.091353 0.724204
0.012307 0.091365 0.724291
0.013533 0.091379 0.724405
0.014760 0.091391 0.724500
0.015986 0.091397 0.724547
0.017214 0.091412 0.724671
0.018445 0.091444 0.724917
0.019671 0.091447 0.724945
0.020900 0.091462 0.725060
0.022129 0.091475 0.725165
0.023350 0.091454 0.725003
0.024573 0.091446 0.724941
0.025796 0.091436 0.724859
0.027012 0.091405 0.724613
0.028230 0.091382 0.724428
0.029457 0.091388 0.724474
0.030677 0.091373 0.724360
0.031918 0.091421 0.724743
0.033146 0.091430 0.724807
0.034390 0.091480 0.725208
0.035624 0.091500 0.725366
0.036860 0.091525 0.725563
0.038089 0.091529 0.725597
0.039334 0.091574 0.725948
0.040564 0.091579 0.725990
0.041807 0.091612 0.726255
0.043042 0.091629 0.726388
0.044260 0.091608 0.726219
0.045472 0.091575 0.725962
0.046678 0.091534 0.725635
0.047880 0.091487 0.725262
0.049081 0.091440 0.724893
0.050280 0.091392 0.724507
0.051469 0.091328 0.724004
0.052647 0.091249 0.723375
0.053828 0.091178 0.722814
0.055000 0.091095 0.722153
0.056170 0.091013 0.721503
0.057337 0.090929 0.720839
0.058510 0.090858 0.720277
0.059678 0.090782 0.719674
0.060854 0.090723 0.719203
0.062040 0.090678 0.718851
0.063234 0.090647 0.718607
0.064407 0.090589 0.718143
0.065582 0.090535 0.717713
0.066765 0.090494 0.717393
0.067944 0.090449 0.717033
0.069117 0.090399 0.716634
0.070304 0.090367 0.716380
0.071473 0.090313 0.715955
0.072639 0.090258 0.715521
0.073822 0.090226 0.715262
0.075013 0.090204 0.715089
0.076212 0.090192 0.714996
0.077427 0.090199 0.715050
0.078629 0.090191 0.714990
0.079818 0.090169 0.714811
0.081018 0.090160 0.714743
0.082220 0.090153 0.714686
0.083423 0.090147 0.714643
0.084626 0.090141 0.714596
0.085819 0.090126 0.714475
0.086984 0.090081 0.714118
0.088166 0.090056 0.713918
0.089343 0.090026 0.713680
0.090552 0.090028 0.713696
0.092001 0.090266 0.715584
0.093751 0.090789 0.719731
0.095536 0.091333 0.724039
0.097350 0.091890 0.728455
-0.028485 0.093861 0.734214
-0.027069 0.093258 0.729498
-0.025713 0.092814 0.726027
-0.024446 0.092663 0.724848
-0.023227 0.092693 0.725080
-0.022003 0.092700 0.725134
-0.020779 0.092708 0.725193
-0.019555 0.092715 0.725254
-0.018330 0.092723 0.725312
-0.017107 0.092737 0.725426
-0.015879 0.092731 0.725378
-0.014652 0.092724 0.725323
-0.013421 0.092694 0.725086
-0.012191 0.092661 0.724829
-0.010957 0.092584 0.724224
-0.009726 0.092519 0.723718
-0.008495 0.092447 0.723153
-0.007269 0.092391 0.722720
-0.006043 0.092339 0.722308
-0.004822 0.092330 0.722238
-0.003601 0.092322 0.722179
-0.002380 0.092331 0.722245
-0.001159 0.092347 0.722372
0.000062 0.092371 0.722561
0.001284 0.092396 0.722752
0.002507 0.092427 0.722999
0.003730 0.092451 0.723190
0.004954 0.092475 0.723372
0.006178 0.092490 0.723489
0.007401 0.092497 0.723543
0.008625 0.092504 0.723598
0.009850 0.092519 0.723715
0.011075 0.092528 0.723786
0.012297 0.092522 0.723737
0.013521 0.092520 0.723725
0.014743 0.092511 0.723654
0.015964 0.092496 0.723538
0.017188 0.092504 0.723599
0.018416 0.092527 0.723781
0.019638 0.092522 0.723738
0.020865 0.092535 0.723845
0.022094 0.092556 0.724004
0.023311 0.092528 0.723785
0.024530 0.092512 0.723662
0.025750 0.092500 0.723570
0.026966 0.092476 0.723381
0.028185 0.092461 0.723265
0.029408 0.092464 0.723286
0.030622 0.092436 0.723067
0.031840 0.092425 0.722984
0.033061 0.092420 0.722946
0.034281 0.092414 0.722894
0.035513 0.092440 0.723097
0.036751 0.092479 0.723409
0.037993 0.092525 0.723767
0.039233 0.092564 0.724069
0.040474 0.092604 0.724382
0.041714 0.092637 0.724643
0.042944 0.092648 0.724726
0.044162 0.092632 0.724603
0.045373 0.092605 0.724392
0.046581 0.092572 0.724132
0.047782 0.092527 0.723780
0.048989 0.092496 0.723537
0.050191 0.092456 0.723227
0.051378 0.092393 0.722731
0.052560 0.092322 0.722174
0.053747 0.092264 0.721722
0.054922 0.092188 0.721126
0.056099 0.092119 0.720589
0.057278 0.092055 0.720092
0.058459 0.091999 0.719653
0.059636 0.091937 0.719169
0.060821 0.091892 0.718813
0.062011 0.091854 0.718513
0.063204 0.091823 0.718273
0.064382 0.091771 0.717866
0.065558 0.091718 0.717451
0.066745 0.091683 0.717181
0.067924 0.091638 0.716823
0.069103 0.091594 0.716481
0.070291 0.091563 0.716242
0.071471 0.091525 0.715939
0.072645 0.091478 0.715575
0.073841 0.091462 0.715446
0.075039 0.091448 0.715339
0.076245 0.091444 0.715308
0.077461 0.091452 0.715371
0.078671 0.091452 0.715371
0.079867 0.091437 0.715257
0.081076 0.091437 0.715251
0.082279 0.091430 0.715198
0.083482 0.091423 0.715147
0.084677 0.091408 0.715029
0.085863 0.091384 0.714842
0.087014 0.091323 0.714365
0.088182 0.091282 0.714043
0.089568 0.091466 0.715477
0.091010 0.091699 0.717305
0.092724 0.092198 0.721209
0.094773 0.093013 0.727579
-0.027311 0.095340 0.736023
-0.025883 0.094668 0.730835
-0.024550 0.094293 0.727943
-0.023275 0.094116 0.726574
-0.022005 0.093938 0.725199
-0.020783 0.093953 0.725317
-0.019560 0.093969 0.725440
-0.018335 0.093978 0.725511
-0.017114 0.094008 0.725744
-0.015890 0.094024 0.725866
-0.014663 0.094026 0.725881
-0.013432 0.093995 0.725646
-0.012200 0.093962 0.725384
-0.010964 0.093876 0.724721
-0.009731 0.093796 0.724105
-0.008499 0.093716 0.723485
-0.007271 0.093652 0.722990
-0.006045 0.093589 0.722504
-0.004822 0.093563 0.722308
-0.003600 0.093539 0.722125
-0.002379 0.093533 0.722071
-0.001159 0.093541 0.722136
0.000062 0.093557 0.722258
0.001284 0.093587 0.722495
0.002506 0.093627 0.722798
0.003729 0.093660 0.723058
0.004953 0.093692 0.723306
0.006178 0.093716 0.723485
0.007401 0.093723 0.723543
0.008625 0.093723 0.723543
0.009848 0.093730 0.723598
0.011071 0.093723 0.723544
0.012291 0.093700 0.723367
0.013512 0.093683 0.723231
0.014731 0.093665 0.723093
0.015950 0.093644 0.722931
0.017173 0.093645 0.722939
0.018398 0.093660 0.723057
0.019619 0.093653 0.723003
0.020842 0.093659 0.723050
0.022069 0.093680 0.723206
0.023287 0.093660 0.723054
0.024505 0.093645 0.722939
0.025725 0.093633 0.722849
0.026941 0.093615 0.722709
0.028159 0.093602 0.722603
0.029384 0.093611 0.722679
0.030601 0.093599 0.722586
0.031820 0.093589 0.722509
0.033040 0.093585 0.722479
0.034261 0.093585 0.722473
0.035489 0.093602 0.722607
0.036720 0.093627 0.722798
0.037954 0.093656 0.723027
0.039182 0.093671 0.723142
0.040409 0.093681 0.723217
0.041636 0.093691 0.723296
0.042853 0.093678 0.723195
0.044064 0.093653 0.723004
0.045277 0.093633 0.722847
0.046486 0.093608 0.722656
0.047693 0.093580 0.722438
0.048911 0.093573 0.722385
0.050124 0.093557 0.722264
0.051319 0.093511 0.721903
0.052505 0.093448 0.721420
0.053691 0.093391 0.720975
0.054869 0.093320 0.720430
0.056049 0.093257 0.719943
0.057231 0.093201 0.719513
0.058422 0.093160 0.719196
0.059608 0.093113 0.718835
0.060798 0.093075 0.718535
0.061986 0.093034 0.718226
0.063178 0.093002 0.717979
0.064360 0.092956 0.717624
0.065541 0.092910 0.717266
0.066734 0.092883 0.717059
0.067918 0.092845 0.716762
0.069102 0.092808 0.716474
0.070290 0.092777 0.716240
0.071477 0.092746 0.716001
0.072658 0.092708 0.715709
0.073861 0.092700 0.715644
0.075072 0.092701 0.715651
0.076284 0.092703 0.715670
0.077500 0.092712 0.715733
0.078716 0.092718 0.715785
0.079920 0.092711 0.715728
0.081124 0.092704 0.715674
0.082321 0.092690 0.715564
0.083517 0.092674 0.715444
0.084697 0.092643 0.715202
0.085877 0.092610 0.714952
0.087027 0.092548 0.714475
0.088396 0.092718 0.715779
0.090027 0.093153 0.719145
0.091735 0.093656 0.723024
0.093726 0.094430 0.728998
0.096042 0.095507 0.737316
0.096870 0.093852 0.734147
-0.024799 0.096497 0.735333
-0.023501 0.096271 0.733610
-0.022175 0.095902 0.730800
-0.020903 0.095733 0.729509
-0.019637 0.095575 0.728310
-0.018375 0.095415 0.727090
-0.017125 0.095297 0.726192
-0.015900 0.095315 0.726329
-0.014673 0.095317 0.726342
-0.013441 0.095293 0.726159
-0.012209 0.095258 0.725891
-0.010972 0.095170 0.725220
-0.009738 0.095095 0.724654
-0.008506 0.095014 0.724033
-0.007276 0.094941 0.723476
-0.006049 0.094869 0.722929
-0.004825 0.094834 0.722661
-0.003602 0.094802 0.722416
-0.002380 0.094793 0.722352
-0.001159 0.094801 0.722410
0.000062 0.094802 0.722416
0.001284 0.094824 0.722587
0.002506 0.094856 0.722828
0.003729 0.094883 0.723034
0.004953 0.094911 0.723244
0.006178 0.094942 0.723483
0.007401 0.094950 0.723543
0.008625 0.094950 0.723543
0.009848 0.094950 0.723543
0.011069 0.094934 0.723425
0.012289 0.094909 0.723234
0.013509 0.094889 0.723083
0.014727 0.094864 0.722892
0.015947 0.094849 0.722773
0.017169 0.094849 0.722778
0.018392 0.094857 0.722838
0.019613 0.094850 0.722784
0.020836 0.094856 0.722832
0.022061 0.094871 0.722947
0.023279 0.094852 0.722798
0.024497 0.094838 0.722690
0.025714 0.094820 0.722551
0.026930 0.094801 0.722412
0.028147 0.094787 0.722302
0.029371 0.094796 0.722372
0.030591 0.094791 0.722335
0.031811 0.094789 0.722318
0.033034 0.094793 0.722352
0.034255 0.094794 0.722356
0.035480 0.094804 0.722436
0.036705 0.094814 0.722511
0.037932 0.094827 0.722611
0.039147 0.094812 0.722491
0.040362 0.094795 0.722367
0.041576 0.094780 0.722250
0.042780 0.094742 0.721959
0.043981 0.094701 0.721649
0.045192 0.094681 0.721496
0.046404 0.094665 0.721377
0.047621 0.094661 0.721345
0.048850 0.094678 0.721476
0.050074 0.094686 0.721535
0.051281 0.094663 0.721357
0.052478 0.094623 0.721051
0.053669 0.094573 0.720675
0.054850 0.094509 0.720189
0.056030 0.094446 0.719704
0.057217 0.094397 0.719332
0.058409 0.094358 0.719031
0.059596 0.094313 0.718690
0.060786 0.094274 0.718394
0.061974 0.094233 0.718083
0.063164 0.094198 0.717818
0.064346 0.094152 0.717466
0.065532 0.094113 0.717169
0.066732 0.094096 0.717035
0.067926 0.094071 0.716846
0.069116 0.094041 0.716620
0.070309 0.094017 0.716435
0.071507 0.094000 0.716304
0.072700 0.093976 0.716122
0.073904 0.093968 0.716061
0.075121 0.093976 0.716122
0.076339 0.093984 0.716187
0.077556 0.093992 0.716248
0.078773 0.093999 0.716297
0.079977 0.093991 0.716238
0.081175 0.093976 0.716123
0.082365 0.093953 0.715948
0.083724 0.094120 0.717220
0.085079 0.094278 0.718426
0.086450 0.094449 0.719730
0.087808 0.094601 0.720885
0.089392 0.094990 0.723847
0.091085 0.095482 0.727596
0.092876 0.096061 0.732012
0.094960 0.096925 0.738599
-0.025059 0.098767 0.743036
-0.023740 0.098509 0.741091
-0.022396 0.098108 0.738076
-0.021105 0.097907 0.736565
-0.019793 0.097577 0.734079
-0.018486 0.097232 0.731486
-0.017198 0.096941 0.729294
-0.015941 0.096797 0.728212
-0.014689 0.096654 0.727141
-0.013456 0.096629 0.726949
-0.012221 0.096584 0.726614
-0.010982 0.096487 0.725885
-0.009747 0.096412 0.725314
-0.008513 0.096328 0.724688
-0.007282 0.096240 0.724022
-0.006053 0.096159 0.723416
-0.004827 0.096116 0.723088
-0.003604 0.096075 0.722784
-0.002381 0.096052 0.722611
-0.001159 0.096052 0.722611
0.000062 0.096037 0.722499
0.001284 0.096051 0.722603
0.002506 0.096075 0.722782
0.003729 0.096103 0.722989
0.004953 0.096130 0.723194
0.006178 0.096169 0.723485
0.007401 0.096176 0.723543
0.008625 0.096176 0.723543
0.009848 0.096176 0.723543
0.011069 0.096161 0.723425
0.012289 0.096136 0.723238
0.013509 0.096116 0.723089
0.014727 0.096090 0.722896
0.015947 0.096074 0.722773
0.017169 0.096074 0.722774
0.018392 0.096082 0.722832
0.019613 0.096075 0.722784
0.020836 0.096083 0.722838
0.022062 0.096098 0.722955
0.023281 0.096085 0.722858
0.024497 0.096064 0.722698
0.025714 0.096045 0.722553
0.026930 0.096026 0.722410
0.028147 0.096010 0.722292
0.029366 0.096005 0.722254
0.030587 0.096006 0.722259
0.031810 0.096011 0.722302
0.033034 0.096018 0.722350
0.034256 0.096020 0.722368
0.035481 0.096031 0.722450
0.036703 0.096033 0.722463
0.037923 0.096031 0.722447
0.039131 0.095997 0.722194
0.040335 0.095956 0.721883
0.041540 0.095921 0.721620
0.042735 0.095864 0.721194
0.043931 0.095814 0.720820
0.045141 0.095795 0.720676
0.046356 0.095789 0.720628
0.047580 0.095800 0.720714
0.048819 0.095840 0.721017
0.050046 0.095858 0.721145
0.051262 0.095850 0.721091
0.052467 0.095825 0.720903
0.053663 0.095784 0.720592
0.054844 0.095720 0.720110
0.056028 0.095663 0.719684
0.057220 0.095622 0.719374
0.058417 0.095590 0.719136
0.059610 0.095554 0.718860
0.060805 0.095522 0.718622
0.061998 0.095488 0.718364
0.063184 0.095445 0.718046
0.064366 0.095399 0.717693
0.065553 0.095360 0.717402
0.066755 0.095344 0.717280
0.067951 0.095321 0.717108
0.069146 0.095298 0.716935
0.070346 0.095281 0.716808
0.071550 0.095270 0.716726
0.072749 0.095253 0.716601
0.073954 0.095246 0.716542
0.075172 0.095253 0.716601
0.076384 0.095255 0.716609
0.077596 0.095256 0.716618
0.078807 0.095255 0.716609
0.080011 0.095246 0.716544
0.081208 0.095230 0.716421
0.082553 0.095384 0.717585
0.084097 0.095760 0.720413
0.085653 0.096140 0.723272
0.087232 0.096534 0.726234
0.088792 0.096896 0.728962
0.090434 0.097338 0.732286
0.092176 0.097873 0.736307
-0.018657 0.099382 0.738250
-0.017327 0.098914 0.734768
-0.016033 0.098594 0.732390
-0.014747 0.098275 0.730021
-0.013487 0.098090 0.728650
-0.012231 0.097892 0.727177
-0.010990 0.097787 0.726397
-0.009753 0.097702 0.725768
-0.008519 0.097617 0.725135
-0.007286 0.097527 0.724466
-0.006057 0.097453 0.723914
-0.004831 0.097417 0.723650
-0.003606 0.097376 0.723347
-0.002383 0.097346 0.723118
-0.001160 0.097337 0.723057
0.000062 0.097314 0.722881
0.001284 0.097312 0.722870
0.002507 0.097327 0.722976
0.003730 0.097345 0.723115
0.004953 0.097364 0.723254
0.006178 0.097395 0.723489
0.007401 0.097403 0.723543
0.008625 0.097403 0.723543
0.009848 0.097403 0.723543
0.011069 0.097388 0.723431
0.012290 0.097371 0.723308
0.013511 0.097354 0.723180
0.014729 0.097329 0.722997
0.015949 0.097313 0.722877
0.017171 0.097312 0.722867
0.018393 0.097313 0.722877
0.019615 0.097314 0.722885
0.020839 0.097322 0.722945
0.022065 0.097337 0.723057
0.023286 0.097331 0.723007
0.024504 0.097314 0.722886
0.025721 0.097295 0.722739
0.026939 0.097283 0.722651
0.028156 0.097267 0.722533
0.029376 0.097261 0.722489
0.030595 0.097254 0.722436
0.031818 0.097259 0.722479
0.033042 0.097267 0.722533
0.034267 0.097277 0.722611
0.035491 0.097282 0.722645
0.036712 0.097281 0.722637
0.037923 0.097255 0.722445
0.039121 0.097197 0.722014
0.040315 0.097131 0.721527
0.041512 0.097079 0.721139
0.042702 0.097014 0.720652
0.043901 0.096970 0.720329
0.045114 0.096959 0.720249
0.046332 0.096960 0.720256
0.047562 0.096987 0.720453
0.048806 0.097037 0.720826
0.050037 0.097063 0.721017
0.051257 0.097064 0.721026
0.052467 0.097047 0.720897
0.053663 0.097005 0.720589
0.054844 0.096941 0.720115
0.056029 0.096884 0.719687
0.057220 0.096842 0.719375
0.058417 0.096809 0.719136
0.059614 0.096779 0.718912
0.060815 0.096755 0.718733
0.062013 0.096729 0.718536
0.063201 0.096688 0.718231
