1697
0.048570 -0.143724 0.896389
0.050055 -0.143639 0.895859
0.051533 -0.143536 0.895217
0.053001 -0.143414 0.894453
0.054481 -0.143329 0.893922
0.055967 -0.143265 0.893527
0.057462 -0.143226 0.893281
0.058951 -0.143175 0.892964
0.060447 -0.143141 0.892754
0.061922 -0.143062 0.892261
0.063385 -0.142960 0.891624
0.064865 -0.142901 0.891255
0.066378 -0.142914 0.891333
0.067880 -0.142903 0.891269
0.069395 -0.142921 0.891382
0.070922 -0.142962 0.891633
0.072444 -0.142991 0.891817
0.073962 -0.143011 0.891940
0.075494 -0.143057 0.892228
0.077019 -0.143088 0.892421
0.078521 -0.143075 0.892340
0.080043 -0.143099 0.892488
0.081565 -0.143123 0.892639
0.083110 -0.143183 0.893016
0.084666 -0.143262 0.893506
0.086240 -0.143368 0.894166
0.087823 -0.143484 0.894894
0.089418 -0.143617 0.895719
0.091019 -0.143754 0.896573
0.092623 -0.143891 0.897430
0.094246 -0.144053 0.898440
0.095855 -0.144187 0.899279
0.097475 -0.144336 0.900205
0.099111 -0.144502 0.901243
0.100773 -0.144701 0.902480
0.102451 -0.144916 0.903822
0.104122 -0.145116 0.905068
0.105786 -0.145299 0.906210
0.107440 -0.145464 0.907242
0.109076 -0.145601 0.908092
0.110716 -0.145739 0.908957
0.112404 -0.145936 0.910182
0.114136 -0.146183 0.911726
0.115879 -0.146437 0.913312
0.117637 -0.146705 0.914980
0.119442 -0.147023 0.916964
0.121210 -0.147288 0.918613
0.122977 -0.147545 0.920216
0.124848 -0.147918 0.922546
0.126773 -0.148346 0.925213
0.128693 -0.148757 0.927776
0.130644 -0.149194 0.930504
0.132583 -0.149606 0.933076
0.134394 -0.149867 0.934698
0.136174 -0.150088 0.936078
-0.092078 -0.160162 1.009590
-0.090360 -0.160142 1.009460
-0.088611 -0.160067 1.008980
-0.086842 -0.159950 1.008250
-0.085044 -0.159774 1.007140
-0.083226 -0.159552 1.005740
-0.081404 -0.159314 1.004240
-0.079595 -0.159092 1.002840
-0.077807 -0.158903 1.001650
-0.076067 -0.158806 1.001040
-0.074320 -0.158688 1.000290
-0.072599 -0.158623 0.999882
-0.070876 -0.158550 0.999422
-0.069137 -0.158438 0.998714
-0.067402 -0.158326 0.998013
-0.065684 -0.158252 0.997542
-0.063970 -0.158183 0.997111
-0.062268 -0.158143 0.996859
-0.060607 -0.158206 0.997254
-0.058929 -0.158228 0.997394
-0.057285 -0.158343 0.998116
-0.055631 -0.158440 0.998730
-0.053968 -0.158514 0.999194
-0.052290 -0.158547 0.999403
-0.050600 -0.158545 0.999390
-0.048894 -0.158493 0.999063
-0.006271 -0.149026 0.939385
-0.004675 -0.148751 0.937657
-0.003084 -0.148476 0.935922
-0.001498 -0.148093 0.933509
0.000080 -0.147700 0.931028
0.001650 -0.147353 0.928841
0.003212 -0.146976 0.926467
0.004766 -0.146583 0.923990
0.006312 -0.146216 0.921674
0.007853 -0.145898 0.919673
0.009392 -0.145649 0.918101
0.010934 -0.145525 0.917321
0.012473 -0.145380 0.916408
0.014012 -0.145273 0.915732
0.015541 -0.145102 0.914651
0.017062 -0.144884 0.913280
0.018576 -0.144652 0.911815
0.020087 -0.144436 0.910454
0.021597 -0.144239 0.909211
0.023112 -0.144100 0.908337
0.024634 -0.144022 0.907846
0.026154 -0.143938 0.907314
0.027682 -0.143909 0.907135
0.029196 -0.143811 0.906512
0.030708 -0.143718 0.905927
0.032203 -0.143552 0.904884
0.033683 -0.143343 0.903563
0.035158 -0.143129 0.902215
0.036647 -0.142985 0.901308
0.038131 -0.142839 0.900385
0.039626 -0.142741 0.899768
0.041130 -0.142682 0.899396
0.042628 -0.142606 0.898917
0.044119 -0.142514 0.898341
0.045610 -0.142425 0.897780
0.047103 -0.142353 0.897326
0.048606 -0.142311 0.897061
0.050104 -0.142258 0.896722
0.051594 -0.142187 0.896278
0.053071 -0.142084 0.895630
0.054548 -0.141987 0.895020
0.056030 -0.141909 0.894526
0.057513 -0.141837 0.894070
0.058990 -0.141754 0.893549
0.060479 -0.141704 0.893235
0.061955 -0.141627 0.892747
0.063419 -0.141525 0.892103
0.064900 -0.141465 0.891726
0.066418 -0.141489 0.891879
0.067928 -0.141493 0.891903
0.069452 -0.141526 0.892113
0.070988 -0.141582 0.892461
0.072519 -0.141625 0.892735
0.074037 -0.141642 0.892844
0.075570 -0.141686 0.893119
0.077095 -0.141714 0.893298
0.078598 -0.141701 0.893216
0.080114 -0.141712 0.893282
0.081632 -0.141724 0.893362
0.083176 -0.141783 0.893730
0.084734 -0.141861 0.894221
0.086310 -0.141968 0.894895
0.087904 -0.142098 0.895719
0.089510 -0.142243 0.896633
0.091104 -0.142366 0.897409
0.092701 -0.142489 0.898184
0.094316 -0.142635 0.899100
0.095923 -0.142765 0.899924
0.097555 -0.142927 0.900941
0.099204 -0.143109 0.902088
0.100878 -0.143319 0.903416
0.102566 -0.143546 0.904842
0.104239 -0.143743 0.906086
0.105884 -0.143896 0.907053
0.107528 -0.144045 0.907991
0.109154 -0.144165 0.908749
0.110784 -0.144287 0.909516
0.112473 -0.144481 0.910741
0.114207 -0.144728 0.912296
0.115964 -0.144996 0.913983
0.117725 -0.145263 0.915665
0.119544 -0.145592 0.917744
0.121317 -0.145859 0.919423
0.123085 -0.146113 0.921023
0.124969 -0.146496 0.923443
0.126917 -0.146944 0.926265
0.128840 -0.147352 0.928836
0.130809 -0.147803 0.931677
0.132778 -0.148243 0.934453
0.134608 -0.148518 0.936187
0.136395 -0.148741 0.937592
-0.093882 -0.158615 1.010630
-0.092188 -0.158640 1.010790
-0.090455 -0.158598 1.010520
-0.088686 -0.158489 1.009830
-0.086915 -0.158373 1.009090
-0.085096 -0.158164 1.007760
-0.083267 -0.157925 1.006240
-0.081445 -0.157691 1.004750
-0.079635 -0.157471 1.003340
-0.077836 -0.157263 1.002010
-0.076084 -0.157143 1.001250
-0.074327 -0.157007 1.000390
-0.072599 -0.156927 0.999874
-0.070876 -0.156855 0.999414
-0.069137 -0.156743 0.998702
-0.067408 -0.156648 0.998100
-0.065697 -0.156593 0.997749
-0.063991 -0.156546 0.997447
-0.062297 -0.156527 0.997327
-0.060642 -0.156606 0.997827
-0.058963 -0.156627 0.997964
-0.057317 -0.156740 0.998684
-0.055669 -0.156853 0.999406
-0.054012 -0.156947 1.000000
-0.052344 -0.157016 1.000440
-0.050664 -0.157050 1.000660
-0.048968 -0.157035 1.000570
-0.004685 -0.147469 0.939611
-0.003088 -0.147088 0.937186
-0.001499 -0.146668 0.934512
0.000080 -0.146228 0.931707
0.001651 -0.145852 0.929308
0.003213 -0.145465 0.926842
0.004768 -0.145075 0.924360
0.006314 -0.144713 0.922053
0.007856 -0.144399 0.920051
0.009395 -0.144139 0.918396
0.010937 -0.144002 0.917520
0.012476 -0.143870 0.916680
0.014014 -0.143748 0.915908
0.015544 -0.143578 0.914824
0.017067 -0.143376 0.913536
0.018583 -0.143161 0.912163
0.020096 -0.142951 0.910827
0.021608 -0.142771 0.909681
0.023124 -0.142635 0.908812
0.024647 -0.142558 0.908320
0.026167 -0.142474 0.907785
0.027696 -0.142444 0.907598
0.029213 -0.142358 0.907049
0.030726 -0.142267 0.906467
0.032222 -0.142102 0.905419
0.033703 -0.141894 0.904094
0.035179 -0.141682 0.902739
0.036661 -0.141513 0.901663
0.038146 -0.141367 0.900734
0.039642 -0.141271 0.900120
0.041147 -0.141214 0.899760
0.042642 -0.141128 0.899209
0.044137 -0.141049 0.898710
0.045632 -0.140974 0.898228
0.047131 -0.140916 0.897859
0.048640 -0.140889 0.897687
0.050153 -0.140876 0.897605
0.051655 -0.140835 0.897345
0.053140 -0.140750 0.896805
0.054616 -0.140647 0.896149
0.056095 -0.140555 0.895561
0.057567 -0.140454 0.894917
0.059033 -0.140342 0.894204
0.060517 -0.140278 0.893798
0.062000 -0.140215 0.893394
0.063472 -0.140129 0.892844
0.064961 -0.140085 0.892565
0.066487 -0.140121 0.892794
0.067999 -0.140127 0.892834
0.069531 -0.140173 0.893127
0.071070 -0.140231 0.893493
0.072602 -0.140272 0.893759
0.074114 -0.140275 0.893774
0.075640 -0.140301 0.893944
0.077151 -0.140301 0.893943
0.078655 -0.140288 0.893861
0.080166 -0.140287 0.893855
0.081692 -0.140314 0.894026
0.083246 -0.140385 0.894480
0.084805 -0.140464 0.894979
0.086382 -0.140568 0.895641
0.087985 -0.140710 0.896546
0.089585 -0.140842 0.897390
0.091172 -0.140950 0.898078
0.092769 -0.141071 0.898845
0.094374 -0.141198 0.899658
0.095983 -0.141328 0.900486
0.097627 -0.141504 0.901607
0.099289 -0.141701 0.902860
0.100966 -0.141913 0.904212
0.102654 -0.142134 0.905618
0.104317 -0.142313 0.906761
0.105951 -0.142450 0.907632
0.107587 -0.142584 0.908489
0.109213 -0.142701 0.909236
0.110863 -0.142847 0.910163
0.112565 -0.143054 0.911485
0.114301 -0.143300 0.913048
0.116060 -0.143565 0.914741
0.117832 -0.143841 0.916500
0.119645 -0.144158 0.918518
0.121420 -0.144423 0.920206
0.123192 -0.144677 0.921821
0.125088 -0.145068 0.924317
0.127038 -0.145513 0.927148
0.128977 -0.145933 0.929827
0.130965 -0.146397 0.932786
0.132954 -0.146853 0.935687
0.134787 -0.147127 0.937437
0.136578 -0.147350 0.938855
-0.092340 -0.157186 1.012460
-0.090593 -0.157124 1.012060
-0.088798 -0.156976 1.011110
-0.087016 -0.156845 1.010270
-0.085184 -0.156617 1.008800
-0.083345 -0.156366 1.007180
-0.081515 -0.156121 1.005600
-0.079702 -0.155902 1.004190
-0.077892 -0.155677 1.002740
-0.076121 -0.155522 1.001740
-0.074346 -0.155351 1.000640
-0.072607 -0.155251 0.999997
-0.070868 -0.155144 0.999309
-0.069128 -0.155030 0.998575
-0.067391 -0.154918 0.997854
-0.065689 -0.154883 0.997625
-0.063992 -0.154857 0.997462
-0.062314 -0.154879 0.997603
-0.060666 -0.154976 0.998228
-0.058999 -0.155029 0.998570
-0.057357 -0.155154 0.999373
-0.055713 -0.155283 1.000200
-0.054061 -0.155394 1.000920
-0.052399 -0.155482 1.001490
-0.050728 -0.155551 1.001930
-0.049041 -0.155571 1.002060
-0.006303 -0.146576 0.944123
-0.004694 -0.146169 0.941496
-0.003093 -0.145722 0.938623
-0.001501 -0.145276 0.935744
0.000080 -0.144802 0.932692
0.001652 -0.144380 0.929978
0.003215 -0.143967 0.927319
0.004770 -0.143568 0.924745
0.006317 -0.143209 0.922435
0.007859 -0.142899 0.920434
0.009398 -0.142631 0.918709
0.010939 -0.142480 0.917737
0.012480 -0.142361 0.916971
0.014017 -0.142227 0.916106
0.015548 -0.142060 0.915032
0.017074 -0.141890 0.913940
0.018593 -0.141694 0.912673
0.020109 -0.141501 0.911434
0.021625 -0.141337 0.910374
0.023142 -0.141202 0.909505
0.024664 -0.141112 0.908925
0.026182 -0.141012 0.908283
0.027706 -0.140955 0.907913
0.029222 -0.140865 0.907337
0.030736 -0.140773 0.906745
0.032232 -0.140612 0.905705
0.033717 -0.140421 0.904478
0.035197 -0.140225 0.903215
0.036680 -0.140058 0.902135
0.038166 -0.139913 0.901201
0.039662 -0.139815 0.900574
0.041168 -0.139759 0.900212
0.042663 -0.139674 0.899661
0.044160 -0.139598 0.899172
0.045660 -0.139535 0.898768
0.047160 -0.139478 0.898403
0.048669 -0.139451 0.898227
0.050183 -0.139437 0.898139
0.051691 -0.139409 0.897957
0.053182 -0.139339 0.897507
0.054671 -0.139266 0.897036
0.056156 -0.139190 0.896545
0.057631 -0.139090 0.895904
0.059097 -0.138976 0.895171
0.060577 -0.138901 0.894684
0.062057 -0.138827 0.894205
0.063531 -0.138745 0.893679
0.065028 -0.138717 0.893497
0.066551 -0.138743 0.893665
0.068071 -0.138761 0.893780
0.069612 -0.138821 0.894169
0.071147 -0.138867 0.894463
0.072674 -0.138895 0.894644
0.074193 -0.138906 0.894718
0.075704 -0.138905 0.894708
0.077202 -0.138878 0.894539
0.078714 -0.138878 0.894537
0.080233 -0.138890 0.894613
0.081763 -0.138918 0.894796
0.083318 -0.138990 0.895258
0.084878 -0.139066 0.895745
0.086456 -0.139168 0.896404
0.088052 -0.139295 0.897224
0.089643 -0.139412 0.897974
0.091231 -0.139518 0.898657
0.092826 -0.139633 0.899397
0.094432 -0.139758 0.900207
0.096052 -0.139901 0.901128
0.097710 -0.140094 0.902369
0.099376 -0.140293 0.903649
0.101064 -0.140515 0.905082
0.102742 -0.140719 0.906395
0.104394 -0.140880 0.907434
0.106019 -0.141001 0.908212
0.107654 -0.141132 0.909053
0.109271 -0.141235 0.909720
0.110934 -0.141394 0.910743
0.112650 -0.141617 0.912178
0.114389 -0.141861 0.913749
0.116149 -0.142124 0.915444
0.117942 -0.142420 0.917351
0.119756 -0.142734 0.919374
0.121546 -0.143011 0.921159
0.123321 -0.143264 0.922790
0.125243 -0.143680 0.925467
0.127188 -0.144111 0.928242
0.129135 -0.144534 0.930965
0.131102 -0.144968 0.933766
0.133115 -0.145443 0.936821
0.136164 -0.147025 0.947011
-0.090748 -0.155675 1.013800
-0.088773 -0.155219 1.010830
-0.086844 -0.154826 1.008270
-0.084846 -0.154291 1.004790
-0.082861 -0.153760 1.001330
-0.080912 -0.153275 0.998169
-0.079249 -0.153322 0.998477
-0.077468 -0.153140 0.997287
-0.075710 -0.152994 0.996339
-0.073938 -0.152813 0.995160
-0.072291 -0.152886 0.995634
-0.070542 -0.152745 0.994718
-0.068915 -0.152865 0.995499
-0.067282 -0.152979 0.996243
-0.065680 -0.153171 0.997492
-0.063992 -0.153165 0.997455
-0.062336 -0.153240 0.997942
-0.060695 -0.153358 0.998710
-0.059047 -0.153461 0.999380
-0.057409 -0.153601 1.000290
-0.055771 -0.153747 1.001240
-0.054118 -0.153858 1.001960
-0.052465 -0.153978 1.002740
-0.050798 -0.154064 1.003300
-0.049115 -0.154106 1.003580
-0.007914 -0.146857 0.945932
-0.009537 -0.145611 0.948261
-0.007924 -0.145432 0.947094
-0.006314 -0.145215 0.945682
-0.004702 -0.144826 0.943145
-0.003097 -0.144342 0.939997
-0.001503 -0.143884 0.937013
0.000080 -0.143377 0.933709
0.001653 -0.142900 0.930601
0.003217 -0.142462 0.927749
0.004772 -0.142064 0.925159
0.006320 -0.141707 0.922832
0.007863 -0.141400 0.920833
0.009402 -0.141135 0.919107
0.010943 -0.140972 0.918050
0.012484 -0.140852 0.917268
0.014020 -0.140706 0.916316
0.015552 -0.140545 0.915266
0.017082 -0.140406 0.914362
0.018605 -0.140229 0.913210
0.020123 -0.140053 0.912061
0.021642 -0.139904 0.911093
0.023160 -0.139767 0.910204
0.024680 -0.139663 0.909525
0.026196 -0.139550 0.908787
0.027715 -0.139462 0.908217
0.029231 -0.139371 0.907625
0.030746 -0.139280 0.907033
0.032243 -0.139125 0.906019
0.033732 -0.138951 0.904887
0.035217 -0.138773 0.903725
0.036701 -0.138607 0.902644
0.038187 -0.138463 0.901706
0.039683 -0.138363 0.901058
0.041193 -0.138319 0.900771
0.042690 -0.138234 0.900220
0.044188 -0.138160 0.899736
0.045688 -0.138098 0.899335
0.047190 -0.138043 0.898971
0.048696 -0.138004 0.898721
0.050209 -0.137988 0.898618
0.051718 -0.137959 0.898424
0.053209 -0.137888 0.897967
0.054699 -0.137816 0.897498
0.056186 -0.137743 0.897021
0.057667 -0.137657 0.896463
0.059134 -0.137546 0.895739
0.060616 -0.137472 0.895254
0.062102 -0.137411 0.894859
0.063584 -0.137346 0.894434
0.065085 -0.137321 0.894269
0.066610 -0.137348 0.894446
0.068142 -0.137389 0.894718
0.069685 -0.137449 0.895106
0.071216 -0.137482 0.895321
0.072744 -0.137510 0.895506
0.074270 -0.137532 0.895646
0.075775 -0.137517 0.895547
0.077275 -0.137491 0.895379
0.078788 -0.137490 0.895373
0.080308 -0.137501 0.895446
0.081839 -0.137529 0.895627
0.083389 -0.137588 0.896014
0.084942 -0.137652 0.896425
0.086519 -0.137750 0.897064
0.088107 -0.137861 0.897787
0.089690 -0.137962 0.898447
0.091269 -0.138053 0.899038
0.092864 -0.138165 0.899766
0.094471 -0.138290 0.900581
0.096093 -0.138433 0.901515
0.097763 -0.138640 0.902860
0.099440 -0.138851 0.904234
0.101129 -0.139071 0.905668
0.102808 -0.139271 0.906973
0.104460 -0.139429 0.908001
0.106075 -0.139534 0.908687
0.107710 -0.139663 0.909525
0.109349 -0.139792 0.910367
0.111028 -0.139969 0.911516
0.112760 -0.140207 0.913068
0.114516 -0.140467 0.914759
0.116284 -0.140736 0.916509
0.118067 -0.141015 0.918329
0.119882 -0.141324 0.920343
0.121676 -0.141601 0.922146
0.123453 -0.141852 0.923779
0.125393 -0.142281 0.926570
0.127342 -0.142710 0.929368
0.129305 -0.143143 0.932190
0.131273 -0.143573 0.934984
0.133314 -0.144070 0.938222
-0.090673 -0.153829 1.012960
-0.088516 -0.153060 1.007890
-0.086466 -0.152449 1.003870
-0.084279 -0.151568 0.998073
-0.082131 -0.150724 0.992512
-0.080206 -0.150260 0.989455
-0.078587 -0.150363 0.990137
-0.076836 -0.150213 0.989147
-0.075098 -0.150082 0.988286
-0.073343 -0.149909 0.987148
-0.071719 -0.150004 0.987769
-0.070078 -0.150064 0.988169
-0.068572 -0.150424 0.990538
-0.067074 -0.150822 0.993155
-0.065588 -0.151267 0.996090
-0.063997 -0.151487 0.997537
-0.062362 -0.151613 0.998367
-0.060742 -0.151781 0.999471
-0.059101 -0.151906 1.000290
-0.057464 -0.152050 1.001250
-0.055824 -0.152194 1.002200
-0.054169 -0.152304 1.002920
-0.052515 -0.152423 1.003700
-0.050847 -0.152510 1.004280
-0.049173 -0.152585 1.004760
-0.009539 -0.144031 0.948437
-0.007930 -0.143929 0.947767
-0.006320 -0.143768 0.946708
-0.004708 -0.143416 0.944391
-0.003101 -0.142937 0.941235
-0.001505 -0.142456 0.938071
0.000080 -0.141922 0.934551
0.001654 -0.141418 0.931236
0.003218 -0.140968 0.928269
0.004774 -0.140573 0.925671
0.006323 -0.140218 0.923331
0.007867 -0.139914 0.921326
0.009406 -0.139637 0.919504
0.010947 -0.139461 0.918345
0.012488 -0.139340 0.917550
0.014025 -0.139195 0.916597
0.015558 -0.139050 0.915643
0.017093 -0.138943 0.914933
0.018618 -0.138784 0.913887
0.020140 -0.138624 0.912837
0.021662 -0.138489 0.911944
0.023179 -0.138341 0.910974
0.024698 -0.138222 0.910189
0.026215 -0.138107 0.909431
0.027729 -0.137992 0.908672
0.029243 -0.137889 0.907992
0.030758 -0.137799 0.907402
0.032257 -0.137648 0.906405
0.033751 -0.137492 0.905380
0.035243 -0.137342 0.904389
0.036732 -0.137191 0.903400
0.038223 -0.137063 0.902554
0.039721 -0.136966 0.901917
0.041232 -0.136921 0.901623
0.042730 -0.136836 0.901060
0.044225 -0.136750 0.900494
0.045723 -0.136678 0.900017
0.047225 -0.136621 0.899647
0.048727 -0.136569 0.899300
0.050238 -0.136541 0.899120
0.051741 -0.136498 0.898834
0.053232 -0.136425 0.898356
0.054722 -0.136353 0.897879
0.056210 -0.136281 0.897409
0.057698 -0.136212 0.896953
0.059179 -0.136130 0.896409
0.060667 -0.136069 0.896007
0.062161 -0.136022 0.895703
0.063655 -0.135981 0.895430
0.065157 -0.135957 0.895269
0.066684 -0.135982 0.895440
0.068218 -0.136023 0.895708
0.069762 -0.136081 0.896090
0.071288 -0.136102 0.896229
0.072817 -0.136129 0.896405
0.074345 -0.136151 0.896549
0.075852 -0.136136 0.896453
0.077354 -0.136112 0.896296
0.078868 -0.136110 0.896282
0.080389 -0.136121 0.896352
0.081914 -0.136135 0.896447
0.083457 -0.136182 0.896751
0.085002 -0.136228 0.897057
0.086571 -0.136311 0.897601
0.088151 -0.136407 0.898234
0.089727 -0.136495 0.898813
0.091297 -0.136570 0.899306
0.092892 -0.136680 0.900034
0.094508 -0.136817 0.900938
0.096143 -0.136977 0.901986
0.097824 -0.137196 0.903429
0.099510 -0.137415 0.904872
0.101199 -0.137631 0.906297
0.102870 -0.137816 0.907516
0.104514 -0.137962 0.908472
0.106129 -0.138065 0.909154
0.107786 -0.138219 0.910169
0.109449 -0.138377 0.911205
0.111156 -0.138583 0.912567
0.112904 -0.138837 0.914234
0.114673 -0.139108 0.916019
0.116423 -0.139348 0.917600
0.118196 -0.139610 0.919326
0.119988 -0.139888 0.921156
0.121774 -0.140151 0.922890
0.123541 -0.140386 0.924438
0.125507 -0.140838 0.927415
0.127456 -0.141261 0.930197
0.129447 -0.141719 0.933214
0.131428 -0.142156 0.936089
0.133498 -0.142676 0.939516
-0.087513 -0.149636 0.996472
-0.085610 -0.149256 0.993942
-0.081294 -0.147522 0.982394
-0.079408 -0.147104 0.979612
-0.077830 -0.147252 0.980597
-0.076127 -0.147166 0.980020
-0.074436 -0.147097 0.979560
-0.072701 -0.146938 0.978505
-0.071100 -0.147048 0.979239
-0.069493 -0.147150 0.979919
-0.066679 -0.148261 0.987313
-0.065321 -0.148971 0.992042
-0.063849 -0.149449 0.995226
-0.062318 -0.149813 0.997650
-0.060790 -0.150206 1.000260
-0.059156 -0.150350 1.001230
-0.057519 -0.150496 1.002200
-0.055877 -0.150639 1.003150
-0.054214 -0.150727 1.003740
-0.052557 -0.150843 1.004510
-0.050889 -0.150931 1.005100
-0.049220 -0.151024 1.005710
-0.009544 -0.142499 0.948946
-0.007935 -0.142423 0.948435
-0.006326 -0.142281 0.947492
-0.004713 -0.141962 0.945366
-0.003105 -0.141504 0.942316
-0.001507 -0.141030 0.939160
0.000080 -0.140500 0.935631
0.001656 -0.139999 0.932293
0.003221 -0.139525 0.929139
0.004778 -0.139121 0.926447
0.006327 -0.138743 0.923931
0.007871 -0.138426 0.921822
0.009410 -0.138136 0.919889
0.010950 -0.137947 0.918630
0.012492 -0.137826 0.917825
0.014030 -0.137695 0.916955
0.015564 -0.137552 0.916003
0.017100 -0.137448 0.915305
0.018629 -0.137317 0.914433
0.020152 -0.137161 0.913397
0.021676 -0.137028 0.912513
0.023193 -0.136883 0.911542
0.024711 -0.136750 0.910659
0.026226 -0.136622 0.909809
0.027738 -0.136494 0.908956
0.029252 -0.136391 0.908267
0.030768 -0.136303 0.907684
0.032273 -0.136179 0.906858
0.033771 -0.136040 0.905931
0.035271 -0.135919 0.905123
0.036766 -0.135786 0.904239
0.038263 -0.135673 0.903488
0.039763 -0.135580 0.902865
0.041272 -0.135524 0.902493
0.042771 -0.135440 0.901934
0.044263 -0.135341 0.901275
0.045757 -0.135253 0.900688
0.047255 -0.135182 0.900220
0.048758 -0.135128 0.899858
0.050264 -0.135088 0.899593
0.051768 -0.135045 0.899307
0.053261 -0.134974 0.898834
0.054750 -0.134900 0.898341
0.056239 -0.134829 0.897869
0.057728 -0.134762 0.897418
0.059216 -0.134695 0.896974
0.060712 -0.134651 0.896679
0.062213 -0.134618 0.896460
0.063715 -0.134589 0.896270
0.065224 -0.134576 0.896185
0.066745 -0.134589 0.896267
0.068274 -0.134616 0.896447
0.069812 -0.134659 0.896732
0.071332 -0.134666 0.896779
0.072855 -0.134680 0.896873
0.074384 -0.134702 0.897022
0.075893 -0.134690 0.896941
0.077396 -0.134667 0.896787
0.078912 -0.134666 0.896782
0.080434 -0.134676 0.896849
0.081957 -0.134688 0.896927
0.083501 -0.134731 0.897216
0.085037 -0.134763 0.897424
0.086606 -0.134843 0.897957
0.088177 -0.134924 0.898499
0.089744 -0.134997 0.898986
0.091315 -0.135072 0.899483
0.092928 -0.135207 0.900383
0.094556 -0.135358 0.901392
0.096203 -0.135532 0.902550
0.097885 -0.135748 0.903986
0.099571 -0.135963 0.905421
0.101259 -0.136176 0.906836
0.102922 -0.136347 0.907978
0.104578 -0.136506 0.909033
0.106216 -0.136636 0.909899
0.107887 -0.136804 0.911021
0.109556 -0.136965 0.912093
0.111276 -0.137184 0.913551
0.113017 -0.137424 0.915149
0.114785 -0.137689 0.916914
0.116535 -0.137926 0.918489
0.118311 -0.138186 0.920224
0.120095 -0.138449 0.921974
0.121891 -0.138720 0.923776
0.123658 -0.138950 0.925308
0.125613 -0.139384 0.928201
0.127565 -0.139803 0.930989
0.129595 -0.140297 0.934279
0.131596 -0.140748 0.937284
0.133689 -0.141286 0.940865
-0.082553 -0.145150 0.977631
-0.080481 -0.144398 0.972565
-0.078635 -0.144029 0.970082
-0.077080 -0.144187 0.971150
-0.075401 -0.144115 0.970665
-0.073731 -0.144059 0.970287
-0.072036 -0.143950 0.969552
-0.070468 -0.144095 0.970530
-0.068893 -0.144234 0.971464
-0.063476 -0.146901 0.989425
-0.062070 -0.147533 0.993687
-0.060661 -0.148196 0.998151
-0.059125 -0.148575 1.000700
-0.057573 -0.148937 1.003140
-0.055922 -0.149058 1.003950
-0.054255 -0.149140 1.004510
-0.052592 -0.149240 1.005180
-0.050923 -0.149328 1.005770
-0.049253 -0.149420 1.006400
-0.009537 -0.140792 0.948280
-0.007931 -0.140740 0.947929
-0.006324 -0.140629 0.947185
-0.004713 -0.140360 0.945369
-0.003107 -0.139979 0.942806
-0.001508 -0.139556 0.939956
0.000081 -0.139048 0.936536
0.001658 -0.138552 0.933191
0.003224 -0.138067 0.929927
0.004781 -0.137639 0.927046
0.006330 -0.137238 0.924345
0.007874 -0.136909 0.922130
0.009413 -0.136620 0.920179
0.010952 -0.136419 0.918827
0.012493 -0.136286 0.917933
0.014033 -0.136170 0.917151
0.015569 -0.136041 0.916284
0.017105 -0.135938 0.915591
0.018637 -0.135823 0.914815
0.020165 -0.135695 0.913950
0.021689 -0.135565 0.913077
0.023206 -0.135409 0.912026
0.024721 -0.135265 0.911056
0.026236 -0.135135 0.910180
0.027744 -0.134983 0.909157
0.029256 -0.134869 0.908387
0.030774 -0.134793 0.907875
0.032283 -0.134683 0.907133
0.033785 -0.134559 0.906302
0.035290 -0.134456 0.905608
0.036793 -0.134354 0.904917
0.038295 -0.134257 0.904265
0.039801 -0.134178 0.903734
0.041312 -0.134123 0.903365
0.042820 -0.134064 0.902963
0.044310 -0.133953 0.902215
0.045796 -0.133839 0.901450
0.047288 -0.133750 0.900852
0.048786 -0.133680 0.900379
0.050284 -0.133616 0.899947
0.051790 -0.133576 0.899676
0.053288 -0.133519 0.899292
0.054778 -0.133445 0.898799
0.056267 -0.133374 0.898320
0.057757 -0.133307 0.897865
0.059251 -0.133254 0.897509
0.060750 -0.133213 0.897237
0.062254 -0.133185 0.897044
0.063757 -0.133158 0.896864
0.065267 -0.133145 0.896775
0.066783 -0.133145 0.896775
0.068312 -0.133170 0.896946
0.069843 -0.133198 0.897133
0.071361 -0.133202 0.897157
0.072885 -0.133215 0.897246
0.074415 -0.133238 0.897403
0.075926 -0.133227 0.897326
0.077437 -0.133216 0.897255
0.078953 -0.133216 0.897253
0.080476 -0.133226 0.897319
0.081993 -0.133226 0.897320
0.083535 -0.133266 0.897589
0.085064 -0.133283 0.897703
0.086632 -0.133361 0.898229
0.088196 -0.133430 0.898692
0.089764 -0.133502 0.899181
0.091333 -0.133574 0.899668
0.092965 -0.133734 0.900742
0.094606 -0.133900 0.901863
0.096266 -0.134089 0.903136
0.097959 -0.134317 0.904669
0.099645 -0.134528 0.906093
0.101332 -0.134736 0.907490
0.102987 -0.134894 0.908553
0.104656 -0.135065 0.909707
0.106318 -0.135222 0.910768
0.108004 -0.135406 0.912006
0.109687 -0.135580 0.913180
0.111410 -0.135799 0.914651
0.113137 -0.136017 0.916120
0.114894 -0.136263 0.917778
0.116643 -0.136495 0.919338
0.118399 -0.136728 0.920906
0.120184 -0.136988 0.922657
0.121990 -0.137265 0.924528
0.123757 -0.137492 0.926051
0.125713 -0.137920 0.928938
0.127682 -0.138351 0.931843
0.129745 -0.138874 0.935360
0.131769 -0.139342 0.938514
-0.081707 -0.142022 0.967614
-0.079703 -0.141370 0.963170
-0.077904 -0.141060 0.961059
-0.076363 -0.141216 0.962122
-0.074712 -0.141170 0.961806
-0.073065 -0.141128 0.961521
-0.071406 -0.141062 0.961071
-0.069866 -0.141232 0.962234
-0.068315 -0.141391 0.963313
-0.060405 -0.145885 0.993930
-0.058987 -0.146536 0.998367
-0.057535 -0.147140 1.002480
-0.055966 -0.147471 1.004740
-0.054291 -0.147536 1.005180
-0.052627 -0.147633 1.005840
-0.050951 -0.147705 1.006330
-0.049275 -0.147781 1.006850
-0.047905 -0.150531 1.013880
-0.047601 -0.147868 1.007440
-0.009529 -0.139060 0.947431
-0.007925 -0.139019 0.947150
-0.006319 -0.138930 0.946546
-0.004712 -0.138712 0.945061
-0.003107 -0.138398 0.942920
-0.001509 -0.138015 0.940313
0.000081 -0.137544 0.937101
0.001659 -0.137066 0.933848
0.003227 -0.136596 0.930648
0.004785 -0.136170 0.927745
0.006334 -0.135758 0.924936
0.007878 -0.135417 0.922610
0.009418 -0.135127 0.920638
0.010957 -0.134916 0.919196
0.012496 -0.134762 0.918149
0.014038 -0.134659 0.917450
0.015576 -0.134545 0.916673
0.017113 -0.134445 0.915988
0.018647 -0.134344 0.915304
0.020178 -0.134231 0.914535
0.021705 -0.134117 0.913758
0.023223 -0.133962 0.912698
0.024739 -0.133818 0.911717
0.026253 -0.133675 0.910743
0.027761 -0.133523 0.909705
0.029271 -0.133396 0.908846
0.030787 -0.133308 0.908246
0.032296 -0.133199 0.907502
0.033803 -0.133091 0.906764
0.035313 -0.133006 0.906187
0.036821 -0.132920 0.905599
0.038332 -0.132850 0.905122
0.039842 -0.132784 0.904670
0.041354 -0.132729 0.904296
0.042865 -0.132672 0.903909
0.044351 -0.132548 0.903064
0.045830 -0.132409 0.902116
0.047313 -0.132291 0.901317
0.048800 -0.132193 0.900648
0.050293 -0.132115 0.900113
0.051800 -0.132077 0.899857
0.053305 -0.132036 0.899577
0.054802 -0.131979 0.899188
0.056297 -0.131919 0.898783
0.057786 -0.131851 0.898320
0.059286 -0.131810 0.898040
0.060792 -0.131784 0.897860
0.062304 -0.131771 0.897771
0.063816 -0.131759 0.897688
0.065328 -0.131747 0.897606
0.066844 -0.131746 0.897600
0.068368 -0.131757 0.897679
0.069886 -0.131759 0.897688
0.071398 -0.131748 0.897614
0.072921 -0.131759 0.897687
0.074445 -0.131769 0.897761
0.075963 -0.131771 0.897770
0.077490 -0.131785 0.897868
0.079008 -0.131786 0.897874
0.080525 -0.131784 0.897862
0.082042 -0.131782 0.897850
0.083577 -0.131809 0.898034
0.085098 -0.131815 0.898071
0.086661 -0.131883 0.898532
0.088224 -0.131948 0.898981
0.089783 -0.132006 0.899374
0.091352 -0.132076 0.899852
0.092986 -0.132237 0.900945
0.094640 -0.132419 0.902187
0.096312 -0.132621 0.903566
0.098015 -0.132860 0.905190
0.099701 -0.133067 0.906601
0.101389 -0.133272 0.907997
0.103045 -0.133429 0.909066
0.104726 -0.133613 0.910319
0.106411 -0.133796 0.911571
0.108122 -0.134007 0.913006
0.109829 -0.134206 0.914364
0.111551 -0.134419 0.915814
0.113267 -0.134618 0.917168
0.115008 -0.134842 0.918695
0.116748 -0.135058 0.920168
0.118485 -0.135264 0.921573
0.120261 -0.135510 0.923247
0.122053 -0.135768 0.925005
0.123820 -0.135991 0.926522
0.125768 -0.136405 0.929343
0.127755 -0.136851 0.932381
0.129861 -0.137411 0.936199
0.131932 -0.137922 0.939677
-0.089906 -0.142054 0.967832
-0.090856 -0.140990 0.960583
-0.090863 -0.139372 0.960653
-0.089491 -0.139765 0.963365
-0.088699 -0.142745 0.972538
-0.088049 -0.140061 0.965405
-0.087233 -0.143036 0.974523
-0.086419 -0.140066 0.965435
-0.085519 -0.142925 0.973769
-0.084777 -0.140049 0.965319
-0.083750 -0.142716 0.972343
-0.083100 -0.139974 0.964804
-0.081269 -0.139630 0.962433
-0.079451 -0.139295 0.960126
-0.077803 -0.139251 0.959818
-0.076139 -0.139175 0.959294
-0.074483 -0.139111 0.958852
-0.072836 -0.139062 0.958514
-0.071194 -0.139018 0.958214
-0.069575 -0.139020 0.958230
-0.068031 -0.139177 0.959306
-0.066881 -0.141803 0.966123
-0.066496 -0.139358 0.960558
-0.058718 -0.144185 0.993827
-0.057386 -0.145065 0.999891
-0.055917 -0.145640 1.003850
-0.054329 -0.145933 1.005880
-0.052652 -0.145999 1.006330
-0.050970 -0.146055 1.006720
-0.049287 -0.146109 1.007090
-0.047606 -0.146176 1.007550
-0.046229 -0.148935 1.014710
-0.045933 -0.146273 1.008220
-0.009516 -0.137279 0.946230
-0.007915 -0.137240 0.945961
-0.006312 -0.137173 0.945493
-0.004708 -0.136992 0.944246
-0.003106 -0.136757 0.942626
-0.001509 -0.136440 0.940444
0.000081 -0.136035 0.937649
0.001661 -0.135603 0.934672
0.003230 -0.135150 0.931553
0.004789 -0.134713 0.928540
0.006338 -0.134277 0.925536
0.007881 -0.133910 0.923008
0.009421 -0.133609 0.920929
0.010960 -0.133399 0.919486
0.012501 -0.133249 0.918447
0.014044 -0.133162 0.917847
0.015584 -0.133062 0.917163
0.017122 -0.132964 0.916482
0.018659 -0.132880 0.915902
0.020191 -0.132769 0.915143
0.021722 -0.132670 0.914455
0.023243 -0.132529 0.913487
0.024760 -0.132385 0.912495
0.026275 -0.132241 0.911504
0.027784 -0.132089 0.910456
0.029292 -0.131951 0.909505
0.030806 -0.131851 0.908812
0.032316 -0.131742 0.908060
0.033824 -0.131635 0.907327
0.035339 -0.131566 0.906846
0.036852 -0.131495 0.906361
0.038368 -0.131439 0.905972
0.039879 -0.131373 0.905517
0.041389 -0.131305 0.905053
0.042900 -0.131249 0.904661
0.044385 -0.131115 0.903742
0.045860 -0.130965 0.902705
0.047343 -0.130846 0.901883
0.048825 -0.130733 0.901106
0.050308 -0.130628 0.900385
0.051815 -0.130590 0.900120
0.053321 -0.130551 0.899851
0.054820 -0.130498 0.899485
0.056322 -0.130455 0.899188
0.057817 -0.130398 0.898799
0.059323 -0.130369 0.898596
0.060836 -0.130355 0.898499
0.062355 -0.130355 0.898504
0.063874 -0.130357 0.898514
0.065394 -0.130357 0.898514
0.066912 -0.130355 0.898504
0.068430 -0.130355 0.898499
0.069943 -0.130342 0.898415
0.071448 -0.130317 0.898243
0.072958 -0.130302 0.898139
0.074475 -0.130300 0.898120
0.075987 -0.130289 0.898047
0.077514 -0.130305 0.898154
0.079034 -0.130306 0.898167
0.080551 -0.130305 0.898154
0.082068 -0.130302 0.898136
0.083611 -0.130340 0.898400
0.085134 -0.130347 0.898446
0.086698 -0.130415 0.898917
0.088262 -0.130480 0.899362
0.089819 -0.130534 0.899738
0.091389 -0.130603 0.900210
0.093024 -0.130762 0.901310
0.094689 -0.130958 0.902655
0.096372 -0.131171 0.904128
0.098077 -0.131408 0.905763
0.099763 -0.131613 0.907173
0.101463 -0.131829 0.908660
0.103121 -0.131985 0.909733
0.104824 -0.132193 0.911172
0.106523 -0.132390 0.912531
0.108258 -0.132625 0.914151
0.109969 -0.132826 0.915532
0.111693 -0.133036 0.916978
0.113399 -0.133219 0.918240
0.115130 -0.133425 0.919663
0.116858 -0.133624 0.921034
0.118584 -0.133815 0.922350
0.120350 -0.134044 0.923931
0.122120 -0.134273 0.925510
0.123911 -0.134519 0.927200
0.125864 -0.134932 0.930051
0.127871 -0.135392 0.933222
0.129994 -0.135963 0.937154
0.132089 -0.136491 0.940795
-0.092481 -0.137734 0.960586
-0.090855 -0.137731 0.960562
-0.089211 -0.137701 0.960353
-0.087559 -0.137656 0.960043
-0.085916 -0.137624 0.959821
-0.084274 -0.137592 0.959595
-0.082616 -0.137533 0.959184
-0.080977 -0.137502 0.958971
-0.079323 -0.137445 0.958572
-0.077668 -0.137385 0.958155
-0.076006 -0.137309 0.957621
-0.074352 -0.137243 0.957162
-0.072709 -0.137196 0.956834
-0.071076 -0.137166 0.956628
-0.069459 -0.137167 0.956634
-0.067828 -0.137139 0.956435
-0.066208 -0.137134 0.956405
-0.065086 -0.139818 0.963728
-0.064696 -0.137355 0.957946
-0.063691 -0.140333 0.967280
-0.063215 -0.137658 0.960057
-0.055652 -0.143256 0.999098
-0.054174 -0.143818 1.003020
-0.052591 -0.144126 1.005170
-0.050990 -0.144402 1.007090
-0.049299 -0.144436 1.007330
-0.047611 -0.144483 1.007660
-0.045928 -0.144547 1.008100
-0.044285 -0.146458 1.009490
-0.044268 -0.144693 1.009120
-0.042919 -0.147632 1.017590
-0.042614 -0.144868 1.010340
-0.007901 -0.135405 0.944344
-0.006303 -0.135370 0.944103
-0.004702 -0.135239 0.943184
-0.003105 -0.135094 0.942176
-0.001509 -0.134856 0.940512
0.000081 -0.134516 0.938141
0.001662 -0.134132 0.935466
0.003233 -0.133700 0.932451
0.004794 -0.133267 0.929431
0.006344 -0.132823 0.926337
0.007887 -0.132433 0.923617
0.009425 -0.132117 0.921413
0.010966 -0.131908 0.919953
0.012506 -0.131747 0.918831
0.014050 -0.131664 0.918252
0.015592 -0.131578 0.917651
0.017131 -0.131481 0.916974
0.018671 -0.131410 0.916484
0.020206 -0.131317 0.915831
0.021739 -0.131221 0.915162
0.023263 -0.131094 0.914279
0.024782 -0.130953 0.913296
0.026292 -0.130786 0.912131
0.027800 -0.130622 0.910985
0.029308 -0.130482 0.910011
0.030820 -0.130371 0.909234
0.032331 -0.130263 0.908479
0.033842 -0.130167 0.907815
0.035357 -0.130097 0.907327
0.036872 -0.130029 0.906848
0.038389 -0.129975 0.906476
0.039905 -0.129922 0.906107
0.041416 -0.129856 0.905643
0.042928 -0.129798 0.905236
0.044413 -0.129665 0.904314
0.045889 -0.129516 0.903273
0.047369 -0.129388 0.902380
0.048851 -0.129274 0.901588
0.050330 -0.129157 0.900771
0.051836 -0.129116 0.900484
0.053342 -0.129077 0.900209
0.054842 -0.129025 0.899851
0.056346 -0.128986 0.899577
0.057849 -0.128945 0.899292
0.059356 -0.128917 0.899098
0.060869 -0.128903 0.898995
0.062390 -0.128905 0.899009
0.063911 -0.128906 0.899021
0.065430 -0.128906 0.899021
0.066949 -0.128905 0.899009
0.068468 -0.128903 0.898995
0.069982 -0.128891 0.898917
0.071481 -0.128854 0.898653
0.072982 -0.128823 0.898439
0.074491 -0.128806 0.898320
0.075996 -0.128782 0.898154
0.077525 -0.128800 0.898277
0.079046 -0.128803 0.898300
0.080563 -0.128801 0.898286
0.082086 -0.128808 0.898335
0.083637 -0.128857 0.898679
0.085162 -0.128867 0.898745
0.086727 -0.128935 0.899217
0.088291 -0.128998 0.899661
0.089839 -0.129037 0.899931
0.091416 -0.129115 0.900479
0.093061 -0.129286 0.901670
0.094737 -0.129493 0.903115
0.096430 -0.129717 0.904676
0.098145 -0.129962 0.906386
0.099822 -0.130152 0.907711
0.101524 -0.130367 0.909210
0.103204 -0.130548 0.910469
0.104932 -0.130783 0.912106
0.106655 -0.131005 0.913658
0.108394 -0.131241 0.915302
0.110097 -0.131427 0.916600
0.111803 -0.131610 0.917879
0.113499 -0.131778 0.919048
0.115222 -0.131972 0.920398
0.116964 -0.132182 0.921866
0.118703 -0.132383 0.923269
0.120467 -0.132608 0.924833
0.122237 -0.132832 0.926398
0.124053 -0.133099 0.928264
0.126012 -0.133513 0.931146
0.128036 -0.133983 0.934429
0.130173 -0.134560 0.938449
0.132281 -0.135092 0.942163
-0.092495 -0.136126 0.960733
-0.090864 -0.136117 0.960665
-0.089218 -0.136083 0.960428
-0.087548 -0.136010 0.959915
-0.085887 -0.135950 0.959491
-0.084217 -0.135873 0.958944
-0.082531 -0.135767 0.958197
-0.080867 -0.135692 0.957666
-0.079197 -0.135605 0.957050
-0.077536 -0.135529 0.956519
-0.075875 -0.135451 0.955969
-0.074224 -0.135388 0.955521
-0.072584 -0.135342 0.955195
-0.070955 -0.135314 0.954999
-0.069340 -0.135314 0.955002
-0.067712 -0.135286 0.954803
-0.066096 -0.135282 0.954774
-0.064487 -0.135293 0.954849
-0.062914 -0.135381 0.955475
-0.061843 -0.138219 0.963969
-0.061444 -0.135704 0.957751
-0.053872 -0.141325 0.997423
-0.052406 -0.141921 1.001630
-0.050912 -0.142480 1.005570
-0.049309 -0.142760 1.007550
-0.047611 -0.142775 1.007660
-0.045917 -0.142805 1.007870
-0.044243 -0.142901 1.008550
-0.042578 -0.143035 1.009490
-0.040956 -0.145045 1.011570
-0.040911 -0.143174 1.010470
-0.007887 -0.133568 0.942676
-0.006294 -0.133572 0.942702
-0.004697 -0.133502 0.942209
-0.003103 -0.133442 0.941788
-0.001509 -0.133254 0.940464
0.000081 -0.132967 0.938435
0.001663 -0.132620 0.935989
0.003235 -0.132208 0.933077
0.004797 -0.131781 0.930062
0.006348 -0.131341 0.926960
0.007891 -0.130942 0.924143
0.009430 -0.130614 0.921826
0.010970 -0.130403 0.920338
0.012510 -0.130231 0.919124
0.014054 -0.130138 0.918469
0.015598 -0.130066 0.917963
0.017138 -0.129981 0.917361
0.018679 -0.129912 0.916871
0.020217 -0.129832 0.916312
0.021752 -0.129752 0.915745
0.023281 -0.129642 0.914965
0.024801 -0.129503 0.913991
0.026313 -0.129339 0.912829
0.027820 -0.129174 0.911666
0.029330 -0.129036 0.910691
0.030840 -0.128912 0.909818
0.032351 -0.128804 0.909056
0.033863 -0.128710 0.908388
0.035376 -0.128626 0.907800
0.036891 -0.128558 0.907317
0.038409 -0.128506 0.906948
0.039926 -0.128455 0.906589
0.041442 -0.128401 0.906208
0.042954 -0.128343 0.905797
0.044444 -0.128223 0.904955
0.045921 -0.128076 0.903919
0.047403 -0.127951 0.903033
0.048883 -0.127829 0.902174
0.050362 -0.127712 0.901350
0.051859 -0.127645 0.900875
0.053364 -0.127603 0.900576
0.054864 -0.127551 0.900209
0.056369 -0.127513 0.899941
0.057873 -0.127475 0.899676
0.059388 -0.127461 0.899577
0.060903 -0.127449 0.899489
0.062424 -0.127450 0.899495
0.063945 -0.127451 0.899504
0.065466 -0.127451 0.899504
0.066986 -0.127450 0.899495
0.068506 -0.127449 0.899489
0.070020 -0.127437 0.899405
0.071512 -0.127387 0.899052
0.073014 -0.127355 0.898828
0.074522 -0.127335 0.898685
0.076026 -0.127310 0.898507
0.077556 -0.127327 0.898631
0.079084 -0.127341 0.898732
0.080603 -0.127341 0.898729
0.082127 -0.127349 0.898784
0.083671 -0.127386 0.899048
0.085197 -0.127395 0.899110
0.086754 -0.127450 0.899498
0.088310 -0.127501 0.899855
0.089857 -0.127538 0.900116
0.091452 -0.127640 0.900837
0.093101 -0.127813 0.902058
0.094778 -0.128018 0.903509
0.096481 -0.128251 0.905149
0.098194 -0.128491 0.906846
0.099864 -0.128667 0.908084
0.101567 -0.128880 0.909591
0.103269 -0.129085 0.911041
0.105012 -0.129335 0.912802
0.106750 -0.129571 0.914470
0.108512 -0.129831 0.916299
0.110226 -0.130024 0.917667
0.111932 -0.130204 0.918937
0.113642 -0.130384 0.920203
0.115368 -0.130578 0.921571
0.117104 -0.130776 0.922970
0.118845 -0.130975 0.924374
0.120600 -0.131184 0.925851
0.122346 -0.131378 0.927219
0.124163 -0.131643 0.929089
0.126099 -0.132026 0.931792
0.128077 -0.132442 0.934729
0.130210 -0.133006 0.938712
0.132354 -0.133569 0.942684
-0.092488 -0.134488 0.960666
-0.090849 -0.134466 0.960507
-0.089197 -0.134424 0.960204
-0.087509 -0.134324 0.959491
-0.085820 -0.134219 0.958745
-0.084123 -0.134098 0.957876
-0.082420 -0.133962 0.956907
-0.080730 -0.133842 0.956051
-0.079045 -0.133726 0.955218
-0.077378 -0.133636 0.954578
-0.075721 -0.133559 0.954027
-0.074075 -0.133499 0.953601
-0.072440 -0.133457 0.953296
-0.070821 -0.133443 0.953202
-0.069210 -0.133443 0.953202
-0.067584 -0.133416 0.953008
-0.065972 -0.133414 0.952990
-0.064374 -0.133440 0.953177
-0.062803 -0.133527 0.953801
-0.061242 -0.133639 0.954597
-0.060113 -0.136356 0.962352
-0.059808 -0.134041 0.957468
-0.050715 -0.140227 1.001660
-0.049218 -0.140792 1.005690
-0.047611 -0.141067 1.007660
-0.045912 -0.141081 1.007760
-0.044223 -0.141129 1.008100
-0.042544 -0.141211 1.008690
-0.040864 -0.141299 1.009310
-0.039505 -0.144277 1.018260
-0.039194 -0.141429 1.010240
-0.007877 -0.131807 0.941509
-0.006287 -0.131835 0.941709
-0.004694 -0.131815 0.941571
-0.003102 -0.131787 0.941372
-0.001509 -0.131633 0.940272
0.000081 -0.131393 0.938554
0.001663 -0.131079 0.936314
0.003237 -0.130697 0.933585
0.004801 -0.130300 0.930751
0.006353 -0.129880 0.927745
0.007899 -0.129499 0.925027
0.009439 -0.129173 0.922701
0.010979 -0.128949 0.921098
0.012519 -0.128764 0.919777
0.014062 -0.128659 0.919022
0.015604 -0.128564 0.918345
0.017145 -0.128478 0.917732
0.018686 -0.128408 0.917235
0.020225 -0.128331 0.916682
0.021761 -0.128253 0.916127
0.023295 -0.128170 0.915535
0.024819 -0.128045 0.914643
0.026332 -0.127884 0.913491
0.027843 -0.127732 0.912406
0.029356 -0.127606 0.911506
0.030865 -0.127474 0.910559
0.032375 -0.127356 0.909718
0.033887 -0.127261 0.909038
0.035397 -0.127165 0.908352
0.036909 -0.127084 0.907778
0.038428 -0.127031 0.907398
0.039946 -0.126981 0.907041
0.041463 -0.126930 0.906672
0.042973 -0.126862 0.906192
0.044467 -0.126755 0.905424
0.045950 -0.126622 0.904475
0.047433 -0.126500 0.903601
0.048914 -0.126381 0.902753
0.050399 -0.126277 0.902012
0.051887 -0.126187 0.901366
0.053386 -0.126130 0.900959
0.054891 -0.126087 0.900657
0.056397 -0.126049 0.900385
0.057903 -0.126014 0.900129
0.059423 -0.126011 0.900113
0.060939 -0.125998 0.900021
0.062455 -0.125987 0.899940
0.063976 -0.125988 0.899947
0.065498 -0.125988 0.899947
0.067019 -0.125987 0.899940
0.068540 -0.125987 0.899938
0.070055 -0.125976 0.899857
0.071548 -0.125926 0.899504
0.073051 -0.125895 0.899282
0.074559 -0.125875 0.899138
0.076064 -0.125849 0.898956
0.077593 -0.125864 0.899063
0.079123 -0.125880 0.899175
0.080643 -0.125880 0.899178
0.082169 -0.125889 0.899242
0.083706 -0.125915 0.899423
0.085231 -0.125922 0.899473
0.086780 -0.125963 0.899765
0.088327 -0.126000 0.900029
0.089892 -0.126060 0.900460
0.091507 -0.126189 0.901379
0.093160 -0.126364 0.902634
0.094851 -0.126583 0.904199
0.096562 -0.126823 0.905915
0.098257 -0.127034 0.907421
0.099917 -0.127196 0.908572
0.101630 -0.127417 0.910156
0.103345 -0.127636 0.911715
0.105102 -0.127898 0.913590
0.106846 -0.128136 0.915293
0.108620 -0.128404 0.917206
0.110323 -0.128582 0.918475
0.112016 -0.128744 0.919631
0.113736 -0.128931 0.920969
0.115489 -0.129150 0.922533
0.117231 -0.129351 0.923969
0.118988 -0.129563 0.925485
0.120743 -0.129768 0.926947
0.122466 -0.129933 0.928128
0.124258 -0.130168 0.929802
0.126182 -0.130531 0.932399
0.128119 -0.130900 0.935033
0.130236 -0.131441 0.938901
0.132450 -0.132067 0.943367
-0.092425 -0.132769 0.960005
-0.090778 -0.132734 0.959758
-0.089123 -0.132685 0.959400
-0.087425 -0.132570 0.958571
-0.085718 -0.132437 0.957608
-0.084003 -0.132285 0.956509
-0.082284 -0.132121 0.955322
-0.080579 -0.131974 0.954260
-0.078887 -0.131843 0.953311
-0.077223 -0.131754 0.952666
-0.075571 -0.131681 0.952139
-0.073937 -0.131638 0.951827
-0.072313 -0.131611 0.951634
-0.070705 -0.131611 0.951634
-0.069096 -0.131611 0.951634
-0.067480 -0.131598 0.951540
-0.065871 -0.131597 0.951533
-0.064276 -0.131624 0.951730
-0.062701 -0.131696 0.952252
-0.061140 -0.131801 0.953008
-0.059602 -0.131963 0.954183
-0.058468 -0.134684 0.962064
-0.058163 -0.132358 0.957035
-0.057115 -0.135332 0.966690
-0.056703 -0.132728 0.959709
-0.049007 -0.138489 1.001370
-0.047514 -0.139074 1.005600
-0.045908 -0.139359 1.007660
-0.044214 -0.139388 1.007870
-0.042525 -0.139437 1.008220
-0.040835 -0.139489 1.008600
-0.039154 -0.139572 1.009200
-0.037537 -0.141622 1.011620
-0.037486 -0.139715 1.010230
-0.036107 -0.142729 1.019530
-0.035824 -0.139895 1.011530
-0.007883 -0.130300 0.942156
-0.006290 -0.130307 0.942208
-0.004697 -0.130286 0.942052
-0.003103 -0.130246 0.941767
-0.001509 -0.130097 0.940685
0.000081 -0.129885 0.939156
0.001665 -0.129599 0.937088
0.003240 -0.129221 0.934356
0.004805 -0.128841 0.931608
0.006360 -0.128439 0.928701
0.007908 -0.128079 0.926096
0.009450 -0.127761 0.923795
0.010992 -0.127538 0.922184
0.012532 -0.127338 0.920740
0.014074 -0.127205 0.919777
0.015614 -0.127084 0.918904
0.017152 -0.126975 0.918113
0.018692 -0.126893 0.917520
0.020231 -0.126815 0.916960
0.021768 -0.126738 0.916401
0.023302 -0.126658 0.915821
0.024829 -0.126548 0.915025
0.026348 -0.126412 0.914046
0.027860 -0.126264 0.912975
0.029375 -0.126143 0.912096
0.030885 -0.126012 0.911147
0.032395 -0.125893 0.910290
0.033905 -0.125787 0.909525
0.035413 -0.125681 0.908756
0.036922 -0.125587 0.908075
0.038436 -0.125520 0.907593
0.039954 -0.125469 0.907223
0.041468 -0.125408 0.906782
0.042979 -0.125343 0.906313
0.044478 -0.125250 0.905644
0.045969 -0.125142 0.904860
0.047454 -0.125023 0.904002
0.048941 -0.124917 0.903235
0.050431 -0.124827 0.902579
0.051919 -0.124736 0.901922
0.053415 -0.124669 0.901439
0.054920 -0.124627 0.901133
0.056421 -0.124576 0.900771
0.057926 -0.124539 0.900499
0.059447 -0.124536 0.900475
0.060957 -0.124510 0.900292
0.062467 -0.124487 0.900122
0.063989 -0.124486 0.900119
0.065510 -0.124485 0.900113
0.067025 -0.124474 0.900029
0.068547 -0.124474 0.900029
0.070069 -0.124474 0.900029
0.071569 -0.124437 0.899765
0.073074 -0.124410 0.899565
0.074584 -0.124392 0.899438
0.076090 -0.124369 0.899270
0.077612 -0.124371 0.899285
0.079141 -0.124386 0.899390
0.080662 -0.124386 0.899392
0.082190 -0.124397 0.899473
0.083727 -0.124421 0.899645
0.085250 -0.124424 0.899669
0.086789 -0.124450 0.899857
0.088335 -0.124485 0.900113
0.089927 -0.124583 0.900816
0.091565 -0.124740 0.901950
0.093233 -0.124931 0.903337
0.094934 -0.125161 0.904994
0.096653 -0.125406 0.906770
0.098330 -0.125589 0.908095
0.099991 -0.125748 0.909245
0.101716 -0.125981 0.910923
0.103444 -0.126210 0.912581
0.105202 -0.126469 0.914456
0.106947 -0.126705 0.916158
0.108712 -0.126957 0.917982
0.110404 -0.127119 0.919156
0.112088 -0.127267 0.920222
0.113809 -0.127452 0.921560
0.115575 -0.127681 0.923219
0.117332 -0.127895 0.924769
0.119092 -0.128107 0.926298
0.120848 -0.128309 0.927758
0.122546 -0.128444 0.928736
0.124358 -0.128695 0.930551
0.126271 -0.129042 0.933058
0.128180 -0.129377 0.935481
0.130243 -0.129857 0.938950
0.132574 -0.130589 0.944245
-0.092306 -0.130973 0.958772
-0.090668 -0.130947 0.958586
-0.089008 -0.130889 0.958162
-0.087310 -0.130773 0.957308
-0.085595 -0.130625 0.956227
-0.083872 -0.130460 0.955020
-0.082147 -0.130285 0.953738
-0.080445 -0.130140 0.952676
-0.078758 -0.130013 0.951744
-0.077096 -0.129924 0.951098
-0.075447 -0.129853 0.950577
-0.073817 -0.129812 0.950275
-0.072203 -0.129799 0.950182
-0.070604 -0.129813 0.950281
-0.069005 -0.129827 0.950383
-0.067405 -0.129840 0.950482
-0.065805 -0.129853 0.950574
-0.064211 -0.129880 0.950770
-0.062631 -0.129936 0.951180
-0.061058 -0.130010 0.951726
-0.059502 -0.130126 0.952572
-0.057955 -0.130269 0.953619
-0.056388 -0.130374 0.954387
-0.055315 -0.133294 0.963805
-0.054896 -0.130663 0.956506
-0.048785 -0.136173 0.996838
-0.047414 -0.137080 1.003480
-0.045908 -0.137650 1.007660
-0.044209 -0.137665 1.007760
-0.042514 -0.137695 1.007980
-0.040820 -0.137728 1.008220
-0.039129 -0.137777 1.008580
-0.037450 -0.137870 1.009260
-0.035777 -0.137999 1.010210
-0.034148 -0.140036 1.012550
-0.034091 -0.138086 1.010850
-0.032464 -0.140155 1.013420
-0.032398 -0.138154 1.011340
-0.030974 -0.141171 1.020760
-0.030714 -0.138272 1.012200
-0.007896 -0.128927 0.943794
-0.006299 -0.128896 0.943567
-0.004702 -0.128847 0.943213
-0.003106 -0.128763 0.942598
-0.001510 -0.128575 0.941218
0.000081 -0.128352 0.939586
0.001666 -0.128069 0.937514
0.003241 -0.127695 0.934776
0.004808 -0.127332 0.932121
0.006365 -0.126963 0.929417
0.007916 -0.126647 0.927106
0.009462 -0.126351 0.924937
0.011006 -0.126132 0.923339
0.012544 -0.125906 0.921679
0.014084 -0.125742 0.920483
0.015622 -0.125594 0.919399
0.017158 -0.125462 0.918433
0.018697 -0.125367 0.917737
0.020237 -0.125300 0.917245
0.021775 -0.125223 0.916679
0.023310 -0.125144 0.916105
0.024840 -0.125050 0.915413
0.026362 -0.124930 0.914536
0.027876 -0.124786 0.913485
0.029392 -0.124666 0.912605
0.030902 -0.124536 0.911653
0.032413 -0.124419 0.910794
0.033924 -0.124312 0.910013
0.035432 -0.124206 0.909239
0.036938 -0.124102 0.908472
0.038449 -0.124021 0.907884
0.039966 -0.123968 0.907492
0.041480 -0.123906 0.907041
0.042987 -0.123832 0.906497
0.044491 -0.123753 0.905918
0.045988 -0.123658 0.905227
0.047469 -0.123531 0.904296
0.048957 -0.123428 0.903538
0.050452 -0.123348 0.902953
0.051940 -0.123258 0.902296
0.053438 -0.123194 0.901825
0.054950 -0.123165 0.901617
0.056452 -0.123117 0.901266
0.057958 -0.123079 0.900985
0.059478 -0.123073 0.900944
0.060982 -0.123035 0.900666
0.062486 -0.122999 0.900400
0.064002 -0.122985 0.900302
0.065516 -0.122972 0.900202
0.067025 -0.122948 0.900029
0.068547 -0.122948 0.900029
0.070069 -0.122948 0.900029
0.071576 -0.122925 0.899857
0.073090 -0.122911 0.899759
0.074603 -0.122898 0.899661
0.076116 -0.122887 0.899577
0.077638 -0.122888 0.899587
0.079167 -0.122901 0.899683
0.080688 -0.122901 0.899685
0.082224 -0.122924 0.899849
0.083754 -0.122936 0.899938
0.085284 -0.122949 0.900033
0.086823 -0.122973 0.900209
0.088386 -0.123031 0.900636
0.089993 -0.123145 0.901471
0.091652 -0.123328 0.902809
0.093334 -0.123533 0.904311
0.095034 -0.123757 0.905947
0.096744 -0.123986 0.907623
0.098421 -0.124166 0.908944
0.100086 -0.124324 0.910104
0.101805 -0.124546 0.911724
0.103532 -0.124770 0.913364
0.105281 -0.125013 0.915141
0.107023 -0.125241 0.916811
0.108778 -0.125478 0.918546
0.110462 -0.125627 0.919637
0.112147 -0.125772 0.920701
0.113868 -0.125955 0.922038
