1696
0.081817 -0.221430 0.879128
0.081323 -0.218613 0.873822
0.090423 -0.219185 0.876111
0.091982 -0.219370 0.876850
0.093560 -0.219596 0.877753
0.095151 -0.219842 0.878737
0.096734 -0.220065 0.879629
0.098312 -0.220268 0.880439
0.099882 -0.220448 0.881160
0.101464 -0.220649 0.881963
0.103068 -0.220892 0.882935
0.104650 -0.221081 0.883689
0.106273 -0.221349 0.884760
0.107910 -0.221640 0.885921
0.109534 -0.221895 0.886941
0.111152 -0.222133 0.887893
0.112791 -0.222404 0.888978
0.114400 -0.222612 0.889807
0.116044 -0.222880 0.890879
0.117731 -0.223223 0.892250
0.119476 -0.223664 0.894015
0.121257 -0.224163 0.896010
0.123093 -0.224749 0.898352
0.124902 -0.225274 0.900447
0.126700 -0.225765 0.902412
0.128519 -0.226282 0.904478
0.130454 -0.226988 0.907301
0.132683 -0.228183 0.912075
-0.049328 -0.234269 0.942790
-0.047681 -0.234007 0.941737
-0.046016 -0.233637 0.940246
-0.044313 -0.233042 0.937855
-0.042631 -0.232517 0.935739
-0.040951 -0.231961 0.933502
-0.039289 -0.231467 0.931513
-0.037653 -0.231093 0.930011
-0.036005 -0.230606 0.928050
-0.034348 -0.230013 0.925664
-0.032680 -0.229294 0.922769
-0.031019 -0.228549 0.919771
-0.029367 -0.227793 0.916730
-0.027743 -0.227190 0.914304
-0.026132 -0.226623 0.912020
-0.024539 -0.226145 0.910096
-0.022954 -0.225689 0.908260
-0.021375 -0.225235 0.906433
-0.019800 -0.224745 0.904462
-0.018238 -0.224340 0.902832
-0.016688 -0.224027 0.901574
-0.015144 -0.223730 0.900377
-0.013607 -0.223483 0.899384
-0.012072 -0.223230 0.898365
-0.010593 -0.225590 0.901711
-0.010538 -0.222904 0.897055
-0.009102 -0.226407 0.904978
-0.009008 -0.222550 0.895630
-0.007565 -0.226216 0.904213
-0.007483 -0.222244 0.894398
-0.006029 -0.225920 0.903031
-0.005963 -0.221951 0.893217
-0.004495 -0.225558 0.901582
-0.004449 -0.221727 0.892316
-0.002938 -0.221583 0.891736
-0.001429 -0.221294 0.890576
0.000076 -0.220931 0.889114
0.001577 -0.220638 0.887935
0.003075 -0.220357 0.886803
0.004566 -0.219995 0.885349
0.006056 -0.219733 0.884292
0.007544 -0.219538 0.883509
0.009026 -0.219241 0.882313
0.010505 -0.218996 0.881325
0.011985 -0.218816 0.880601
0.013467 -0.218702 0.880142
0.014948 -0.218593 0.879704
0.016427 -0.218487 0.879277
0.017904 -0.218376 0.878832
0.019381 -0.218280 0.878447
0.020852 -0.218127 0.877830
0.022318 -0.217952 0.877127
0.023782 -0.219271 0.876455
0.023784 -0.217796 0.876495
0.025241 -0.219072 0.875658
0.025242 -0.217596 0.875692
0.026695 -0.218853 0.874783
0.026696 -0.217378 0.874814
0.028151 -0.218672 0.874062
0.028151 -0.217198 0.874092
0.029607 -0.218517 0.873442
0.029608 -0.217040 0.873456
0.031057 -0.218327 0.872682
0.031060 -0.216869 0.872766
0.032525 -0.216799 0.872483
0.033986 -0.216711 0.872130
0.035450 -0.216647 0.871875
0.036920 -0.216623 0.871776
0.038397 -0.216646 0.871867
0.039869 -0.216632 0.871814
0.041355 -0.216699 0.872082
0.042842 -0.216763 0.872339
0.044310 -0.216727 0.872194
0.045775 -0.216683 0.872017
0.047233 -0.216611 0.871728
0.048682 -0.216500 0.871280
0.050130 -0.216391 0.870841
0.051591 -0.216344 0.870654
0.053057 -0.216320 0.870559
0.054528 -0.216319 0.870553
0.056016 -0.216382 0.870807
0.057507 -0.216451 0.871085
0.059005 -0.216543 0.871456
0.060508 -0.216652 0.871893
0.061983 -0.216656 0.871911
0.063438 -0.216591 0.871646
0.064889 -0.216514 0.871340
0.066334 -0.216422 0.870969
0.067774 -0.216319 0.870553
0.069258 -0.216359 0.870715
0.070745 -0.216405 0.870898
0.072246 -0.216491 0.871247
0.073770 -0.216641 0.871848
0.075305 -0.216815 0.872551
0.076830 -0.216957 0.873121
0.078347 -0.217071 0.873581
0.079846 -0.217131 0.873822
0.081345 -0.217188 0.874050
0.082825 -0.218677 0.874080
0.082846 -0.217251 0.874306
0.084322 -0.218728 0.874283
0.084354 -0.217328 0.874613
0.085836 -0.218820 0.874650
0.085878 -0.217443 0.875077
0.087357 -0.218926 0.875076
0.087410 -0.217573 0.875598
0.088888 -0.219052 0.875578
0.088951 -0.217722 0.876198
0.090489 -0.217860 0.876753
0.092048 -0.218040 0.877478
0.093626 -0.218261 0.878369
0.095208 -0.218484 0.879266
0.096775 -0.218666 0.879999
0.098344 -0.218847 0.880726
0.099902 -0.218999 0.881340
0.101473 -0.219174 0.882042
0.103068 -0.219395 0.882932
0.104672 -0.219628 0.883870
0.106310 -0.219925 0.885066
0.107961 -0.220240 0.886335
0.109595 -0.220515 0.887438
0.111221 -0.220765 0.888445
0.112849 -0.221011 0.889436
0.114470 -0.221237 0.890345
0.116128 -0.221528 0.891517
0.117840 -0.221915 0.893072
0.119600 -0.222380 0.894946
0.121396 -0.222899 0.897034
0.123232 -0.223480 0.899372
0.125040 -0.223995 0.901445
0.126845 -0.224491 0.903442
0.128667 -0.225007 0.905517
0.130683 -0.225846 0.908895
0.132920 -0.227043 0.913709
0.134953 -0.229420 0.917023
0.135189 -0.228265 0.918627
-0.049484 -0.233410 0.945785
-0.047774 -0.232866 0.943582
-0.046076 -0.232346 0.941477
-0.044359 -0.231693 0.938828
-0.042663 -0.231101 0.936429
-0.040972 -0.230496 0.933977
-0.039301 -0.229955 0.931787
-0.037653 -0.229513 0.929997
-0.036000 -0.229002 0.927923
-0.034340 -0.228391 0.925448
-0.032669 -0.227652 0.922456
-0.031002 -0.226865 0.919266
-0.029350 -0.226112 0.916214
-0.027725 -0.225490 0.913694
-0.026115 -0.224931 0.911427
-0.024521 -0.224438 0.909431
-0.022939 -0.224005 0.907678
-0.021362 -0.223556 0.905857
-0.019787 -0.223073 0.903900
-0.018228 -0.222696 0.902374
-0.016683 -0.222432 0.901301
-0.015139 -0.222139 0.900115
-0.013604 -0.221914 0.899202
-0.012071 -0.221681 0.898261
-0.010537 -0.221358 0.896950
-0.009007 -0.221008 0.895531
-0.007483 -0.220723 0.894380
-0.005963 -0.220410 0.893110
-0.004448 -0.220186 0.892200
-0.002938 -0.220043 0.891624
-0.001429 -0.219738 0.890386
0.000076 -0.219357 0.888843
0.001577 -0.219060 0.887641
0.003073 -0.218755 0.886405
0.004564 -0.218391 0.884929
0.006054 -0.218153 0.883965
0.007542 -0.217986 0.883287
0.009024 -0.217722 0.882216
0.010506 -0.217521 0.881405
0.011987 -0.217347 0.880699
0.013469 -0.217234 0.880240
0.014949 -0.217124 0.879795
0.016430 -0.217038 0.879444
0.017908 -0.216933 0.879020
0.019388 -0.216865 0.878744
0.020861 -0.216736 0.878222
0.022330 -0.216581 0.877595
0.023794 -0.216404 0.876876
0.025253 -0.216204 0.876068
0.026707 -0.215984 0.875176
0.028160 -0.215786 0.874372
0.029614 -0.215607 0.873648
0.031069 -0.215453 0.873022
0.032531 -0.215361 0.872652
0.033989 -0.215255 0.872223
0.035457 -0.215213 0.872049
0.036930 -0.215208 0.872032
0.038409 -0.215232 0.872129
0.039885 -0.215241 0.872166
0.041372 -0.215306 0.872429
0.042855 -0.215347 0.872596
0.044318 -0.215290 0.872362
0.045779 -0.215223 0.872093
0.047233 -0.215133 0.871726
0.048682 -0.215021 0.871272
0.050130 -0.214916 0.870849
0.051591 -0.214869 0.870657
0.053062 -0.214865 0.870639
0.054539 -0.214885 0.870721
0.056033 -0.214971 0.871071
0.057530 -0.215063 0.871444
0.059030 -0.215157 0.871824
0.060528 -0.215244 0.872177
0.061991 -0.215206 0.872021
0.063439 -0.215115 0.871656
0.064883 -0.215018 0.871259
0.066327 -0.214925 0.870885
0.067768 -0.214824 0.870475
0.069259 -0.214885 0.870723
0.070753 -0.214953 0.870998
0.072263 -0.215065 0.871450
0.073796 -0.215237 0.872149
0.075338 -0.215432 0.872941
0.076871 -0.215591 0.873584
0.078381 -0.215683 0.873955
0.079880 -0.215741 0.874191
0.081377 -0.215792 0.874399
0.082879 -0.215855 0.874653
0.084389 -0.215934 0.874972
0.085922 -0.216070 0.875525
0.087456 -0.216204 0.876067
0.088999 -0.216354 0.876676
0.090538 -0.216490 0.877226
0.092089 -0.216650 0.877872
0.093667 -0.216867 0.878755
0.095248 -0.217086 0.879639
0.096808 -0.217248 0.880295
0.098366 -0.217403 0.880926
0.099924 -0.217552 0.881529
0.101484 -0.217702 0.882137
0.103080 -0.217922 0.883030
0.104705 -0.218199 0.884152
0.106357 -0.218522 0.885458
0.108021 -0.218860 0.886830
0.109666 -0.219151 0.888010
0.111302 -0.219417 0.889084
0.112931 -0.219662 0.890081
0.114575 -0.219929 0.891162
0.116260 -0.220267 0.892531
0.117989 -0.220680 0.894205
0.119766 -0.221170 0.896191
0.121573 -0.221702 0.898345
0.123399 -0.222256 0.900590
0.125196 -0.222745 0.902570
0.127002 -0.223237 0.904563
0.128790 -0.223685 0.906382
0.130857 -0.224604 0.910105
0.133101 -0.225800 0.914950
0.135383 -0.227034 0.919949
0.137395 -0.229355 0.923014
0.137589 -0.228113 0.924321
-0.049576 -0.232237 0.947542
-0.047838 -0.231575 0.944840
-0.046117 -0.230958 0.942323
-0.044398 -0.230303 0.939652
-0.042696 -0.229693 0.937163
-0.041000 -0.229068 0.934611
-0.039322 -0.228500 0.932294
-0.037669 -0.228031 0.930381
-0.036009 -0.227482 0.928139
-0.034344 -0.226852 0.925571
-0.032674 -0.226119 0.922579
-0.031006 -0.225335 0.919382
-0.029351 -0.224562 0.916226
-0.027722 -0.223919 0.913604
-0.026110 -0.223338 0.911233
-0.024513 -0.222827 0.909149
-0.022932 -0.222398 0.907396
-0.021355 -0.221953 0.905582
-0.019783 -0.221494 0.903711
-0.018227 -0.221145 0.902284
-0.016683 -0.220903 0.901298
-0.015138 -0.220593 0.900032
-0.013603 -0.220367 0.899113
-0.012070 -0.220136 0.898169
-0.010535 -0.219795 0.896779
-0.009005 -0.219448 0.895360
-0.007482 -0.219184 0.894286
-0.005961 -0.218853 0.892935
-0.004447 -0.218628 0.892017
-0.002938 -0.218508 0.891528
-0.001428 -0.218186 0.890214
0.000076 -0.217810 0.888680
0.001577 -0.217516 0.887480
0.003072 -0.217192 0.886156
0.004563 -0.216828 0.884672
0.006052 -0.216610 0.883783
0.007541 -0.216445 0.883110
0.009024 -0.216226 0.882218
0.010508 -0.216054 0.881514
0.011988 -0.215885 0.880826
0.013470 -0.215772 0.880365
0.014951 -0.215658 0.879898
0.016432 -0.215570 0.879538
0.017912 -0.215487 0.879199
0.019394 -0.215444 0.879026
0.020870 -0.215338 0.878594
0.022342 -0.215207 0.878057
0.023804 -0.215007 0.877242
0.025263 -0.214805 0.876418
0.026717 -0.214585 0.875520
0.028169 -0.214370 0.874642
0.029621 -0.214174 0.873844
0.031075 -0.214018 0.873207
0.032535 -0.213907 0.872753
0.033994 -0.213804 0.872334
0.035465 -0.213782 0.872242
0.036939 -0.213781 0.872241
0.038421 -0.213821 0.872405
0.039897 -0.213826 0.872425
0.041380 -0.213868 0.872596
0.042855 -0.213870 0.872602
0.044317 -0.213807 0.872348
0.045773 -0.213719 0.871986
0.047227 -0.213626 0.871606
0.048676 -0.213517 0.871164
0.050128 -0.213433 0.870819
0.051590 -0.213390 0.870646
0.053067 -0.213409 0.870721
0.054550 -0.213453 0.870900
0.056051 -0.213562 0.871345
0.057555 -0.213676 0.871810
0.059059 -0.213785 0.872255
0.060552 -0.213849 0.872518
0.062014 -0.213807 0.872348
0.063462 -0.213717 0.871979
0.064907 -0.213621 0.871586
0.066353 -0.213530 0.871218
0.067800 -0.213449 0.870885
0.069292 -0.213511 0.871140
0.070788 -0.213581 0.871424
0.072293 -0.213677 0.871815
0.073827 -0.213850 0.872521
0.075370 -0.214044 0.873313
0.076904 -0.214202 0.873960
0.078415 -0.214295 0.874338
0.079922 -0.214373 0.874656
0.081422 -0.214427 0.874876
0.082933 -0.214510 0.875215
0.084442 -0.214586 0.875526
0.085985 -0.214743 0.876165
0.087527 -0.214892 0.876772
0.089071 -0.215040 0.877378
0.090602 -0.215155 0.877845
0.092144 -0.215291 0.878400
0.093714 -0.215485 0.879192
0.095287 -0.215681 0.879994
0.096837 -0.215822 0.880566
0.098387 -0.215955 0.881109
0.099953 -0.216121 0.881789
0.101514 -0.216270 0.882397
0.103122 -0.216514 0.883392
0.104768 -0.216831 0.884682
0.106441 -0.217192 0.886157
0.108107 -0.217531 0.887540
0.109764 -0.217841 0.888805
0.111393 -0.218088 0.889814
0.113034 -0.218353 0.890896
0.114705 -0.218668 0.892179
0.116431 -0.219076 0.893845
0.118190 -0.219537 0.895724
0.120004 -0.220086 0.897966
0.121804 -0.220598 0.900052
0.123609 -0.221104 0.902117
0.125371 -0.221523 0.903828
0.127137 -0.221939 0.905523
0.128971 -0.222462 0.907657
0.131049 -0.223388 0.911438
0.133316 -0.224612 0.916430
0.135619 -0.225866 0.921548
0.137852 -0.226978 0.926084
-0.051448 -0.231846 0.952534
-0.049654 -0.230995 0.949037
-0.047896 -0.230254 0.945995
-0.046168 -0.229616 0.943373
-0.044448 -0.228967 0.940707
-0.042740 -0.228339 0.938128
-0.041045 -0.227734 0.935639
-0.039361 -0.227142 0.933210
-0.037698 -0.226631 0.931107
-0.036036 -0.226080 0.928844
-0.034371 -0.225456 0.926279
-0.032699 -0.224730 0.923297
-0.031027 -0.223930 0.920010
-0.029368 -0.223137 0.916755
-0.027734 -0.222469 0.914008
-0.026121 -0.221886 0.911615
-0.024521 -0.221355 0.909431
-0.022939 -0.220928 0.907678
-0.021362 -0.220485 0.905857
-0.019787 -0.220009 0.903900
-0.018228 -0.219637 0.902374
-0.016681 -0.219356 0.901218
-0.015137 -0.219045 0.899943
-0.013601 -0.218821 0.899021
-0.012069 -0.218592 0.898080
-0.010535 -0.218275 0.896778
-0.009006 -0.217951 0.895448
-0.007483 -0.217691 0.894380
-0.005963 -0.217382 0.893110
-0.004448 -0.217161 0.892200
-0.002938 -0.217020 0.891624
-0.001429 -0.216719 0.890386
0.000076 -0.216367 0.888938
0.001577 -0.216060 0.887680
0.003073 -0.215742 0.886372
0.004564 -0.215400 0.884968
0.006054 -0.215181 0.884068
0.007542 -0.214999 0.883319
0.009027 -0.214798 0.882493
0.010512 -0.214646 0.881870
0.011992 -0.214459 0.881101
0.013473 -0.214327 0.880560
0.014954 -0.214210 0.880079
0.016435 -0.214119 0.879703
0.017915 -0.214036 0.879364
0.019400 -0.214017 0.879285
0.020876 -0.213914 0.878862
0.022350 -0.213802 0.878400
0.023811 -0.213583 0.877500
0.025268 -0.213361 0.876591
0.026720 -0.213123 0.875611
0.028172 -0.212908 0.874730
0.029621 -0.212696 0.873856
0.031079 -0.212561 0.873300
0.032538 -0.212451 0.872852
0.034001 -0.212370 0.872516
0.035473 -0.212350 0.872434
0.036947 -0.212349 0.872432
0.038429 -0.212387 0.872588
0.039905 -0.212391 0.872603
0.041384 -0.212412 0.872689
0.042859 -0.212410 0.872681
0.044321 -0.212344 0.872411
0.045772 -0.212236 0.871965
0.047230 -0.212161 0.871657
0.048679 -0.212055 0.871224
0.050132 -0.211973 0.870888
0.051595 -0.211933 0.870721
0.053076 -0.211971 0.870879
0.054561 -0.212021 0.871082
0.056064 -0.212134 0.871549
0.057568 -0.212246 0.872006
0.059071 -0.212350 0.872434
0.060557 -0.212391 0.872602
0.062020 -0.212349 0.872432
0.063475 -0.212282 0.872157
0.064928 -0.212210 0.871861
0.066381 -0.212143 0.871586
0.067835 -0.212083 0.871337
0.069328 -0.212143 0.871586
0.070823 -0.212210 0.871861
0.072335 -0.212322 0.872322
0.073877 -0.212513 0.873106
0.075422 -0.212709 0.873909
0.076963 -0.212886 0.874636
0.078483 -0.212999 0.875100
0.079994 -0.213082 0.875445
0.081489 -0.213120 0.875599
0.083009 -0.213224 0.876026
0.084520 -0.213299 0.876336
0.086064 -0.213453 0.876966
0.087598 -0.213580 0.877488
0.089142 -0.213724 0.878079
0.090664 -0.213813 0.878447
0.092190 -0.213907 0.878832
0.093750 -0.214077 0.879530
0.095314 -0.214251 0.880244
0.096856 -0.214370 0.880734
0.098396 -0.214482 0.881195
0.099972 -0.214667 0.881955
0.101535 -0.214819 0.882579
0.103155 -0.215086 0.883675
0.104822 -0.215442 0.885137
0.106506 -0.215822 0.886702
0.108184 -0.216179 0.888168
0.109863 -0.216529 0.889604
0.111505 -0.216798 0.890712
0.113163 -0.217090 0.891910
0.114873 -0.217472 0.893478
0.116626 -0.217926 0.895345
0.118392 -0.218392 0.897260
0.120222 -0.218961 0.899598
0.122024 -0.219467 0.901676
0.123808 -0.219929 0.903574
0.125547 -0.220300 0.905097
0.127297 -0.220680 0.906660
0.129158 -0.221243 0.908972
0.131269 -0.222215 0.912967
0.133549 -0.223449 0.918034
0.135845 -0.224679 0.923090
0.138076 -0.225774 0.927589
-0.055046 -0.233449 0.959119
-0.056810 -0.232405 0.961527
-0.055059 -0.231877 0.959343
-0.053248 -0.232677 0.955948
-0.053287 -0.231226 0.956651
-0.051511 -0.230513 0.953701
-0.049725 -0.229713 0.950389
-0.047967 -0.228987 0.947388
-0.046232 -0.228331 0.944673
-0.044510 -0.227690 0.942022
-0.042796 -0.227048 0.939365
-0.041099 -0.226449 0.936887
-0.039412 -0.225856 0.934433
-0.037739 -0.225298 0.932123
-0.036071 -0.224725 0.929753
-0.034408 -0.224126 0.927276
-0.032734 -0.223405 0.924293
-0.031061 -0.222614 0.921020
-0.029399 -0.221823 0.917748
-0.027761 -0.221133 0.914894
-0.026140 -0.220507 0.912301
-0.024536 -0.219953 0.910012
-0.022949 -0.219488 0.908085
-0.021369 -0.219024 0.906165
-0.019792 -0.218526 0.904104
-0.018230 -0.218132 0.902474
-0.016682 -0.217828 0.901218
-0.015138 -0.217537 0.900016
-0.013602 -0.217316 0.899098
-0.012070 -0.217089 0.898162
-0.010537 -0.216796 0.896949
-0.009008 -0.216477 0.895629
-0.007484 -0.216202 0.894489
-0.005964 -0.215915 0.893306
-0.004449 -0.215696 0.892398
-0.002938 -0.215536 0.891736
-0.001429 -0.215256 0.890576
0.000077 -0.214925 0.889209
0.001578 -0.214624 0.887964
0.003075 -0.214331 0.886752
0.004567 -0.214034 0.885520
0.006058 -0.213818 0.884629
0.007547 -0.213618 0.883799
0.009032 -0.213413 0.882951
0.010517 -0.213256 0.882303
0.011996 -0.213028 0.881361
0.013476 -0.212877 0.880734
0.014957 -0.212758 0.880244
0.016436 -0.212647 0.879783
0.017915 -0.212546 0.879364
0.019402 -0.212546 0.879364
0.020878 -0.212445 0.878947
0.022352 -0.212334 0.878488
0.023815 -0.212135 0.877665
0.025273 -0.211915 0.876755
0.026725 -0.211677 0.875771
0.028180 -0.211483 0.874968
0.029632 -0.211291 0.874173
0.031093 -0.211178 0.873703
0.032554 -0.211071 0.873264
0.034017 -0.210991 0.872930
0.035492 -0.210989 0.872921
0.036968 -0.210989 0.872921
0.038448 -0.211011 0.873014
0.039924 -0.211015 0.873030
0.041400 -0.211014 0.873028
0.042867 -0.210971 0.872850
0.044325 -0.210886 0.872496
0.045776 -0.210777 0.872046
0.047235 -0.210709 0.871763
0.048690 -0.210625 0.871415
0.050148 -0.210563 0.871160
0.051615 -0.210539 0.871062
0.053098 -0.210578 0.871224
0.054588 -0.210645 0.871502
0.056086 -0.210740 0.871893
0.057585 -0.210830 0.872264
0.059082 -0.210911 0.872602
0.060563 -0.210930 0.872680
0.062027 -0.210891 0.872518
0.063489 -0.210848 0.872341
0.064950 -0.210804 0.872157
0.066411 -0.210761 0.871979
0.067872 -0.210722 0.871817
0.069359 -0.210761 0.871979
0.070847 -0.210804 0.872157
0.072358 -0.210908 0.872588
0.073899 -0.211096 0.873366
0.075445 -0.211291 0.874174
0.076995 -0.211491 0.875002
0.078531 -0.211644 0.875632
0.080059 -0.211768 0.876146
0.081563 -0.211829 0.876397
0.083094 -0.211956 0.876922
0.084606 -0.212029 0.877224
0.086143 -0.212161 0.877773
0.087662 -0.212246 0.878123
0.089190 -0.212350 0.878553
0.090703 -0.212415 0.878824
0.092227 -0.212502 0.879185
0.093778 -0.212649 0.879792
0.095333 -0.212800 0.880418
0.096874 -0.212917 0.880899
0.098414 -0.213027 0.881355
0.100000 -0.213232 0.882201
0.101575 -0.213408 0.882930
0.103208 -0.213698 0.884130
0.104878 -0.214056 0.885612
0.106563 -0.214434 0.887178
0.108252 -0.214808 0.888724
0.109945 -0.215182 0.890271
0.111612 -0.215494 0.891563
0.113317 -0.215871 0.893121
0.115051 -0.216293 0.894868
0.116800 -0.216732 0.896683
0.118580 -0.217215 0.898681
0.120412 -0.217781 0.901022
0.122218 -0.218285 0.903109
0.123993 -0.218724 0.904925
0.125731 -0.219086 0.906423
0.127492 -0.219479 0.908049
0.129411 -0.220134 0.910757
0.131499 -0.221054 0.914565
0.133757 -0.222237 0.919461
0.136011 -0.223387 0.924217
0.138179 -0.224369 0.928281
-0.056821 -0.230820 0.961716
-0.055074 -0.230314 0.959605
-0.053304 -0.229674 0.956941
-0.051541 -0.229030 0.954255
-0.049768 -0.228295 0.951195
-0.048021 -0.227638 0.948458
-0.046287 -0.226998 0.945789
-0.044572 -0.226412 0.943348
-0.042861 -0.225799 0.940795
-0.041166 -0.225226 0.938408
-0.039468 -0.224590 0.935759
-0.037785 -0.223989 0.933252
-0.036110 -0.223390 0.930756
-0.034441 -0.222768 0.928167
-0.032766 -0.222055 0.925194
-0.031095 -0.221292 0.922017
-0.029434 -0.220529 0.918837
-0.027791 -0.219819 0.915879
-0.026168 -0.219191 0.913261
-0.024560 -0.218621 0.910887
-0.022971 -0.218156 0.908948
-0.021387 -0.217672 0.906935
-0.019808 -0.217169 0.904840
-0.018241 -0.216732 0.903015
-0.016688 -0.216384 0.901566
-0.015142 -0.216073 0.900273
-0.013605 -0.215832 0.899266
-0.012072 -0.215610 0.898343
-0.010540 -0.215342 0.897225
-0.009011 -0.215047 0.895995
-0.007487 -0.214775 0.894865
-0.005967 -0.214510 0.893761
-0.004451 -0.214292 0.892852
-0.002940 -0.214114 0.892110
-0.001430 -0.213834 0.890941
0.000077 -0.213524 0.889650
0.001578 -0.213247 0.888495
0.003076 -0.212959 0.887295
0.004571 -0.212704 0.886232
0.006063 -0.212493 0.885354
0.007552 -0.212274 0.884445
0.009037 -0.212030 0.883427
0.010521 -0.211847 0.882662
0.011999 -0.211596 0.881616
0.013480 -0.211443 0.880979
0.014960 -0.211308 0.880418
0.016439 -0.211197 0.879957
0.017918 -0.211095 0.879529
0.019403 -0.211074 0.879443
0.020878 -0.210955 0.878947
0.022352 -0.210845 0.878488
0.023818 -0.210668 0.877749
0.025278 -0.210470 0.876927
0.026731 -0.210236 0.875952
0.028188 -0.210063 0.875229
0.029643 -0.209889 0.874507
0.031105 -0.209781 0.874054
0.032567 -0.209678 0.873626
0.034034 -0.209616 0.873369
0.035507 -0.209594 0.873277
0.036980 -0.209574 0.873192
0.038460 -0.209596 0.873285
0.039933 -0.209582 0.873227
0.041406 -0.209565 0.873155
0.042873 -0.209517 0.872957
0.044334 -0.209450 0.872675
0.045787 -0.209346 0.872243
0.047252 -0.209303 0.872063
0.048712 -0.209242 0.871809
0.050175 -0.209200 0.871633
0.051642 -0.209173 0.871522
0.053125 -0.209209 0.871672
0.054610 -0.209254 0.871861
0.056103 -0.209325 0.872157
0.057596 -0.209391 0.872432
0.059087 -0.209451 0.872680
0.060563 -0.209451 0.872680
0.062032 -0.209432 0.872602
0.063502 -0.209412 0.872518
0.064970 -0.209391 0.872432
0.066439 -0.209371 0.872348
0.067907 -0.209352 0.872270
0.069388 -0.209371 0.872348
0.070876 -0.209410 0.872510
0.072386 -0.209511 0.872931
0.073928 -0.209699 0.873714
0.075477 -0.209898 0.874544
0.077036 -0.210118 0.875460
0.078580 -0.210290 0.876176
0.080116 -0.210433 0.876774
0.081630 -0.210517 0.877122
0.083163 -0.210643 0.877648
0.084676 -0.210715 0.877948
0.086213 -0.210844 0.878486
0.087733 -0.210929 0.878840
0.089254 -0.211012 0.879185
0.090768 -0.211076 0.879451
0.092291 -0.211159 0.879799
0.093825 -0.211265 0.880238
0.095362 -0.211374 0.880692
0.096903 -0.211486 0.881160
0.098452 -0.211614 0.881693
0.100041 -0.211822 0.882558
0.101637 -0.212040 0.883469
0.103282 -0.212351 0.884763
0.104953 -0.212707 0.886245
0.106630 -0.213063 0.887729
0.108320 -0.213436 0.889285
0.110016 -0.213810 0.890844
0.111708 -0.214168 0.892334
0.113440 -0.214589 0.894090
0.115199 -0.215052 0.896017
0.116970 -0.215524 0.897984
0.118762 -0.216022 0.900059
0.120596 -0.216583 0.902398
0.122404 -0.217085 0.904488
0.124195 -0.217543 0.906395
0.125950 -0.217928 0.908000
0.127744 -0.218372 0.909848
0.129726 -0.219122 0.912974
0.131799 -0.220005 0.916654
0.133961 -0.221016 0.920864
0.136121 -0.221998 0.924959
0.138179 -0.222796 0.928282
-0.058565 -0.229652 0.963655
-0.056812 -0.229151 0.961554
-0.055065 -0.228649 0.959448
-0.053285 -0.227973 0.956611
-0.051521 -0.227323 0.953881
-0.049771 -0.226697 0.951253
-0.048054 -0.226188 0.949118
-0.046338 -0.225646 0.946844
-0.044636 -0.225132 0.944686
-0.042936 -0.224592 0.942422
-0.041238 -0.224026 0.940045
-0.039533 -0.223370 0.937294
-0.037841 -0.222738 0.934644
-0.036156 -0.222091 0.931929
-0.034477 -0.221427 0.929141
-0.032801 -0.220718 0.926167
-0.031131 -0.219984 0.923088
-0.029469 -0.219228 0.919914
-0.027824 -0.218524 0.916959
-0.026199 -0.217898 0.914334
-0.024588 -0.217328 0.911940
-0.022993 -0.216824 0.909827
-0.021405 -0.216321 0.907717
-0.019823 -0.215798 0.905519
-0.018253 -0.215337 0.903585
-0.016695 -0.214948 0.901954
-0.015148 -0.214638 0.900652
-0.013609 -0.214378 0.899564
-0.012076 -0.214158 0.898639
-0.010544 -0.213891 0.897519
-0.009015 -0.213619 0.896376
-0.007490 -0.213330 0.895164
-0.005969 -0.213085 0.894138
-0.004453 -0.212848 0.893142
-0.002940 -0.212650 0.892310
-0.001430 -0.212370 0.891137
0.000077 -0.212083 0.889931
0.001579 -0.211810 0.888786
0.003078 -0.211565 0.887757
0.004574 -0.211333 0.886787
0.006067 -0.211124 0.885910
0.007557 -0.210907 0.884997
0.009042 -0.210642 0.883886
0.010525 -0.210418 0.882944
0.012003 -0.210165 0.881883
0.013483 -0.209994 0.881166
0.014961 -0.209842 0.880527
0.016441 -0.209731 0.880063
0.017920 -0.209626 0.879624
0.019402 -0.209566 0.879370
0.020876 -0.209445 0.878862
0.022350 -0.209335 0.878400
0.023818 -0.209180 0.877751
0.025281 -0.209009 0.877032
0.026737 -0.208801 0.876161
0.028197 -0.208648 0.875519
0.029656 -0.208498 0.874887
0.031119 -0.208391 0.874441
0.032582 -0.208291 0.874021
0.034053 -0.208249 0.873844
0.035525 -0.208223 0.873735
0.036995 -0.208182 0.873563
0.038472 -0.208185 0.873574
0.039942 -0.208149 0.873423
0.041411 -0.208108 0.873253
0.042874 -0.208042 0.872975
0.044339 -0.207994 0.872774
0.045797 -0.207912 0.872432
0.047267 -0.207892 0.872348
0.048733 -0.207854 0.872186
0.050202 -0.207832 0.872093
0.051670 -0.207808 0.871995
0.053149 -0.207825 0.872063
0.054629 -0.207847 0.872157
0.056115 -0.207891 0.872341
0.057601 -0.207933 0.872518
0.059087 -0.207972 0.872680
0.060563 -0.207972 0.872680
0.062038 -0.207972 0.872680
0.063519 -0.207990 0.872759
0.064995 -0.207992 0.872765
0.066471 -0.207992 0.872767
0.067946 -0.207992 0.872765
0.069433 -0.208028 0.872916
0.070923 -0.208070 0.873091
0.072442 -0.208193 0.873609
0.073994 -0.208403 0.874490
0.075552 -0.208622 0.875410
0.077105 -0.208822 0.876248
0.078650 -0.208992 0.876961
0.080188 -0.209135 0.877560
0.081698 -0.209202 0.877842
0.083224 -0.209310 0.878295
0.084737 -0.209379 0.878586
0.086273 -0.209501 0.879100
0.087795 -0.209587 0.879457
0.089318 -0.209671 0.879813
0.090834 -0.209737 0.880088
0.092357 -0.209819 0.880432
0.093884 -0.209904 0.880791
0.095413 -0.209992 0.881158
0.096961 -0.210119 0.881689
0.098530 -0.210287 0.882394
0.100132 -0.210519 0.883368
0.101743 -0.210762 0.884391
0.103389 -0.211070 0.885680
0.105049 -0.211397 0.887052
0.106704 -0.211705 0.888344
0.108383 -0.212053 0.889806
0.110082 -0.212428 0.891379
0.111790 -0.212811 0.892988
0.113535 -0.213253 0.894843
0.115310 -0.213739 0.896879
0.117093 -0.214227 0.898927
0.118896 -0.214739 0.901076
0.120732 -0.215296 0.903414
0.122544 -0.215797 0.905518
0.124362 -0.216298 0.907617
0.126162 -0.216753 0.909530
0.128007 -0.217275 0.911717
0.130061 -0.218135 0.915329
0.132116 -0.218976 0.918855
0.134173 -0.219802 0.922323
0.136220 -0.220591 0.925634
-0.060328 -0.230165 0.965807
-0.058568 -0.228030 0.963703
-0.056820 -0.227553 0.961689
-0.055072 -0.227051 0.959566
-0.053295 -0.226395 0.956794
-0.051541 -0.225798 0.954269
-0.049803 -0.225229 0.951867
-0.048097 -0.224779 0.949965
-0.046399 -0.224335 0.948089
-0.044709 -0.223899 0.946245
-0.043012 -0.223392 0.944102
-0.041311 -0.222828 0.941719
-0.039598 -0.222148 0.938843
-0.037891 -0.221446 0.935876
-0.036194 -0.220749 0.932930
-0.034509 -0.220061 0.930024
-0.032835 -0.219377 0.927134
-0.031167 -0.218673 0.924158
-0.029509 -0.217969 0.921182
-0.027865 -0.217289 0.918311
-0.026237 -0.216667 0.915679
-0.024624 -0.216096 0.913268
-0.023025 -0.215575 0.911066
-0.021432 -0.215053 0.908860
-0.019846 -0.214512 0.906572
-0.018272 -0.214031 0.904542
-0.016708 -0.213582 0.902645
-0.015158 -0.213247 0.901228
-0.013615 -0.212945 0.899950
-0.012080 -0.212704 0.898934
-0.010547 -0.212438 0.897810
-0.009019 -0.212191 0.896762
-0.007492 -0.211883 0.895462
-0.005972 -0.211659 0.894516
-0.004455 -0.211418 0.893499
-0.002941 -0.211202 0.892585
-0.001430 -0.210924 0.891410
0.000077 -0.210657 0.890282
0.001580 -0.210390 0.889151
0.003080 -0.210171 0.888228
0.004577 -0.209963 0.887348
0.006071 -0.209771 0.886539
0.007562 -0.209554 0.885620
0.009048 -0.209289 0.884499
0.010530 -0.209028 0.883397
0.012009 -0.208773 0.882321
0.013488 -0.208585 0.881523
0.014966 -0.208416 0.880811
0.016445 -0.208287 0.880265
0.017924 -0.208178 0.879803
0.019403 -0.208093 0.879446
0.020878 -0.207972 0.878932
0.022352 -0.207863 0.878474
0.023822 -0.207731 0.877915
0.025288 -0.207584 0.877293
0.026748 -0.207402 0.876523
0.028212 -0.207274 0.875983
0.029677 -0.207162 0.875512
0.031144 -0.207077 0.875149
0.032611 -0.206997 0.874814
0.034084 -0.206956 0.874642
0.035555 -0.206913 0.874456
0.037018 -0.206830 0.874107
0.038491 -0.206802 0.873991
0.039953 -0.206724 0.873661
0.041418 -0.206664 0.873405
0.042881 -0.206598 0.873125
0.044351 -0.206570 0.873008
0.045810 -0.206492 0.872680
0.047285 -0.206492 0.872680
0.048756 -0.206474 0.872602
0.050226 -0.206454 0.872518
0.051696 -0.206433 0.872432
0.053171 -0.206432 0.872426
0.054646 -0.206433 0.872432
0.056126 -0.206454 0.872518
0.057607 -0.206474 0.872602
0.059093 -0.206511 0.872759
0.060569 -0.206512 0.872765
0.062050 -0.206531 0.872846
0.063538 -0.206571 0.873012
0.065020 -0.206592 0.873102
0.066497 -0.206595 0.873113
0.067985 -0.206631 0.873265
0.069481 -0.206689 0.873510
0.070980 -0.206754 0.873787
0.072516 -0.206922 0.874496
0.074078 -0.207155 0.875482
0.075637 -0.207373 0.876401
0.077184 -0.207549 0.877144
0.078729 -0.207713 0.877837
0.080253 -0.207816 0.878273
0.081757 -0.207865 0.878480
0.083276 -0.207949 0.878838
0.084796 -0.208033 0.879192
0.086325 -0.208136 0.879627
0.087848 -0.208223 0.879993
0.089374 -0.208311 0.880365
0.090899 -0.208396 0.880726
0.092426 -0.208480 0.881081
0.093953 -0.208564 0.881435
0.095482 -0.208650 0.881797
0.097049 -0.208813 0.882488
0.098632 -0.209005 0.883301
0.100240 -0.209246 0.884320
0.101855 -0.209492 0.885359
0.103498 -0.209789 0.886615
0.105136 -0.210068 0.887793
0.106768 -0.210326 0.888884
0.108448 -0.210670 0.890335
0.110146 -0.211039 0.891896
0.111865 -0.211439 0.893586
0.113614 -0.211883 0.895463
0.115391 -0.212369 0.897514
0.117167 -0.212838 0.899497
0.118973 -0.213350 0.901663
0.120800 -0.213886 0.903927
0.122638 -0.214427 0.906213
0.124497 -0.214992 0.908602
0.126367 -0.215561 0.911005
0.128286 -0.216201 0.913710
0.130325 -0.217023 0.917185
0.132324 -0.217762 0.920308
0.134262 -0.218383 0.922932
0.136173 -0.218947 0.925315
-0.058603 -0.226533 0.964285
-0.056856 -0.226068 0.962304
-0.055100 -0.225538 0.960050
-0.053317 -0.224866 0.957190
-0.051569 -0.224299 0.954775
-0.049845 -0.223805 0.952673
-0.048153 -0.223430 0.951077
-0.046461 -0.223024 0.949350
-0.044784 -0.222666 0.947822
-0.043097 -0.222231 0.945974
-0.041390 -0.221652 0.943508
-0.039665 -0.220926 0.940419
-0.037945 -0.220171 0.937203
-0.036234 -0.219404 0.933940
-0.034536 -0.218653 0.930742
-0.032860 -0.217975 0.927857
-0.031197 -0.217318 0.925058
-0.029545 -0.216664 0.922275
-0.027902 -0.216016 0.919518
-0.026272 -0.215397 0.916884
-0.024656 -0.214826 0.914452
-0.023052 -0.214282 0.912135
-0.021455 -0.213742 0.909836
-0.019867 -0.213203 0.907544
-0.018290 -0.212706 0.905429
-0.016724 -0.212255 0.903507
-0.015171 -0.211898 0.901988
-0.013625 -0.211570 0.900591
-0.012087 -0.211308 0.899475
-0.010553 -0.211021 0.898256
-0.009023 -0.210756 0.897127
-0.007494 -0.210431 0.895741
-0.005973 -0.210188 0.894708
-0.004456 -0.209947 0.893682
-0.002942 -0.209731 0.892765
-0.001430 -0.209434 0.891499
0.000077 -0.209190 0.890461
0.001580 -0.208945 0.889420
0.003081 -0.208733 0.888515
0.004579 -0.208548 0.887728
0.006074 -0.208380 0.887011
0.007567 -0.208180 0.886161
0.009053 -0.207918 0.885044
0.010536 -0.207639 0.883859
0.012015 -0.207385 0.882775
0.013495 -0.207194 0.881963
0.014972 -0.207007 0.881167
0.016450 -0.206858 0.880532
0.017929 -0.206748 0.880067
0.019407 -0.206642 0.879613
0.020882 -0.206519 0.879092
0.022356 -0.206412 0.878634
0.023831 -0.206322 0.878253
0.025301 -0.206199 0.877727
0.026766 -0.206057 0.877126
0.028235 -0.205951 0.876673
0.029704 -0.205861 0.876291
0.031173 -0.205779 0.875940
0.032644 -0.205720 0.875690
0.034118 -0.205680 0.875520
0.035587 -0.205618 0.875255
0.037048 -0.205512 0.874806
0.038514 -0.205443 0.874511
0.039972 -0.205338 0.874062
0.041433 -0.205255 0.873711
0.042893 -0.205174 0.873364
0.044360 -0.205130 0.873177
0.045818 -0.205051 0.872843
0.047289 -0.205031 0.872759
0.048765 -0.205031 0.872759
0.050241 -0.205033 0.872765
0.051721 -0.205052 0.872846
0.053201 -0.205071 0.872927
0.054682 -0.205090 0.873008
0.056153 -0.205073 0.872936
0.057629 -0.205072 0.872930
0.059110 -0.205089 0.873006
0.060580 -0.205073 0.872937
0.062063 -0.205095 0.873028
0.063557 -0.205155 0.873286
0.065047 -0.205198 0.873468
0.066526 -0.205205 0.873496
0.068027 -0.205278 0.873809
0.069538 -0.205377 0.874230
0.071054 -0.205487 0.874697
0.072602 -0.205683 0.875532
0.074165 -0.205915 0.876519
0.075718 -0.206109 0.877345
0.077250 -0.206238 0.877894
0.078780 -0.206359 0.878410
0.080296 -0.206438 0.878747
0.081806 -0.206500 0.879011
0.083326 -0.206583 0.879365
0.084847 -0.206666 0.879719
0.086377 -0.206770 0.880158
0.087902 -0.206856 0.880527
0.089429 -0.206945 0.880906
0.090964 -0.207050 0.881353
0.092501 -0.207155 0.881797
0.094030 -0.207240 0.882160
0.095569 -0.207344 0.882602
0.097149 -0.207531 0.883398
0.098745 -0.207747 0.884319
0.100359 -0.207993 0.885366
0.101984 -0.208255 0.886481
0.103617 -0.208526 0.887636
0.105224 -0.208737 0.888531
0.106835 -0.208949 0.889437
0.108503 -0.209268 0.890792
0.110181 -0.209595 0.892184
0.111900 -0.209989 0.893863
0.113658 -0.210447 0.895810
0.115437 -0.210930 0.897867
0.117226 -0.211420 0.899952
0.119047 -0.211953 0.902220
0.120888 -0.212508 0.904584
0.122764 -0.213110 0.907146
0.124665 -0.213740 0.909830
0.126582 -0.214381 0.912555
0.128560 -0.215109 0.915655
0.130590 -0.215907 0.919054
0.132549 -0.216569 0.921870
0.134387 -0.217020 0.923792
0.137406 -0.219347 0.933696
-0.056849 -0.224410 0.962192
-0.055102 -0.223919 0.960083
-0.053327 -0.223282 0.957354
-0.051582 -0.222738 0.955023
-0.049868 -0.222292 0.953110
-0.048186 -0.221969 0.951726
-0.046512 -0.221660 0.950402
-0.044853 -0.221401 0.949291
-0.043179 -0.221044 0.947757
-0.041472 -0.220490 0.945382
-0.039735 -0.219719 0.942075
-0.037998 -0.218892 0.938530
-0.036276 -0.218075 0.935027
-0.034569 -0.217281 0.931623
-0.032892 -0.216609 0.928744
-0.031234 -0.216004 0.926151
-0.029583 -0.215381 0.923477
-0.027938 -0.214740 0.920728
-0.026306 -0.214122 0.918079
-0.024686 -0.213530 0.915542
-0.023078 -0.212983 0.913196
-0.021482 -0.212467 0.910982
-0.019894 -0.211952 0.908774
-0.018315 -0.211459 0.906662
-0.016747 -0.211007 0.904725
-0.015188 -0.210606 0.903006
-0.013637 -0.210236 0.901418
-0.012097 -0.209951 0.900194
-0.010560 -0.209645 0.898883
-0.009029 -0.209380 0.897745
-0.007500 -0.209056 0.896359
-0.005977 -0.208813 0.895315
-0.004458 -0.208554 0.894206
-0.002943 -0.208320 0.893202
-0.001431 -0.207987 0.891773
0.000077 -0.207740 0.890717
0.001581 -0.207497 0.889672
0.003082 -0.207288 0.888779
0.004581 -0.207127 0.888088
0.006078 -0.207001 0.887546
0.007572 -0.206825 0.886794
0.009061 -0.206590 0.885783
0.010544 -0.206311 0.884591
0.012025 -0.206056 0.883496
0.013504 -0.205841 0.882573
0.014981 -0.205634 0.881687
0.016459 -0.205468 0.880974
0.017937 -0.205339 0.880423
0.019413 -0.205213 0.879881
0.020888 -0.205091 0.879356
0.022363 -0.204987 0.878912
0.023839 -0.204903 0.878550
0.025314 -0.204817 0.878182
0.026785 -0.204715 0.877745
0.028257 -0.204629 0.877379
0.029731 -0.204564 0.877098
0.031204 -0.204502 0.876833
0.032678 -0.204446 0.876591
0.034153 -0.204405 0.876418
0.035620 -0.204324 0.876068
0.037075 -0.204178 0.875442
0.038537 -0.204085 0.875045
0.039992 -0.203959 0.874505
0.041450 -0.203861 0.874083
0.042911 -0.203779 0.873731
0.044378 -0.203733 0.873535
0.045832 -0.203633 0.873108
0.047298 -0.203591 0.872927
0.048778 -0.203608 0.873000
0.050251 -0.203595 0.872943
0.051732 -0.203617 0.873037
0.053213 -0.203636 0.873121
0.054699 -0.203673 0.873277
0.056166 -0.203638 0.873129
0.057647 -0.203656 0.873206
0.059134 -0.203693 0.873364
0.060611 -0.203694 0.873369
0.062100 -0.203737 0.873553
0.063602 -0.203817 0.873896
0.065101 -0.203884 0.874182
0.066587 -0.203910 0.874293
0.068103 -0.204026 0.874789
0.069624 -0.204148 0.875313
0.071150 -0.204282 0.875888
0.072700 -0.204476 0.876721
0.074258 -0.204684 0.877614
0.075797 -0.204833 0.878250
0.077313 -0.204917 0.878610
0.078828 -0.204995 0.878947
0.080337 -0.205052 0.879191
0.081847 -0.205113 0.879450
0.083368 -0.205196 0.879807
0.084890 -0.205281 0.880172
0.086431 -0.205405 0.880705
0.087965 -0.205511 0.881158
0.089500 -0.205616 0.881609
0.091045 -0.205740 0.882140
0.092593 -0.205864 0.882673
0.094126 -0.205954 0.883058
0.095668 -0.206060 0.883513
0.097258 -0.206265 0.884391
0.098866 -0.206501 0.885404
0.100484 -0.206749 0.886467
0.102109 -0.207006 0.887570
0.103733 -0.207253 0.888628
0.105319 -0.207419 0.889339
0.106912 -0.207592 0.890083
0.108561 -0.207868 0.891264
0.110230 -0.208174 0.892575
0.111948 -0.208563 0.894245
0.113694 -0.208995 0.896096
0.115483 -0.209491 0.898224
0.117295 -0.210017 0.900478
0.119119 -0.210550 0.902763
0.120986 -0.211145 0.905315
0.122912 -0.211827 0.908240
0.124857 -0.212524 0.911228
0.126820 -0.213235 0.914275
0.128816 -0.213983 0.917482
0.130811 -0.214711 0.920606
0.132711 -0.215268 0.922995
0.135697 -0.217554 0.932796
-0.058592 -0.223223 0.964109
-0.056865 -0.222841 0.962459
-0.055110 -0.222324 0.960225
-0.053352 -0.221763 0.957802
-0.051617 -0.221267 0.955661
-0.049910 -0.220865 0.953924
-0.048228 -0.220547 0.952553
-0.046564 -0.220291 0.951445
-0.044912 -0.220082 0.950543
-0.043245 -0.219773 0.949209
-0.041541 -0.219252 0.946958
-0.039801 -0.218486 0.943650
-0.038056 -0.217632 0.939961
-0.036325 -0.216786 0.936305
-0.034608 -0.215949 0.932692
-0.032927 -0.215261 0.929722
-0.031271 -0.214685 0.927233
-0.029621 -0.214089 0.924657
-0.027977 -0.213472 0.921995
-0.026342 -0.212857 0.919337
-0.024719 -0.212265 0.916780
-0.023107 -0.211701 0.914343
-0.021509 -0.211185 0.912117
-0.019919 -0.210677 0.909920
-0.018340 -0.210208 0.907897
-0.016771 -0.209781 0.906053
-0.015210 -0.209381 0.904323
-0.013656 -0.208992 0.902645
-0.012111 -0.208664 0.901228
-0.010571 -0.208338 0.899820
-0.009036 -0.208031 0.898493
-0.007506 -0.207708 0.897098
-0.005982 -0.207447 0.895971
-0.004461 -0.207170 0.894774
-0.002945 -0.206915 0.893672
-0.001432 -0.206579 0.892223
0.000077 -0.206294 0.890993
0.001581 -0.206031 0.889856
0.003082 -0.205839 0.889028
0.004582 -0.205681 0.888345
0.006081 -0.205581 0.887911
0.007577 -0.205453 0.887358
0.009069 -0.205261 0.886528
0.010553 -0.204989 0.885354
0.012035 -0.204730 0.884234
0.013513 -0.204473 0.883127
0.014989 -0.204245 0.882141
0.016465 -0.204060 0.881344
0.017943 -0.203916 0.880720
0.019418 -0.203771 0.880093
0.020896 -0.203683 0.879713
0.022373 -0.203582 0.879277
0.023850 -0.203502 0.878935
0.025328 -0.203440 0.878666
0.026805 -0.203376 0.878387
0.028278 -0.203292 0.878024
0.029756 -0.203248 0.877837
0.031234 -0.203208 0.877665
0.032712 -0.203170 0.877500
0.034188 -0.203129 0.877321
0.035657 -0.203045 0.876961
0.037113 -0.202901 0.876335
0.038573 -0.202789 0.875853
0.040029 -0.202665 0.875318
0.041488 -0.202566 0.874889
0.042951 -0.202486 0.874545
0.044419 -0.202439 0.874344
0.045877 -0.202353 0.873969
0.047344 -0.202307 0.873772
0.048826 -0.202325 0.873848
0.050295 -0.202294 0.873715
0.051774 -0.202300 0.873740
0.053250 -0.202297 0.873728
0.054732 -0.202316 0.873809
0.056195 -0.202263 0.873579
0.057677 -0.202283 0.873666
0.059165 -0.202318 0.873820
0.060642 -0.202320 0.873826
0.062139 -0.202381 0.874092
0.063648 -0.202481 0.874524
0.065154 -0.202570 0.874905
0.066649 -0.202616 0.875107
0.068180 -0.202771 0.875777
0.069710 -0.202913 0.876388
0.071239 -0.203049 0.876977
0.072790 -0.203240 0.877802
0.074340 -0.203422 0.878587
0.075863 -0.203522 0.879020
0.077372 -0.203582 0.879279
0.078881 -0.203640 0.879529
0.080384 -0.203680 0.879703
0.081896 -0.203743 0.879972
0.083418 -0.203827 0.880337
0.084943 -0.203916 0.880720
0.086485 -0.204040 0.881258
0.088028 -0.204164 0.881791
0.089573 -0.204288 0.882327
0.091129 -0.204432 0.882951
0.092680 -0.204561 0.883508
0.094223 -0.204668 0.883970
0.095775 -0.204793 0.884507
0.097368 -0.204996 0.885386
0.098978 -0.205232 0.886403
0.100595 -0.205474 0.887450
0.102212 -0.205710 0.888469
0.103828 -0.205935 0.889442
0.105406 -0.206081 0.890073
0.106999 -0.206250 0.890803
0.108649 -0.206524 0.891985
0.110319 -0.206829 0.893301
0.112029 -0.207198 0.894894
0.113776 -0.207625 0.896739
0.115554 -0.208097 0.898777
0.117356 -0.208600 0.900951
0.119181 -0.209129 0.903237
0.121075 -0.209765 0.905981
0.123042 -0.210509 0.909198
0.125032 -0.211275 0.912505
0.127039 -0.212051 0.915855
0.129039 -0.212795 0.919070
0.130992 -0.213446 0.921883
0.132836 -0.213905 0.923864
-0.060352 -0.223703 0.966180
-0.060382 -0.222177 0.966667
-0.058623 -0.221706 0.964617
-0.056892 -0.221313 0.962909
-0.055129 -0.220774 0.960565
-0.053380 -0.220257 0.958315
-0.051655 -0.219810 0.956368
-0.049953 -0.219436 0.954741
-0.048266 -0.219103 0.953291
-0.046609 -0.218892 0.952374
-0.044965 -0.218728 0.951662
-0.043306 -0.218471 0.950546
-0.041613 -0.218024 0.948599
-0.039875 -0.217291 0.945408
-0.038120 -0.216400 0.941532
-0.036381 -0.215525 0.937728
-0.034653 -0.214641 0.933880
-0.032962 -0.213914 0.930718
-0.031308 -0.213365 0.928330
-0.029659 -0.212795 0.925847
-0.028013 -0.212180 0.923173
-0.026375 -0.211564 0.920492
-0.024747 -0.210953 0.917834
-0.023132 -0.210372 0.915306
-0.021534 -0.209881 0.913170
-0.019945 -0.209401 0.911080
-0.018366 -0.208959 0.909157
-0.016796 -0.208559 0.907419
-0.015233 -0.208163 0.905696
-0.013677 -0.207775 0.904007
-0.012128 -0.207426 0.902488
-0.010584 -0.207078 0.900974
-0.009047 -0.206751 0.899551
-0.007515 -0.206448 0.898231
-0.005989 -0.206170 0.897022
-0.004466 -0.205892 0.895816
-0.002948 -0.205615 0.894609
-0.001433 -0.205255 0.893044
0.000077 -0.204929 0.891623
0.001582 -0.204645 0.890388
0.003084 -0.204434 0.889472
0.004584 -0.204276 0.888785
0.006084 -0.204196 0.888436
0.007582 -0.204094 0.887990
0.009076 -0.203929 0.887272
0.010563 -0.203680 0.886188
0.012046 -0.203423 0.885073
0.013525 -0.203164 0.883946
0.015001 -0.202914 0.882855
0.016477 -0.202710 0.881968
0.017954 -0.202546 0.881258
0.019429 -0.202401 0.880625
0.020909 -0.202312 0.880237
0.022386 -0.202212 0.879805
0.023864 -0.202135 0.879467
0.025344 -0.202075 0.879207
0.026824 -0.202030 0.879012
0.028299 -0.201951 0.878668
0.029781 -0.201929 0.878573
0.031263 -0.201910 0.878488
0.032745 -0.201890 0.878400
0.034223 -0.201849 0.878222
0.035690 -0.201746 0.877775
0.037147 -0.201602 0.877148
0.038612 -0.201511 0.876751
0.040070 -0.201389 0.876223
0.041532 -0.201294 0.875808
0.042999 -0.201232 0.875540
0.044469 -0.201185 0.875336
0.045926 -0.201084 0.874894
0.047394 -0.201037 0.874688
0.048877 -0.201054 0.874764
0.050343 -0.201004 0.874546
0.051818 -0.200989 0.874483
0.053293 -0.200979 0.874437
0.054775 -0.200992 0.874497
0.056239 -0.200940 0.874269
0.057729 -0.200983 0.874457
0.059224 -0.201039 0.874698
0.060703 -0.201041 0.874707
0.062201 -0.201100 0.874965
0.063712 -0.201202 0.875408
0.065227 -0.201309 0.875874
0.066730 -0.201377 0.876170
0.068270 -0.201551 0.876927
0.069795 -0.201675 0.877465
0.071319 -0.201788 0.877958
0.072849 -0.201915 0.878510
0.074377 -0.202034 0.879026
0.075879 -0.202073 0.879199
0.077387 -0.202131 0.879450
0.078897 -0.202191 0.879710
0.080409 -0.202254 0.879986
0.081939 -0.202357 0.880433
0.083478 -0.202481 0.880972
0.085012 -0.202587 0.881432
0.086555 -0.202711 0.881974
0.088108 -0.202853 0.882593
0.089657 -0.202982 0.883151
0.091224 -0.203148 0.883873
0.092786 -0.203296 0.884519
0.094341 -0.203424 0.885074
0.095895 -0.203546 0.885608
0.097478 -0.203725 0.886388
0.099060 -0.203898 0.887139
0.100658 -0.204098 0.888007
0.102267 -0.204313 0.888945
0.103874 -0.204518 0.889837
0.105463 -0.204683 0.890553
0.107086 -0.204907 0.891530
0.108749 -0.205201 0.892809
0.110433 -0.205526 0.894220
0.112155 -0.205912 0.895901
0.113894 -0.206319 0.897671
0.115663 -0.206768 0.899627
0.117466 -0.207267 0.901795
0.119305 -0.207814 0.904178
0.121226 -0.208490 0.907116
0.123236 -0.209298 0.910634
0.125261 -0.210112 0.914175
0.127300 -0.210930 0.917733
0.129279 -0.211630 0.920779
0.131191 -0.212205 0.923283
0.133002 -0.212605 0.925020
-0.062161 -0.221052 0.968920
-0.060400 -0.220604 0.966954
-0.058643 -0.220145 0.964945
-0.056914 -0.219766 0.963282
-0.055146 -0.219211 0.960849
-0.053393 -0.218685 0.958545
-0.051674 -0.218267 0.956711
-0.049982 -0.217942 0.955287
-0.048294 -0.217613 0.953847
-0.046645 -0.217446 0.953113
-0.045005 -0.217304 0.952492
-0.043357 -0.217116 0.951666
-0.041677 -0.216745 0.950041
-0.039946 -0.216072 0.947093
-0.038188 -0.215190 0.943227
-0.036445 -0.214316 0.939392
-0.034706 -0.213383 0.935306
-0.033001 -0.212590 0.931828
-0.031342 -0.212022 0.929339
-0.029691 -0.211455 0.926852
-0.028043 -0.210843 0.924172
-0.026406 -0.210252 0.921580
-0.024777 -0.209645 0.918918
-0.023159 -0.209066 0.916382
-0.021559 -0.208578 0.914242
-0.019970 -0.208118 0.912226
-0.018389 -0.207686 0.910332
-0.016821 -0.207332 0.908782
-0.015258 -0.206963 0.907164
-0.013700 -0.206596 0.905555
-0.012148 -0.206227 0.903939
-0.010601 -0.205876 0.902399
-0.009059 -0.205509 0.900791
-0.007526 -0.205209 0.899475
-0.005996 -0.204913 0.898178
-0.004472 -0.204637 0.896969
-0.002951 -0.204337 0.895654
-0.001435 -0.203975 0.894067
0.000077 -0.203611 0.892472
0.001583 -0.203307 0.891140
0.003086 -0.203075 0.890121
0.004587 -0.202913 0.889414
0.006088 -0.202815 0.888984
0.007588 -0.202732 0.888620
0.009084 -0.202589 0.887990
0.010573 -0.202364 0.887006
0.012057 -0.202111 0.885899
0.013538 -0.201855 0.884774
0.015015 -0.201603 0.883672
0.016490 -0.201378 0.882686
0.017966 -0.201195 0.881880
0.019441 -0.201030 0.881158
0.020922 -0.200940 0.880766
0.022399 -0.200841 0.880332
0.023879 -0.200766 0.880002
0.025359 -0.200705 0.879733
0.026840 -0.200660 0.879539
0.028316 -0.200581 0.879191
0.029796 -0.200543 0.879026
0.031280 -0.200525 0.878947
0.032762 -0.200506 0.878862
0.034244 -0.200484 0.878767
0.035716 -0.200404 0.878416
0.037181 -0.200300 0.877958
0.038652 -0.200229 0.877649
0.040119 -0.200147 0.877289
0.041586 -0.200071 0.876953
0.043060 -0.200031 0.876780
0.044533 -0.199988 0.876593
0.045993 -0.199890 0.876163
0.047459 -0.199829 0.875895
0.048939 -0.199826 0.875883
0.050402 -0.199754 0.875565
0.051867 -0.199694 0.875305
0.053342 -0.199681 0.875244
0.054825 -0.199691 0.875290
0.056291 -0.199641 0.875071
0.057783 -0.199685 0.875264
0.059279 -0.199742 0.875512
0.060760 -0.199743 0.875518
0.062252 -0.199783 0.875693
0.063765 -0.199883 0.876132
0.065281 -0.199991 0.876604
0.066792 -0.200079 0.876991
0.068328 -0.200235 0.877673
0.069853 -0.200354 0.878196
0.071369 -0.200442 0.878581
0.072885 -0.200526 0.878947
0.074406 -0.200621 0.879364
0.075907 -0.200658 0.879529
0.077417 -0.200718 0.879791
0.078929 -0.200782 0.880072
0.080452 -0.200868 0.880451
0.081990 -0.200991 0.880986
0.083531 -0.201114 0.881527
0.085065 -0.201219 0.881988
0.086617 -0.201361 0.882608
0.088181 -0.201524 0.883326
0.089740 -0.201672 0.883973
0.091320 -0.201862 0.884806
0.092893 -0.202030 0.885540
0.094449 -0.202155 0.886092
0.096004 -0.202275 0.886615
0.097570 -0.202414 0.887225
0.099142 -0.202563 0.887878
0.100729 -0.202735 0.888633
0.102328 -0.202926 0.889470
0.103916 -0.203092 0.890198
0.105517 -0.203276 0.891005
0.107155 -0.203526 0.892099
0.108832 -0.203843 0.893490
0.110531 -0.204191 0.895014
0.112276 -0.204614 0.896867
0.114005 -0.204996 0.898542
0.115774 -0.205441 0.900493
0.117580 -0.205937 0.902665
0.119432 -0.206501 0.905141
0.121383 -0.207218 0.908284
0.123436 -0.208091 0.912108
0.125492 -0.208947 0.915862
0.127550 -0.209786 0.919537
0.129531 -0.210478 0.922572
0.131418 -0.211005 0.924879
0.134359 -0.213190 0.934457
-0.063895 -0.221384 0.970375
-0.065594 -0.221583 0.971248
-0.065613 -0.219998 0.971520
-0.063912 -0.219797 0.970632
-0.062172 -0.219448 0.969089
-0.060407 -0.218989 0.967064
-0.058644 -0.218513 0.964959
-0.056903 -0.218090 0.963091
-0.055141 -0.217563 0.960764
-0.053404 -0.217107 0.958752
-0.051696 -0.216739 0.957128
-0.050010 -0.216445 0.955830
-0.048326 -0.216142 0.954490
-0.046686 -0.216019 0.953947
-0.045044 -0.215877 0.953318
-0.043400 -0.215717 0.952615
-0.041736 -0.215442 0.951397
-0.040021 -0.214869 0.948869
-0.038262 -0.214003 0.945046
-0.036515 -0.213128 0.941182
-0.034766 -0.212166 0.936932
-0.033047 -0.211305 0.933129
-0.031376 -0.210673 0.930338
-0.029723 -0.210111 0.927855
-0.028073 -0.209504 0.925177
-0.026435 -0.208916 0.922581
-0.024804 -0.208313 0.919918
-0.023184 -0.207737 0.917374
-0.021584 -0.207268 0.915304
-0.019995 -0.206830 0.913369
-0.018414 -0.206422 0.911567
-0.016846 -0.206093 0.910113
-0.015283 -0.205768 0.908678
-0.013723 -0.205404 0.907071
-0.012168 -0.205037 0.905450
-0.010619 -0.204688 0.903908
-0.009074 -0.204320 0.902283
-0.007537 -0.204000 0.900872
-0.006006 -0.203706 0.899573
-0.004479 -0.203415 0.898286
-0.002956 -0.203115 0.896963
-0.001436 -0.202736 0.895290
0.000077 -0.202352 0.893593
0.001585 -0.202011 0.892088
0.003089 -0.201758 0.890972
0.004591 -0.201558 0.890085
0.006092 -0.201437 0.889551
0.007592 -0.201332 0.889088
0.009089 -0.201206 0.888531
0.010580 -0.201003 0.887634
0.012067 -0.200775 0.886627
0.013549 -0.200525 0.885527
0.015028 -0.200274 0.884415
0.016502 -0.200029 0.883335
0.017977 -0.199824 0.882428
