1704
0.158540 -0.161250 0.876031
0.160205 -0.161436 0.877042
0.161923 -0.161670 0.878315
0.163611 -0.161872 0.879410
0.165315 -0.162085 0.880566
0.166957 -0.162234 0.881376
0.168616 -0.162397 0.882260
0.170245 -0.162528 0.882973
0.171927 -0.162707 0.883948
0.173585 -0.162861 0.884782
0.175266 -0.163033 0.885717
0.177163 -0.164906 0.887718
0.176931 -0.163188 0.886557
-0.026780 -0.144816 0.794061
-0.025434 -0.144800 0.793974
-0.024086 -0.144764 0.793776
-0.022734 -0.144697 0.793408
-0.021378 -0.144601 0.792884
-0.020025 -0.144506 0.792362
-0.018673 -0.144413 0.791853
-0.017325 -0.144334 0.791421
-0.015978 -0.144256 0.790989
-0.014636 -0.144201 0.790688
-0.013293 -0.144135 0.790327
-0.011950 -0.144058 0.789907
-0.010610 -0.143993 0.789548
-0.009271 -0.143924 0.789170
-0.007932 -0.143844 0.788734
-0.006596 -0.143778 0.788369
-0.005261 -0.143725 0.788081
-0.003927 -0.143662 0.787734
-0.002594 -0.143598 0.787381
-0.001263 -0.143566 0.787206
0.000068 -0.143513 0.786916
0.001398 -0.143474 0.786700
0.002728 -0.143521 0.786960
0.004061 -0.143600 0.787392
0.005393 -0.143624 0.787525
0.006728 -0.143689 0.787881
0.008061 -0.143721 0.788058
0.009388 -0.143634 0.787579
0.010712 -0.143528 0.787001
0.012034 -0.143430 0.786461
0.013350 -0.143285 0.785667
0.014668 -0.143192 0.785156
0.015990 -0.143138 0.784862
0.017311 -0.143092 0.784607
0.018636 -0.143081 0.784549
0.019962 -0.143081 0.784548
0.021290 -0.143093 0.784615
0.022617 -0.143096 0.784629
0.023942 -0.143086 0.784573
0.025259 -0.143034 0.784290
0.026575 -0.142977 0.783979
0.027879 -0.142872 0.783400
0.029183 -0.142769 0.782835
0.030489 -0.142688 0.782395
0.031794 -0.142608 0.781956
0.033100 -0.142542 0.781590
0.034409 -0.142489 0.781303
0.035720 -0.142450 0.781089
0.037024 -0.142389 0.780753
0.038330 -0.142336 0.780461
0.039631 -0.142270 0.780100
0.040931 -0.142204 0.779741
0.042234 -0.142153 0.779462
0.043536 -0.142103 0.779187
0.044841 -0.142064 0.778973
0.046149 -0.142035 0.778814
0.047461 -0.142021 0.778738
0.048774 -0.142012 0.778684
0.050100 -0.142039 0.778836
0.051431 -0.142078 0.779050
0.052771 -0.142141 0.779394
0.054118 -0.142218 0.779815
0.055482 -0.142334 0.780454
0.056864 -0.142491 0.781316
0.058256 -0.142665 0.782267
0.059665 -0.142874 0.783413
0.061080 -0.143085 0.784569
0.062487 -0.143270 0.785583
0.064091 -0.143890 0.788986
0.066190 -0.146926 0.798211
0.065832 -0.144786 0.793896
0.069559 -0.146989 0.805977
0.071446 -0.148077 0.811941
0.073109 -0.148666 0.815172
0.074648 -0.148987 0.816931
0.076116 -0.149157 0.817866
0.077562 -0.149280 0.818539
0.079055 -0.149487 0.819672
0.080551 -0.149692 0.820797
0.082051 -0.149897 0.821923
0.083544 -0.150082 0.822939
0.085043 -0.150272 0.823980
0.086511 -0.150403 0.824695
0.087991 -0.150550 0.825503
0.089451 -0.150659 0.826101
0.090899 -0.150745 0.826570
0.092347 -0.150826 0.827017
0.093806 -0.150926 0.827562
0.095266 -0.151022 0.828091
0.096754 -0.151159 0.828843
0.098248 -0.151302 0.829627
0.099752 -0.151455 0.830467
0.101234 -0.151573 0.831113
0.102712 -0.151681 0.831704
0.104179 -0.151769 0.832187
0.105681 -0.151906 0.832938
0.107162 -0.152010 0.833509
0.108681 -0.152163 0.834346
0.110212 -0.152331 0.835266
0.111763 -0.152520 0.836303
0.113276 -0.152653 0.837035
0.114790 -0.152785 0.837758
0.116318 -0.152932 0.838562
0.117840 -0.153068 0.839309
0.119388 -0.153233 0.840213
0.120995 -0.153470 0.841514
0.122625 -0.153730 0.842939
0.124266 -0.153997 0.844406
0.125941 -0.154300 0.846067
0.127583 -0.154557 0.847473
0.129236 -0.154821 0.848922
0.130948 -0.155149 0.850718
0.132629 -0.155433 0.852278
0.134280 -0.155677 0.853614
0.135971 -0.155961 0.855174
0.137576 -0.156143 0.856169
0.139164 -0.156300 0.857032
0.140835 -0.156547 0.858385
0.142597 -0.156890 0.860265
0.144405 -0.157274 0.862373
0.146293 -0.157738 0.864917
0.148162 -0.158172 0.867298
0.149992 -0.158557 0.869406
0.151779 -0.158889 0.871227
0.153483 -0.159129 0.872542
0.155132 -0.159307 0.873520
0.156779 -0.159480 0.874470
0.158415 -0.159640 0.875343
0.160074 -0.159818 0.876321
0.161770 -0.160031 0.877488
0.163443 -0.160217 0.878507
0.165146 -0.160428 0.879668
0.166801 -0.160589 0.880551
0.168444 -0.160737 0.881360
0.170056 -0.160853 0.881995
0.171720 -0.161014 0.882880
0.173372 -0.161162 0.883693
0.175046 -0.161329 0.884606
-0.026814 -0.143653 0.795077
-0.025465 -0.143626 0.794928
-0.024114 -0.143582 0.794679
-0.022757 -0.143499 0.794224
-0.021398 -0.143391 0.793627
-0.020041 -0.143282 0.793023
-0.018687 -0.143177 0.792439
-0.017336 -0.143086 0.791934
-0.015989 -0.143007 0.791498
-0.014645 -0.142951 0.791188
-0.013301 -0.142885 0.790827
-0.011959 -0.142821 0.790470
-0.010619 -0.142769 0.790181
-0.009279 -0.142705 0.789826
-0.007940 -0.142640 0.789471
-0.006603 -0.142599 0.789239
-0.005268 -0.142559 0.789020
-0.003932 -0.142508 0.788739
-0.002598 -0.142444 0.788383
-0.001265 -0.142400 0.788142
0.000068 -0.142335 0.787778
0.001399 -0.142285 0.787503
0.002731 -0.142319 0.787693
0.004065 -0.142396 0.788119
0.005398 -0.142419 0.788247
0.006734 -0.142484 0.788604
0.008069 -0.142530 0.788857
0.009399 -0.142468 0.788518
0.010727 -0.142393 0.788104
0.012052 -0.142313 0.787660
0.013372 -0.142194 0.787001
0.014694 -0.142111 0.786542
0.016018 -0.142059 0.786254
0.017340 -0.142001 0.785930
0.018667 -0.141987 0.785852
0.019993 -0.141972 0.785769
0.021320 -0.141959 0.785697
0.022644 -0.141935 0.785568
0.023970 -0.141924 0.785503
0.025289 -0.141871 0.785212
0.026606 -0.141816 0.784910
0.027915 -0.141726 0.784412
0.029223 -0.141637 0.783918
0.030531 -0.141559 0.783485
0.031838 -0.141481 0.783054
0.033147 -0.141415 0.782686
0.034456 -0.141360 0.782385
0.035766 -0.141309 0.782099
0.037072 -0.141245 0.781749
0.038379 -0.141192 0.781455
0.039678 -0.141115 0.781028
0.040979 -0.141048 0.780659
0.042284 -0.140998 0.780378
0.043584 -0.140936 0.780040
0.044887 -0.140886 0.779762
0.046195 -0.140857 0.779600
0.047504 -0.140831 0.779454
0.048818 -0.140820 0.779394
0.050145 -0.140846 0.779540
0.051477 -0.140885 0.779753
0.052815 -0.140936 0.780036
0.054163 -0.141012 0.780458
0.055528 -0.141128 0.781102
0.056911 -0.141283 0.781960
0.058304 -0.141455 0.782910
0.059714 -0.141662 0.784057
0.061129 -0.141868 0.785197
0.062542 -0.142063 0.786277
0.064050 -0.142462 0.788482
0.065708 -0.143169 0.792396
0.067664 -0.145842 0.799685
0.067459 -0.144047 0.797258
0.069273 -0.145023 0.802659
0.071112 -0.146013 0.808136
0.072839 -0.146741 0.812167
0.074420 -0.147152 0.814438
0.075922 -0.147394 0.815782
0.077400 -0.147583 0.816826
0.078918 -0.147841 0.818252
0.080434 -0.148085 0.819603
0.081950 -0.148320 0.820904
0.083456 -0.148531 0.822076
0.084962 -0.148734 0.823197
0.086428 -0.148863 0.823909
0.087900 -0.148996 0.824647
0.089358 -0.149103 0.825237
0.090804 -0.149187 0.825704
0.092242 -0.149255 0.826079
0.093699 -0.149352 0.826615
0.095173 -0.149471 0.827278
0.096667 -0.149620 0.828099
0.098171 -0.149778 0.828975
0.099694 -0.149961 0.829987
0.101195 -0.150107 0.830795
0.102684 -0.150229 0.831472
0.104160 -0.150332 0.832040
0.105663 -0.150468 0.832795
0.107153 -0.150583 0.833432
0.108670 -0.150734 0.834267
0.110193 -0.150888 0.835117
0.111732 -0.151061 0.836074
0.113242 -0.151189 0.836786
0.114744 -0.151304 0.837419
0.116272 -0.151450 0.838231
0.117806 -0.151601 0.839062
0.119365 -0.151780 0.840055
0.120982 -0.152027 0.841423
0.122619 -0.152294 0.842900
0.124258 -0.152556 0.844351
0.125934 -0.152857 0.846018
0.127565 -0.153099 0.847354
0.129211 -0.153352 0.848756
0.130912 -0.153665 0.850486
0.132594 -0.153949 0.852058
0.134244 -0.154189 0.853390
0.135947 -0.154485 0.855027
0.137564 -0.154678 0.856094
0.139176 -0.154861 0.857108
0.140848 -0.155107 0.858467
0.142623 -0.155459 0.860418
0.144416 -0.155825 0.862440
0.146286 -0.156265 0.864878
0.148153 -0.156693 0.867247
0.149983 -0.157074 0.869354
0.151744 -0.157376 0.871026
0.153462 -0.157628 0.872423
0.155123 -0.157817 0.873469
0.156743 -0.157962 0.874273
0.158348 -0.158089 0.874975
0.159986 -0.158246 0.875842
0.161647 -0.158422 0.876819
0.163286 -0.158574 0.877660
0.164971 -0.158769 0.878736
0.166627 -0.158931 0.879634
0.168269 -0.159078 0.880447
0.169882 -0.159194 0.881089
0.171542 -0.159352 0.881966
0.173191 -0.159498 0.882771
0.174878 -0.159676 0.883756
-0.026861 -0.142557 0.796480
-0.025505 -0.142501 0.796168
-0.024144 -0.142416 0.795694
-0.022781 -0.142299 0.795039
-0.021418 -0.142177 0.794359
-0.020056 -0.142045 0.793619
-0.018699 -0.141925 0.792953
-0.017346 -0.141822 0.792374
-0.015997 -0.141743 0.791934
-0.014652 -0.141677 0.791568
-0.013309 -0.141623 0.791265
-0.011967 -0.141571 0.790973
-0.010626 -0.141520 0.790686
-0.009285 -0.141468 0.790399
-0.007946 -0.141417 0.790112
-0.006609 -0.141378 0.789897
-0.005272 -0.141340 0.789684
-0.003936 -0.141302 0.789470
-0.002600 -0.141249 0.789172
-0.001266 -0.141206 0.788936
0.000068 -0.141154 0.788642
0.001401 -0.141116 0.788429
0.002734 -0.141139 0.788560
0.004069 -0.141192 0.788855
0.005403 -0.141213 0.788975
0.006739 -0.141265 0.789263
0.008076 -0.141300 0.789460
0.009408 -0.141266 0.789269
0.010739 -0.141229 0.789063
0.012069 -0.141175 0.788760
0.013394 -0.141085 0.788254
0.014719 -0.141017 0.787878
0.016045 -0.140965 0.787585
0.017368 -0.140891 0.787173
0.018693 -0.140851 0.786952
0.020017 -0.140808 0.786711
0.021341 -0.140768 0.786487
0.022665 -0.140731 0.786282
0.023990 -0.140707 0.786144
0.025312 -0.140668 0.785928
0.026633 -0.140626 0.785693
0.027948 -0.140561 0.785329
0.029262 -0.140497 0.784971
0.030578 -0.140445 0.784684
0.031888 -0.140371 0.784268
0.033198 -0.140307 0.783908
0.034510 -0.140252 0.783605
0.035819 -0.140189 0.783250
0.037120 -0.140103 0.782771
0.038426 -0.140038 0.782406
0.039726 -0.139958 0.781960
0.041028 -0.139892 0.781594
0.042334 -0.139842 0.781314
0.043637 -0.139782 0.780980
0.044940 -0.139731 0.780693
0.046246 -0.139689 0.780457
0.047552 -0.139650 0.780237
0.048863 -0.139627 0.780109
0.050191 -0.139651 0.780248
0.051520 -0.139678 0.780395
0.052854 -0.139717 0.780614
0.054203 -0.139792 0.781032
0.055563 -0.139894 0.781603
0.056943 -0.140037 0.782400
0.058330 -0.140192 0.783270
0.059741 -0.140395 0.784401
0.061150 -0.140587 0.785475
0.062575 -0.140806 0.786699
0.064012 -0.141040 0.788007
0.065605 -0.141604 0.791157
0.067285 -0.142329 0.795208
0.069038 -0.143176 0.799942
0.070814 -0.144037 0.804753
0.072595 -0.144876 0.809437
0.074214 -0.145368 0.812187
0.075758 -0.145697 0.814023
0.077264 -0.145941 0.815389
0.078796 -0.146228 0.816990
0.080312 -0.146473 0.818359
0.081841 -0.146734 0.819818
0.083362 -0.146973 0.821152
0.084877 -0.147191 0.822370
0.086350 -0.147332 0.823159
0.087826 -0.147475 0.823957
0.089288 -0.147588 0.824592
0.090733 -0.147671 0.825056
0.092169 -0.147737 0.825424
0.093616 -0.147818 0.825878
0.095085 -0.147933 0.826517
0.096578 -0.148080 0.827338
0.098084 -0.148241 0.828238
0.099616 -0.148438 0.829340
0.101146 -0.148625 0.830385
0.102652 -0.148775 0.831220
0.104140 -0.148892 0.831879
0.105643 -0.149029 0.832642
0.107141 -0.149154 0.833339
0.108657 -0.149302 0.834164
0.110178 -0.149453 0.835009
0.111710 -0.149613 0.835906
0.113219 -0.149740 0.836612
0.114719 -0.149852 0.837237
0.116246 -0.149996 0.838042
0.117782 -0.150148 0.838894
0.119344 -0.150329 0.839904
0.120948 -0.150559 0.841189
0.122561 -0.150793 0.842496
0.124170 -0.151018 0.843756
0.125833 -0.151302 0.845341
0.127477 -0.151557 0.846768
0.129149 -0.151841 0.848352
0.130864 -0.152167 0.850173
0.132569 -0.152475 0.851894
0.134241 -0.152739 0.853371
0.135946 -0.153034 0.855019
0.137577 -0.153241 0.856173
0.139216 -0.153452 0.857352
0.140903 -0.153711 0.858799
0.142655 -0.154035 0.860610
0.144432 -0.154379 0.862535
0.146270 -0.154782 0.864783
0.148091 -0.155158 0.866883
0.149905 -0.155519 0.868902
0.151667 -0.155820 0.870586
0.153387 -0.156073 0.871995
0.155048 -0.156261 0.873047
0.156678 -0.156415 0.873910
0.158255 -0.156513 0.874456
0.159889 -0.156667 0.875313
0.161531 -0.156824 0.876191
0.163151 -0.156957 0.876934
0.164802 -0.157117 0.877832
0.166468 -0.157289 0.878793
0.168093 -0.157421 0.879526
0.169722 -0.157552 0.880261
0.171384 -0.157712 0.881153
0.173031 -0.157856 0.881957
0.174684 -0.158002 0.882776
-0.026901 -0.141415 0.797656
-0.025539 -0.141341 0.797239
-0.024171 -0.141222 0.796566
-0.022803 -0.141092 0.795832
-0.021436 -0.140949 0.795027
-0.020071 -0.140804 0.794207
-0.018713 -0.140683 0.793529
-0.017357 -0.140567 0.792871
-0.016006 -0.140478 0.792368
-0.014660 -0.140413 0.792006
-0.013316 -0.140362 0.791714
-0.011973 -0.140311 0.791426
-0.010632 -0.140270 0.791195
-0.009292 -0.140230 0.790973
-0.007952 -0.140179 0.790686
-0.006614 -0.140141 0.790468
-0.005275 -0.140091 0.790188
-0.003938 -0.140054 0.789978
-0.002602 -0.140004 0.789697
-0.001267 -0.139975 0.789535
0.000068 -0.139935 0.789308
0.001402 -0.139909 0.789160
0.002737 -0.139932 0.789292
0.004072 -0.139984 0.789583
0.005408 -0.140005 0.789700
0.006745 -0.140043 0.789919
0.008083 -0.140089 0.790177
0.009418 -0.140078 0.790112
0.010753 -0.140067 0.790050
0.012085 -0.140030 0.789844
0.013416 -0.139977 0.789544
0.014743 -0.139910 0.789165
0.016070 -0.139846 0.788805
0.017391 -0.139749 0.788258
0.018717 -0.139694 0.787948
0.020039 -0.139625 0.787560
0.021360 -0.139560 0.787192
0.022683 -0.139510 0.786909
0.024007 -0.139473 0.786703
0.025330 -0.139436 0.786494
0.026652 -0.139397 0.786272
0.027971 -0.139346 0.785984
0.029289 -0.139294 0.785693
0.030612 -0.139267 0.785542
0.031926 -0.139207 0.785203
0.033239 -0.139146 0.784856
0.034552 -0.139093 0.784558
0.035862 -0.139029 0.784197
0.037165 -0.138943 0.783713
0.038472 -0.138878 0.783345
0.039774 -0.138800 0.782905
0.041078 -0.138735 0.782536
0.042381 -0.138672 0.782181
0.043685 -0.138612 0.781846
0.044990 -0.138560 0.781551
0.046301 -0.138530 0.781384
0.047609 -0.138491 0.781163
0.048917 -0.138456 0.780964
0.050241 -0.138467 0.781027
0.051566 -0.138480 0.781100
0.052896 -0.138505 0.781244
0.054242 -0.138568 0.781598
0.055598 -0.138656 0.782091
0.056973 -0.138783 0.782809
0.058350 -0.138912 0.783540
0.059751 -0.139090 0.784540
0.061161 -0.139280 0.785613
0.062603 -0.139534 0.787043
0.064054 -0.139796 0.788523
0.065603 -0.140259 0.791133
0.067237 -0.140880 0.794639
0.068937 -0.141613 0.798773
0.070653 -0.142350 0.802930
0.072385 -0.143090 0.807105
0.074035 -0.143644 0.810231
0.075612 -0.144037 0.812448
0.077146 -0.144338 0.814143
0.078699 -0.144664 0.815980
0.080228 -0.144933 0.817500
0.081769 -0.145216 0.819097
0.083297 -0.145466 0.820504
0.084819 -0.145698 0.821813
0.086292 -0.145840 0.822613
0.087767 -0.145980 0.823407
0.089219 -0.146078 0.823959
0.090655 -0.146147 0.824344
0.092081 -0.146199 0.824638
0.093518 -0.146266 0.825018
0.094977 -0.146365 0.825575
0.096467 -0.146509 0.826387
0.097971 -0.146669 0.827288
0.099503 -0.146866 0.828401
0.101049 -0.147077 0.829592
0.102582 -0.147265 0.830652
0.104091 -0.147413 0.831485
0.105605 -0.147563 0.832336
0.107110 -0.147699 0.833101
0.108632 -0.147854 0.833977
0.110155 -0.148005 0.834828
0.111678 -0.148154 0.835669
0.113187 -0.148280 0.836380
0.114696 -0.148403 0.837071
0.116212 -0.148532 0.837801
0.117749 -0.148684 0.838657
0.119311 -0.148864 0.839673
0.120904 -0.149078 0.840880
0.122491 -0.149280 0.842018
0.124085 -0.149485 0.843175
0.125733 -0.149750 0.844670
0.127388 -0.150017 0.846178
0.129084 -0.150327 0.847925
0.130812 -0.150666 0.849835
0.132538 -0.150996 0.851697
0.134235 -0.151286 0.853332
0.135956 -0.151596 0.855082
0.137605 -0.151820 0.856347
0.139272 -0.152060 0.857701
0.140975 -0.152333 0.859238
0.142704 -0.152629 0.860906
0.144453 -0.152939 0.862660
0.146246 -0.153290 0.864638
0.148005 -0.153599 0.866381
0.149774 -0.153911 0.868142
0.151521 -0.154196 0.869746
0.153226 -0.154432 0.871079
0.154899 -0.154633 0.872212
0.156544 -0.154802 0.873163
0.158132 -0.154911 0.873781
0.159767 -0.155064 0.874642
0.161406 -0.155219 0.875515
0.163024 -0.155349 0.876252
0.164670 -0.155505 0.877130
0.166333 -0.155673 0.878080
0.167955 -0.155802 0.878804
0.169583 -0.155932 0.879540
0.171242 -0.156089 0.880427
0.172892 -0.156235 0.881247
0.174528 -0.156366 0.881989
-0.028300 -0.140317 0.799100
-0.026930 -0.140217 0.798533
-0.025566 -0.140137 0.798079
-0.024193 -0.140002 0.797309
-0.022822 -0.139859 0.796494
-0.021454 -0.139717 0.795685
-0.020090 -0.139584 0.794927
-0.018728 -0.139453 0.794183
-0.017371 -0.139336 0.793514
-0.016019 -0.139246 0.793006
-0.014672 -0.139183 0.792643
-0.013327 -0.139133 0.792359
-0.011984 -0.139095 0.792143
-0.010642 -0.139057 0.791926
-0.009301 -0.139018 0.791703
-0.007959 -0.138965 0.791402
-0.006619 -0.138924 0.791172
-0.005280 -0.138874 0.790885
-0.003942 -0.138837 0.790673
-0.002604 -0.138789 0.790399
-0.001268 -0.138751 0.790183
0.000068 -0.138713 0.789967
0.001403 -0.138687 0.789820
0.002739 -0.138711 0.789954
0.004076 -0.138762 0.790247
0.005413 -0.138792 0.790418
0.006751 -0.138829 0.790628
0.008090 -0.138874 0.790882
0.009426 -0.138863 0.790820
0.010763 -0.138853 0.790767
0.012098 -0.138830 0.790634
0.013431 -0.138802 0.790476
0.014761 -0.138738 0.790111
0.016090 -0.138685 0.789809
0.017415 -0.138597 0.789310
0.018739 -0.138520 0.788867
0.020059 -0.138429 0.788350
0.021379 -0.138349 0.787896
0.022701 -0.138286 0.787537
0.024024 -0.138238 0.787265
0.025350 -0.138214 0.787124
0.026672 -0.138165 0.786848
0.027994 -0.138126 0.786627
0.029313 -0.138076 0.786343
0.030637 -0.138051 0.786198
0.031955 -0.138004 0.785932
0.033275 -0.137966 0.785715
0.034593 -0.137924 0.785478
0.035904 -0.137861 0.785117
0.037208 -0.137776 0.784629
0.038517 -0.137711 0.784263
0.039820 -0.137634 0.783822
0.041126 -0.137570 0.783459
0.042432 -0.137509 0.783110
0.043736 -0.137448 0.782762
0.045039 -0.137385 0.782405
0.046348 -0.137344 0.782169
0.047653 -0.137295 0.781891
0.048962 -0.137259 0.781690
0.050287 -0.137269 0.781746
0.051613 -0.137280 0.781809
0.052940 -0.137293 0.781883
0.054281 -0.137342 0.782159
0.055628 -0.137404 0.782513
0.056993 -0.137504 0.783086
0.058361 -0.137608 0.783676
0.059756 -0.137771 0.784603
0.061166 -0.137959 0.785677
0.062620 -0.138236 0.787253
0.064089 -0.138535 0.788953
0.065673 -0.139066 0.791978
0.067282 -0.139627 0.795171
0.068944 -0.140272 0.798845
0.070617 -0.140917 0.802518
0.072307 -0.141568 0.806227
0.073909 -0.142027 0.808842
0.075508 -0.142466 0.811341
0.077068 -0.142814 0.813321
0.078634 -0.143162 0.815305
0.080168 -0.143440 0.816887
0.081712 -0.143728 0.818527
0.083246 -0.143986 0.820001
0.084768 -0.144218 0.821321
0.086242 -0.144362 0.822139
0.087716 -0.144499 0.822922
0.089158 -0.144582 0.823390
0.090576 -0.144624 0.823634
0.091987 -0.144653 0.823797
0.093422 -0.144719 0.824173
0.094879 -0.144815 0.824720
0.096358 -0.144943 0.825448
0.097859 -0.145099 0.826337
0.099397 -0.145306 0.827514
0.100950 -0.145528 0.828779
0.102502 -0.145743 0.830003
0.104039 -0.145931 0.831074
0.105574 -0.146110 0.832093
0.107099 -0.146272 0.833016
0.108631 -0.146439 0.833966
0.110154 -0.146589 0.834820
0.111678 -0.146737 0.835663
0.113177 -0.146850 0.836307
0.114685 -0.146970 0.836993
0.116200 -0.147097 0.837715
0.117737 -0.147247 0.838571
0.119298 -0.147425 0.839583
0.120890 -0.147636 0.840785
0.122453 -0.147807 0.841756
0.124034 -0.147995 0.842828
0.125666 -0.148240 0.844223
0.127321 -0.148505 0.845735
0.129018 -0.148814 0.847493
0.130770 -0.149178 0.849565
0.132509 -0.149520 0.851512
0.134233 -0.149836 0.853315
0.135970 -0.150162 0.855169
0.137662 -0.150431 0.856699
0.139345 -0.150685 0.858150
0.141063 -0.150971 0.859777
0.142777 -0.151247 0.861349
0.144484 -0.151510 0.862848
0.146218 -0.151795 0.864472
0.147930 -0.152053 0.865940
0.149637 -0.152301 0.867351
0.151350 -0.152549 0.868765
0.153053 -0.152784 0.870100
0.154727 -0.152984 0.871240
0.156386 -0.153166 0.872277
0.158003 -0.153305 0.873067
0.159655 -0.153473 0.874027
0.161296 -0.153630 0.874918
0.162913 -0.153759 0.875656
0.164541 -0.153898 0.876445
0.166186 -0.154049 0.877306
0.167790 -0.154160 0.877939
0.169432 -0.154303 0.878755
0.171091 -0.154460 0.879647
0.172754 -0.154618 0.880547
0.174404 -0.154761 0.881361
-0.028348 -0.139195 0.800440
-0.026962 -0.139026 0.799471
-0.025588 -0.138906 0.798780
-0.024214 -0.138765 0.797970
-0.022837 -0.138601 0.797024
-0.021468 -0.138459 0.796209
-0.020105 -0.138341 0.795530
-0.018744 -0.138223 0.794851
-0.017386 -0.138109 0.794195
-0.016035 -0.138042 0.793812
-0.014687 -0.137978 0.793442
-0.013340 -0.137928 0.793156
-0.011996 -0.137891 0.792942
-0.010653 -0.137854 0.792731
-0.009310 -0.137805 0.792449
-0.007966 -0.137743 0.792089
-0.006625 -0.137689 0.791780
-0.005284 -0.137635 0.791469
-0.003945 -0.137596 0.791248
-0.002606 -0.137538 0.790913
-0.001269 -0.137512 0.790762
0.000068 -0.137485 0.790608
0.001404 -0.137460 0.790463
0.002741 -0.137485 0.790605
0.004080 -0.137548 0.790967
0.005418 -0.137579 0.791147
0.006757 -0.137604 0.791293
0.008096 -0.137635 0.791471
0.009433 -0.137623 0.791401
0.010771 -0.137615 0.791357
0.012107 -0.137594 0.791232
0.013443 -0.137579 0.791146
0.014775 -0.137525 0.790840
0.016105 -0.137473 0.790540
0.017431 -0.137388 0.790049
0.018756 -0.137311 0.789608
0.020076 -0.137209 0.789018
0.021396 -0.137118 0.788497
0.022718 -0.137054 0.788127
0.024042 -0.137004 0.787843
0.025369 -0.136981 0.787711
0.026692 -0.136933 0.787431
0.028015 -0.136893 0.787203
0.029335 -0.136842 0.786909
0.030659 -0.136817 0.786765
0.031979 -0.136772 0.786506
0.033302 -0.136746 0.786360
0.034624 -0.136717 0.786192
0.035936 -0.136653 0.785825
0.037242 -0.136568 0.785336
0.038555 -0.136516 0.785034
0.039860 -0.136442 0.784611
0.041168 -0.136380 0.784252
0.042474 -0.136318 0.783894
0.043783 -0.136266 0.783600
0.045087 -0.136205 0.783246
0.046402 -0.136177 0.783086
0.047713 -0.136141 0.782879
0.049024 -0.136106 0.782678
0.050346 -0.136104 0.782664
0.051664 -0.136090 0.782588
0.052984 -0.136081 0.782532
0.054312 -0.136094 0.782607
0.055654 -0.136141 0.782879
0.057009 -0.136215 0.783303
0.058376 -0.136315 0.783880
0.059766 -0.136465 0.784740
0.061181 -0.136662 0.785875
0.062641 -0.136949 0.787525
0.064112 -0.137247 0.789239
0.065670 -0.137717 0.791940
0.067282 -0.138278 0.795169
0.068936 -0.138903 0.798764
0.070594 -0.139510 0.802254
0.072272 -0.140133 0.805836
0.073888 -0.140617 0.808620
0.075474 -0.141025 0.810966
0.077033 -0.141371 0.812953
0.078593 -0.141705 0.814874
0.080124 -0.141978 0.816444
0.081666 -0.142260 0.818063
0.083198 -0.142514 0.819528
0.084713 -0.142733 0.820783
0.086194 -0.142888 0.821677
0.087673 -0.143035 0.822524
0.089114 -0.143115 0.822984
0.090530 -0.143155 0.823211
0.091940 -0.143183 0.823372
0.093374 -0.143248 0.823750
0.094822 -0.143332 0.824229
0.096291 -0.143444 0.824873
0.097779 -0.143582 0.825669
0.099307 -0.143772 0.826763
0.100859 -0.143993 0.828030
0.102421 -0.144221 0.829344
0.103978 -0.144436 0.830581
0.105534 -0.144645 0.831780
0.107081 -0.144835 0.832874
0.108624 -0.145016 0.833914
0.110156 -0.145177 0.834839
0.111679 -0.145323 0.835677
0.113188 -0.145446 0.836385
0.114696 -0.145565 0.837071
0.116201 -0.145678 0.837720
0.117736 -0.145825 0.838566
0.119294 -0.145997 0.839557
0.120877 -0.146195 0.840694
0.122440 -0.146364 0.841665
0.124020 -0.146549 0.842732
0.125639 -0.146777 0.844039
0.127293 -0.147039 0.845546
0.128979 -0.147332 0.847232
0.130721 -0.147683 0.849248
0.132473 -0.148036 0.851278
0.134221 -0.148377 0.853244
0.135974 -0.148717 0.855197
0.137707 -0.149028 0.856984
0.139419 -0.149310 0.858605
0.141149 -0.149605 0.860303
0.142848 -0.149861 0.861775
0.144524 -0.150089 0.863087
0.146200 -0.150311 0.864365
0.147851 -0.150505 0.865479
0.149481 -0.150673 0.866444
0.151144 -0.150871 0.867581
0.152826 -0.151084 0.868809
0.154500 -0.151285 0.869964
0.156176 -0.151484 0.871110
0.157840 -0.151668 0.872165
0.159520 -0.151864 0.873291
0.161180 -0.152036 0.874284
0.162810 -0.152179 0.875106
0.164440 -0.152318 0.875904
0.166068 -0.152453 0.876682
0.167654 -0.152548 0.877229
0.169278 -0.152675 0.877956
0.170935 -0.152829 0.878844
0.172612 -0.152999 0.879821
0.174278 -0.153156 0.880723
-0.028378 -0.137986 0.801298
-0.026988 -0.137803 0.800237
-0.025608 -0.137658 0.799395
-0.024229 -0.137501 0.798483
-0.022852 -0.137338 0.797536
-0.021484 -0.137211 0.796797
-0.020122 -0.137107 0.796198
-0.018762 -0.137006 0.795607
-0.017405 -0.136917 0.795092
-0.016054 -0.136852 0.794715
-0.014703 -0.136789 0.794348
-0.013356 -0.136738 0.794053
-0.012010 -0.136700 0.793831
-0.010664 -0.136652 0.793553
-0.009319 -0.136603 0.793269
-0.007974 -0.136530 0.792842
-0.006630 -0.136452 0.792390
-0.005288 -0.136386 0.792010
-0.003947 -0.136335 0.791713
-0.002608 -0.136276 0.791368
-0.001270 -0.136261 0.791279
0.000068 -0.136244 0.791183
0.001405 -0.136231 0.791106
0.002744 -0.136267 0.791318
0.004083 -0.136332 0.791693
0.005423 -0.136364 0.791880
0.006762 -0.136379 0.791966
0.008103 -0.136409 0.792144
0.009441 -0.136385 0.792000
0.010778 -0.136363 0.791874
0.012114 -0.136340 0.791743
0.013453 -0.136337 0.791721
0.014786 -0.136286 0.791428
0.016119 -0.136249 0.791211
0.017449 -0.136187 0.790849
0.018777 -0.136123 0.790481
0.020098 -0.136023 0.789900
0.021419 -0.135932 0.789369
0.022743 -0.135866 0.788989
0.024066 -0.135806 0.788642
0.025391 -0.135761 0.788376
0.026714 -0.135711 0.788090
0.028038 -0.135669 0.787847
0.029358 -0.135616 0.787537
0.030684 -0.135591 0.787392
0.032004 -0.135547 0.787136
0.033326 -0.135512 0.786930
0.034647 -0.135472 0.786701
0.035960 -0.135409 0.786336
0.037266 -0.135326 0.785852
0.038583 -0.135285 0.785617
0.039896 -0.135235 0.785325
0.041206 -0.135175 0.784975
0.042514 -0.135114 0.784620
0.043823 -0.135063 0.784324
0.045128 -0.135000 0.783960
0.046441 -0.134963 0.783746
0.047758 -0.134940 0.783608
0.049070 -0.134905 0.783409
0.050393 -0.134903 0.783394
0.051713 -0.134890 0.783318
0.053032 -0.134878 0.783250
0.054356 -0.134878 0.783248
0.055694 -0.134911 0.783445
0.057044 -0.134971 0.783788
0.058407 -0.135058 0.784297
0.059793 -0.135195 0.785089
0.061209 -0.135391 0.786230
0.062669 -0.135675 0.787877
0.064135 -0.135958 0.789522
0.065680 -0.136396 0.792063
0.067280 -0.136926 0.795143
0.068922 -0.137520 0.798593
0.070568 -0.138100 0.801960
0.072240 -0.138706 0.805481
0.073863 -0.139198 0.808340
0.075453 -0.139613 0.810746
0.077012 -0.139956 0.812737
0.078565 -0.140274 0.814584
0.080095 -0.140542 0.816142
0.081621 -0.140795 0.817613
0.083144 -0.141034 0.819001
0.084651 -0.141239 0.820189
0.086139 -0.141405 0.821151
0.087617 -0.141550 0.821998
0.089064 -0.141641 0.822523
0.090479 -0.141680 0.822750
0.091895 -0.141718 0.822970
0.093329 -0.141782 0.823346
0.094767 -0.141852 0.823750
0.096226 -0.141950 0.824319
0.097712 -0.142085 0.825101
0.099229 -0.142259 0.826114
0.100772 -0.142466 0.827315
0.102341 -0.142705 0.828701
0.103917 -0.142944 0.830092
0.105494 -0.143180 0.831462
0.107072 -0.143412 0.832806
0.108638 -0.143621 0.834021
0.110180 -0.143793 0.835021
0.111711 -0.143946 0.835910
0.113219 -0.144067 0.836615
0.114719 -0.144175 0.837237
0.116214 -0.144274 0.837813
0.117747 -0.144417 0.838643
0.119295 -0.144575 0.839561
0.120867 -0.144757 0.840620
0.122431 -0.144927 0.841606
0.124011 -0.145111 0.842675
0.125619 -0.145322 0.843902
0.127270 -0.145579 0.845393
0.128955 -0.145869 0.847076
0.130698 -0.146217 0.849097
0.132462 -0.146581 0.851209
0.134247 -0.146959 0.853407
0.136026 -0.147323 0.855522
0.137788 -0.147662 0.857486
0.139504 -0.147944 0.859125
0.141221 -0.148222 0.860742
0.142877 -0.148430 0.861951
0.144509 -0.148610 0.862994
0.146127 -0.148772 0.863935
0.147706 -0.148891 0.864628
0.149271 -0.148995 0.865231
0.150881 -0.149140 0.866073
0.152514 -0.149306 0.867033
0.154173 -0.149493 0.868123
0.155893 -0.149735 0.869529
0.157615 -0.149976 0.870924
0.159329 -0.150203 0.872244
0.161031 -0.150415 0.873478
0.162691 -0.150586 0.874467
0.164319 -0.150723 0.875264
0.165930 -0.150842 0.875956
0.167529 -0.150949 0.876575
0.169133 -0.151058 0.877207
0.170789 -0.151211 0.878096
0.172468 -0.151382 0.879089
0.174135 -0.151539 0.880000
-0.029806 -0.136963 0.803266
-0.028404 -0.136752 0.802030
-0.027008 -0.136550 0.800846
-0.025622 -0.136377 0.799828
-0.024242 -0.136221 0.798915
-0.022866 -0.136071 0.798037
-0.021500 -0.135960 0.797383
-0.020140 -0.135882 0.796928
-0.018782 -0.135807 0.796484
-0.017427 -0.135733 0.796055
-0.016075 -0.135684 0.795763
-0.014724 -0.135633 0.795467
-0.013373 -0.135572 0.795105
-0.012024 -0.135519 0.794800
-0.010677 -0.135468 0.794497
-0.009330 -0.135418 0.794202
-0.007983 -0.135334 0.793710
-0.006637 -0.135257 0.793260
-0.005293 -0.135178 0.792800
-0.003950 -0.135104 0.792362
-0.002609 -0.135021 0.791877
-0.001270 -0.134994 0.791721
0.000068 -0.134968 0.791564
0.001406 -0.134956 0.791498
0.002745 -0.135004 0.791778
0.004086 -0.135081 0.792225
0.005427 -0.135125 0.792487
0.006768 -0.135152 0.792642
0.008111 -0.135191 0.792876
0.009449 -0.135165 0.792720
0.010787 -0.135141 0.792582
0.012124 -0.135107 0.792379
0.013462 -0.135091 0.792289
0.014796 -0.135042 0.792002
0.016131 -0.135006 0.791789
0.017462 -0.134948 0.791450
0.018794 -0.134910 0.791223
0.020119 -0.134822 0.790708
0.021442 -0.134733 0.790186
0.022768 -0.134677 0.789860
0.024093 -0.134618 0.789512
0.025417 -0.134562 0.789183
0.026739 -0.134500 0.788823
0.028061 -0.134445 0.788497
0.029377 -0.134368 0.788048
0.030701 -0.134332 0.787834
0.032022 -0.134289 0.787581
0.033348 -0.134265 0.787441
0.034672 -0.134236 0.787271
0.035986 -0.134174 0.786911
0.037296 -0.134102 0.786487
0.038615 -0.134064 0.786263
0.039929 -0.134015 0.785973
0.041240 -0.133957 0.785635
0.042549 -0.133895 0.785275
0.043860 -0.133844 0.784973
0.045166 -0.133782 0.784612
0.046480 -0.133746 0.784400
0.047798 -0.133724 0.784268
0.049115 -0.133701 0.784134
0.050440 -0.133698 0.784120
0.051760 -0.133684 0.784037
0.053081 -0.133673 0.783970
0.054401 -0.133660 0.783894
0.055740 -0.133692 0.784082
0.057085 -0.133739 0.784360
0.058445 -0.133816 0.784811
0.059832 -0.133951 0.785599
0.061254 -0.134158 0.786812
0.062705 -0.134416 0.788328
0.064160 -0.134672 0.789829
0.065680 -0.135053 0.792063
0.067264 -0.135546 0.794958
0.068892 -0.136107 0.798248
0.070534 -0.136674 0.801574
0.072206 -0.137277 0.805108
0.073846 -0.137798 0.808161
0.075437 -0.138209 0.810576
0.076991 -0.138539 0.812509
0.078542 -0.138853 0.814353
0.080078 -0.139129 0.815970
0.081596 -0.139366 0.817358
0.083112 -0.139592 0.818682
0.084618 -0.139793 0.819864
0.086104 -0.139956 0.820817
0.087575 -0.140090 0.821604
0.089022 -0.140181 0.822141
0.090438 -0.140222 0.822378
0.091861 -0.140271 0.822668
0.093303 -0.140347 0.823115
0.094741 -0.140417 0.823524
0.096199 -0.140514 0.824090
0.097684 -0.140646 0.824864
0.099182 -0.140793 0.825727
0.100706 -0.140971 0.826775
0.102272 -0.141205 0.828142
0.103855 -0.141454 0.829604
0.105442 -0.141702 0.831058
0.107043 -0.141961 0.832580
0.108630 -0.142196 0.833956
0.110181 -0.142379 0.835028
0.111722 -0.142544 0.835998
0.113242 -0.142678 0.836784
0.114744 -0.142786 0.837419
0.116230 -0.142873 0.837927
0.117759 -0.143010 0.838728
0.119305 -0.143163 0.839629
0.120868 -0.143334 0.840629
0.122447 -0.143519 0.841716
0.124038 -0.143714 0.842859
0.125646 -0.143923 0.844087
0.127284 -0.144162 0.845486
0.128967 -0.144447 0.847157
0.130709 -0.144790 0.849170
0.132486 -0.145163 0.851360
0.134284 -0.145552 0.853641
0.136091 -0.145943 0.855929
0.137857 -0.146281 0.857913
0.139561 -0.146548 0.859479
0.141251 -0.146794 0.860925
0.142877 -0.146969 0.861950
0.144453 -0.147091 0.862662
0.146027 -0.147207 0.863346
0.147547 -0.147267 0.863699
0.149049 -0.147309 0.863941
0.150593 -0.147391 0.864422
0.152190 -0.147522 0.865194
0.153845 -0.147707 0.866277
0.155566 -0.147951 0.867707
0.157334 -0.148234 0.869368
0.159091 -0.148502 0.870940
0.160824 -0.148744 0.872357
0.162501 -0.148929 0.873442
0.164171 -0.149104 0.874471
0.165779 -0.149221 0.875156
0.167374 -0.149324 0.875763
0.168975 -0.149431 0.876386
0.170630 -0.149583 0.877278
0.172292 -0.149738 0.878191
0.173977 -0.149911 0.879203
0.175770 -0.151666 0.880741
0.175630 -0.150054 0.880040
-0.031210 -0.137166 0.804454
-0.032643 -0.136107 0.806260
-0.031233 -0.135902 0.805049
-0.029833 -0.135723 0.803985
-0.028429 -0.135508 0.802715
-0.027032 -0.135312 0.801550
-0.025641 -0.135118 0.800404
-0.024260 -0.134964 0.799492
-0.022883 -0.134817 0.798617
-0.021519 -0.134730 0.798104
-0.020159 -0.134657 0.797670
-0.018802 -0.134595 0.797305
-0.017447 -0.134545 0.797011
-0.016096 -0.134508 0.796789
-0.014744 -0.134462 0.796514
-0.013392 -0.134411 0.796215
-0.012042 -0.134369 0.795968
-0.010691 -0.134305 0.795588
-0.009342 -0.134243 0.795217
-0.007993 -0.134157 0.794712
-0.006645 -0.134070 0.794193
-0.005299 -0.133979 0.793657
-0.003954 -0.133892 0.793141
-0.002612 -0.133808 0.792643
-0.001271 -0.133771 0.792423
0.000068 -0.133746 0.792278
0.001407 -0.133735 0.792212
0.002748 -0.133783 0.792497
0.004090 -0.133859 0.792942
0.005433 -0.133914 0.793272
0.006776 -0.133952 0.793498
0.008120 -0.133995 0.793749
0.009459 -0.133957 0.793523
0.010797 -0.133921 0.793313
0.012134 -0.133872 0.793023
0.013472 -0.133845 0.792861
0.014806 -0.133786 0.792511
0.016141 -0.133750 0.792296
0.017475 -0.133703 0.792018
0.018808 -0.133666 0.791802
0.020134 -0.133583 0.791312
0.021462 -0.133519 0.790929
0.022791 -0.133476 0.790675
0.024120 -0.133428 0.790391
0.025445 -0.133371 0.790052
0.026768 -0.133310 0.789692
0.028089 -0.133242 0.789292
0.029406 -0.133166 0.788839
0.030729 -0.133118 0.788558
0.032049 -0.133063 0.788232
0.033375 -0.133038 0.788082
0.034700 -0.133009 0.787908
0.036015 -0.132948 0.787550
0.037327 -0.132878 0.787132
0.038650 -0.132851 0.786973
0.039966 -0.132803 0.786692
0.041278 -0.132745 0.786348
0.042588 -0.132685 0.785992
0.043899 -0.132633 0.785681
0.045203 -0.132561 0.785254
0.046517 -0.132524 0.785034
0.047836 -0.132501 0.784900
0.049155 -0.132479 0.784770
0.050477 -0.132467 0.784699
0.051799 -0.132454 0.784620
0.053116 -0.132430 0.784479
0.054432 -0.132407 0.784343
0.055772 -0.132440 0.784536
0.057119 -0.132488 0.784823
0.058484 -0.132574 0.785334
0.059877 -0.132720 0.786197
0.061306 -0.132936 0.787476
0.062748 -0.133171 0.788869
0.064191 -0.133398 0.790211
0.065681 -0.133712 0.792074
0.067244 -0.134159 0.794720
0.068853 -0.134678 0.797799
0.070486 -0.135224 0.801029
0.072158 -0.135821 0.804569
0.073816 -0.136372 0.807831
0.075415 -0.136794 0.810331
0.076969 -0.137123 0.812282
0.078520 -0.137434 0.814123
0.080053 -0.137704 0.815721
0.081563 -0.137926 0.817035
0.083064 -0.138125 0.818216
0.084568 -0.138322 0.819382
0.086053 -0.138483 0.820335
0.087523 -0.138615 0.821118
0.088980 -0.138721 0.821748
0.090412 -0.138788 0.822141
0.091845 -0.138852 0.822523
0.093295 -0.138942 0.823054
0.094742 -0.139023 0.823535
0.096201 -0.139119 0.824103
0.097686 -0.139250 0.824877
0.099183 -0.139394 0.825730
0.100704 -0.139568 0.826763
0.102259 -0.139783 0.828036
0.103840 -0.140027 0.829484
0.105437 -0.140286 0.831014
0.107040 -0.140545 0.832553
0.108628 -0.140780 0.833945
0.110190 -0.140975 0.835098
0.111741 -0.141151 0.836140
0.113264 -0.141288 0.836949
0.114769 -0.141399 0.837607
0.116254 -0.141482 0.838103
0.117781 -0.141614 0.838886
0.119325 -0.141765 0.839775
0.120879 -0.141922 0.840708
0.122471 -0.142120 0.841881
0.124064 -0.142315 0.843033
0.125671 -0.142521 0.844258
0.127308 -0.142756 0.845647
0.128992 -0.143038 0.847316
0.130734 -0.143377 0.849327
0.132523 -0.143761 0.851602
0.134336 -0.144161 0.853972
0.136135 -0.144539 0.856208
0.137902 -0.144874 0.858194
0.139580 -0.145110 0.859595
0.141226 -0.145309 0.860768
0.142807 -0.145437 0.861528
0.144338 -0.145512 0.861972
0.145869 -0.145586 0.862414
0.147357 -0.145615 0.862585
0.148826 -0.145626 0.862650
0.150322 -0.145662 0.862863
0.151897 -0.145774 0.863524
0.153532 -0.145941 0.864514
0.155250 -0.146182 0.865945
0.157032 -0.146479 0.867703
0.158834 -0.146789 0.869537
0.160600 -0.147059 0.871139
0.162305 -0.147270 0.872391
0.164007 -0.147475 0.873599
0.165630 -0.147604 0.874369
0.167224 -0.147707 0.874979
0.168823 -0.147812 0.875599
0.170475 -0.147961 0.876483
0.172119 -0.148100 0.877307
0.173816 -0.148284 0.878392
0.175499 -0.148451 0.879382
-0.034067 -0.134981 0.807701
-0.032650 -0.134767 0.806418
-0.031251 -0.134616 0.805517
-0.029854 -0.134453 0.804545
-0.028449 -0.134245 0.803296
-0.027055 -0.134064 0.802217
-0.025662 -0.133874 0.801075
-0.024280 -0.133722 0.800170
-0.022905 -0.133588 0.799368
-0.021541 -0.133515 0.798927
-0.020178 -0.133429 0.798418
-0.018821 -0.133379 0.798118
-0.017467 -0.133342 0.797894
-0.016115 -0.133318 0.797748
-0.014761 -0.133272 0.797477
-0.013408 -0.133223 0.797184
-0.012056 -0.133171 0.796872
-0.010703 -0.133095 0.796418
-0.009352 -0.133034 0.796053
-0.008002 -0.132962 0.795617
-0.006652 -0.132875 0.795100
-0.005304 -0.132773 0.794491
-0.003958 -0.132683 0.793950
-0.002614 -0.132586 0.793371
-0.001273 -0.132548 0.793146
0.000068 -0.132526 0.793009
0.001409 -0.132526 0.793009
0.002750 -0.132572 0.793288
0.004094 -0.132656 0.793790
0.005438 -0.132713 0.794130
0.006784 -0.132765 0.794440
0.008129 -0.132809 0.794707
0.009470 -0.132773 0.794488
0.010809 -0.132714 0.794135
0.012145 -0.132652 0.793766
0.013482 -0.132601 0.793462
0.014815 -0.132528 0.793025
0.016150 -0.132479 0.792731
0.017484 -0.132431 0.792441
0.018818 -0.132394 0.792224
0.020147 -0.132326 0.791812
0.021478 -0.132276 0.791515
0.022811 -0.132247 0.791342
0.024142 -0.132211 0.791129
0.025469 -0.132156 0.790798
0.026796 -0.132106 0.790496
0.028120 -0.132051 0.790170
0.029439 -0.131975 0.789717
0.030763 -0.131927 0.789428
0.032084 -0.131871 0.789090
0.033408 -0.131833 0.788867
0.034732 -0.131795 0.788634
0.036052 -0.131746 0.788341
0.037365 -0.131677 0.787931
0.038689 -0.131649 0.787766
0.040006 -0.131601 0.787479
0.041315 -0.131532 0.787064
0.042623 -0.131461 0.786637
0.043935 -0.131409 0.786325
0.045239 -0.131336 0.785888
0.046555 -0.131299 0.785668
0.047879 -0.131286 0.785594
0.049199 -0.131265 0.785466
0.050522 -0.131253 0.785392
0.051845 -0.131240 0.785315
0.053163 -0.131216 0.785173
0.054481 -0.131194 0.785039
0.055822 -0.131227 0.785237
0.057171 -0.131276 0.785530
0.058537 -0.131362 0.786049
0.059932 -0.131507 0.786914
0.061362 -0.131722 0.788199
0.062801 -0.131945 0.789534
0.064228 -0.132135 0.790669
0.065689 -0.132384 0.792164
0.067230 -0.132784 0.794558
0.068818 -0.133258 0.797392
0.070440 -0.133778 0.800504
0.072118 -0.134382 0.804120
0.073794 -0.134963 0.807591
0.075400 -0.135395 0.810180
0.076962 -0.135733 0.812201
0.078512 -0.136041 0.814043
0.080038 -0.136295 0.815563
0.081532 -0.136489 0.816725
0.083017 -0.136660 0.817749
0.084505 -0.136830 0.818767
0.085987 -0.136987 0.819706
0.087457 -0.137118 0.820491
0.088927 -0.137248 0.821264
0.090377 -0.137341 0.821823
0.091836 -0.137444 0.822441
0.093297 -0.137549 0.823067
0.094754 -0.137644 0.823634
0.096220 -0.137750 0.824269
0.097714 -0.137891 0.825113
0.099212 -0.138035 0.825976
0.100734 -0.138207 0.827005
0.102288 -0.138418 0.828269
0.103859 -0.138646 0.829631
0.105446 -0.138888 0.831083
0.107029 -0.139121 0.832474
0.108616 -0.139351 0.833851
0.110177 -0.139543 0.835001
0.111740 -0.139732 0.836133
0.113276 -0.139883 0.837033
0.114802 -0.140019 0.837848
0.116288 -0.140102 0.838347
0.117814 -0.140232 0.839122
0.119357 -0.140378 0.839998
0.120911 -0.140534 0.840932
0.122516 -0.140744 0.842187
0.124122 -0.140951 0.843424
0.125741 -0.141168 0.844725
0.127390 -0.141414 0.846194
0.129076 -0.141693 0.847868
0.130798 -0.142007 0.849745
0.132589 -0.142388 0.852025
0.134392 -0.142774 0.854331
0.136156 -0.143109 0.856337
0.137881 -0.143398 0.858066
0.139527 -0.143599 0.859268
0.141114 -0.143736 0.860088
0.142651 -0.143819 0.860589
0.144150 -0.143863 0.860853
0.145650 -0.143907 0.861116
0.147106 -0.143908 0.861117
0.148558 -0.143904 0.861097
0.150036 -0.143925 0.861223
0.151580 -0.144010 0.861727
0.153208 -0.144170 0.862687
0.154920 -0.144407 0.864102
0.156712 -0.144712 0.865933
0.158527 -0.145034 0.867856
0.160338 -0.145345 0.869719
0.162091 -0.145599 0.871238
0.163825 -0.145831 0.872628
0.165480 -0.145991 0.873581
0.167108 -0.146122 0.874369
0.168706 -0.146226 0.874992
0.170354 -0.146372 0.875862
0.171994 -0.146507 0.876669
0.173670 -0.146671 0.877650
0.175351 -0.146836 0.878638
-0.036890 -0.135318 0.809718
-0.038293 -0.134064 0.810435
-0.036876 -0.133894 0.809408
-0.035477 -0.135151 0.808720
-0.035468 -0.133745 0.808505
-0.034069 -0.133619 0.807744
-0.032660 -0.133441 0.806669
-0.031268 -0.133323 0.805958
-0.029874 -0.133181 0.805095
-0.028471 -0.132985 0.803911
-0.027080 -0.132830 0.802978
-0.025689 -0.132655 0.801915
-0.024306 -0.132506 0.801019
-0.022929 -0.132373 0.800213
-0.021564 -0.132297 0.799756
-0.020197 -0.132201 0.799175
-0.018839 -0.132151 0.798869
-0.017483 -0.132112 0.798635
-0.016130 -0.132089 0.798495
-0.014775 -0.132045 0.798228
-0.013421 -0.131995 0.797930
-0.012067 -0.131943 0.797616
-0.010713 -0.131871 0.797176
-0.009361 -0.131811 0.796817
-0.008010 -0.131752 0.796459
-0.006659 -0.131667 0.795945
-0.005309 -0.131556 0.795273
-0.003962 -0.131464 0.794715
-0.002617 -0.131366 0.794127
-0.001274 -0.131318 0.793835
0.000068 -0.131285 0.793636
0.001410 -0.131284 0.793629
0.002752 -0.131317 0.793830
0.004097 -0.131400 0.794331
0.005443 -0.131468 0.794744
0.006790 -0.131546 0.795211
0.008139 -0.131614 0.795627
0.009483 -0.131601 0.795545
0.010823 -0.131540 0.795178
0.012160 -0.131465 0.794722
0.013496 -0.131389 0.794267
0.014828 -0.131294 0.793689
0.016159 -0.131210 0.793180
0.017492 -0.131146 0.792796
0.018825 -0.131097 0.792500
0.020156 -0.131040 0.792154
0.021489 -0.131005 0.791943
0.022826 -0.130991 0.791859
0.024160 -0.130968 0.791720
0.025490 -0.130924 0.791454
0.026820 -0.130887 0.791231
0.028149 -0.130846 0.790983
0.029473 -0.130785 0.790613
0.030798 -0.130737 0.790323
0.032122 -0.130690 0.790038
0.033448 -0.130652 0.789811
0.034773 -0.130614 0.789579
0.036095 -0.130567 0.789296
0.037413 -0.130509 0.788945
0.038735 -0.130471 0.788716
0.040050 -0.130411 0.788354
0.041357 -0.130330 0.787862
0.042665 -0.130256 0.787417
0.043972 -0.130183 0.786976
0.045273 -0.130101 0.786476
0.046586 -0.130053 0.786187
0.047906 -0.130028 0.786039
0.049227 -0.130008 0.785915
0.050551 -0.129996 0.785844
0.051878 -0.129993 0.785824
0.053201 -0.129980 0.785744
0.054525 -0.129968 0.785674
0.055863 -0.129991 0.785813
0.057217 -0.130049 0.786165
0.058585 -0.130135 0.786685
0.059981 -0.130279 0.787556
0.061408 -0.130484 0.788791
0.062847 -0.130703 0.790115
0.064269 -0.130878 0.791174
0.065717 -0.131099 0.792511
0.067241 -0.131459 0.794688
0.068816 -0.131902 0.797364
0.070425 -0.132393 0.800333
0.072091 -0.132970 0.803822
0.073768 -0.133547 0.807309
0.075380 -0.133986 0.809964
0.076943 -0.134323 0.812001
0.078500 -0.134639 0.813913
0.080024 -0.134889 0.815420
0.081503 -0.135056 0.816429
0.082977 -0.135209 0.817355
0.084455 -0.135363 0.818286
0.085928 -0.135504 0.819142
0.087405 -0.135647 0.820007
0.088891 -0.135800 0.820931
0.090358 -0.135918 0.821644
0.091843 -0.136060 0.822504
0.093314 -0.136179 0.823220
0.094772 -0.136274 0.823797
0.096247 -0.136390 0.824498
0.097741 -0.136531 0.825348
0.099243 -0.136677 0.826233
0.100768 -0.136851 0.827282
0.102332 -0.137074 0.828629
0.103894 -0.137286 0.829911
0.105469 -0.137511 0.831271
0.107041 -0.137725 0.832566
0.108626 -0.137951 0.833931
0.110177 -0.138127 0.834995
0.111749 -0.138326 0.836199
0.113286 -0.138476 0.837106
0.114824 -0.138625 0.838006
0.116332 -0.138733 0.838662
0.117870 -0.138876 0.839523
0.119415 -0.139022 0.840408
0.120991 -0.139201 0.841487
0.122597 -0.139409 0.842743
0.124205 -0.139615 0.843991
0.125827 -0.139832 0.845305
0.127479 -0.140077 0.846785
0.129166 -0.140355 0.848465
0.130892 -0.140667 0.850354
0.132660 -0.141019 0.852479
0.134448 -0.141384 0.854686
0.136181 -0.141683 0.856494
0.137851 -0.141912 0.857877
0.139451 -0.142064 0.858799
0.140994 -0.142157 0.859359
0.142487 -0.142197 0.859598
0.143955 -0.142212 0.859689
0.145437 -0.142239 0.859856
0.146878 -0.142227 0.859780
0.148328 -0.142224 0.859765
0.149794 -0.142236 0.859834
0.151320 -0.142304 0.860248
0.152929 -0.142448 0.861115
0.154621 -0.142665 0.862432
0.156394 -0.142954 0.864174
0.158220 -0.143285 0.866176
0.160043 -0.143606 0.868120
0.161841 -0.143900 0.869896
0.163625 -0.144176 0.871562
0.165331 -0.144379 0.872792
0.166992 -0.144540 0.873762
0.168605 -0.144656 0.874468
0.170235 -0.144785 0.875246
0.171838 -0.144889 0.875875
0.173493 -0.145035 0.876759
0.175157 -0.145186 0.877666
-0.044045 -0.134898 0.815476
-0.045461 -0.133624 0.816141
-0.044034 -0.133483 0.815278
-0.042607 -0.134711 0.814346
-0.042596 -0.133294 0.814125
-0.041167 -0.134501 0.813079
-0.041152 -0.133077 0.812797
-0.039731 -0.134294 0.811824
-0.039718 -0.132876 0.811571
-0.038284 -0.132659 0.810245
-0.036866 -0.132488 0.809198
-0.035462 -0.132354 0.808383
-0.034070 -0.132256 0.807782
-0.032667 -0.132101 0.806839
-0.031279 -0.132002 0.806233
-0.029888 -0.131878 0.805476
-0.028490 -0.131709 0.804443
-0.027101 -0.131570 0.803594
-0.025713 -0.131421 0.802685
-0.024332 -0.131288 0.801869
-0.022953 -0.131155 0.801059
-0.021586 -0.131078 0.800587
-0.020217 -0.130979 0.799983
-0.018856 -0.130917 0.799606
-0.017498 -0.130869 0.799312
-0.016144 -0.130846 0.799168
-0.014787 -0.130799 0.798887
-0.013432 -0.130751 0.798590
-0.012078 -0.130709 0.798336
-0.010724 -0.130659 0.798031
-0.009371 -0.130602 0.797681
-0.008020 -0.130556 0.797401
-0.006668 -0.130484 0.796963
-0.005316 -0.130365 0.796231
-0.003967 -0.130263 0.795610
-0.002620 -0.130164 0.795004
-0.001275 -0.130106 0.794649
0.000068 -0.130061 0.794378
0.001411 -0.130061 0.794376
0.002755 -0.130091 0.794561
0.004101 -0.130174 0.795065
0.005448 -0.130242 0.795484
0.006797 -0.130333 0.796037
0.008147 -0.130403 0.796468
0.009494 -0.130402 0.796458
0.010835 -0.130340 0.796079
0.012174 -0.130265 0.795620
0.013509 -0.130166 0.795017
0.014840 -0.130057 0.794354
0.016168 -0.129939 0.793629
0.017498 -0.129851 0.793095
0.018828 -0.129778 0.792647
0.020159 -0.129720 0.792293
0.021493 -0.129686 0.792089
0.022834 -0.129696 0.792147
0.024173 -0.129697 0.792152
0.025510 -0.129687 0.792092
0.026847 -0.129675 0.792019
0.028183 -0.129660 0.791928
0.029511 -0.129614 0.791644
0.030841 -0.129578 0.791424
0.032169 -0.129541 0.791198
0.033498 -0.129504 0.790976
0.034825 -0.129468 0.790753
0.036149 -0.129422 0.790471
0.037468 -0.129363 0.790115
0.038786 -0.129304 0.789752
0.040099 -0.129231 0.789307
0.041406 -0.129147 0.788797
0.042716 -0.129074 0.788351
0.044020 -0.128991 0.787840
0.045323 -0.128908 0.787337
0.046636 -0.128859 0.787038
0.047954 -0.128825 0.786825
0.049272 -0.128792 0.786627
0.050597 -0.128781 0.786559
0.051926 -0.128779 0.786547
0.053250 -0.128767 0.786471
0.054571 -0.128745 0.786338
0.055909 -0.128766 0.786466
0.057259 -0.128812 0.786748
0.058623 -0.128885 0.787196
0.060015 -0.129017 0.788003
0.061442 -0.129217 0.789222
0.062876 -0.129423 0.790482
0.064299 -0.129596 0.791540
0.065726 -0.129773 0.792618
0.067243 -0.130115 0.794704
0.068804 -0.130528 0.797229
0.070400 -0.130990 0.800053
0.072060 -0.131551 0.803477
0.073755 -0.132154 0.807159
0.075368 -0.132591 0.809827
0.076936 -0.132935 0.811933
0.078493 -0.133249 0.813846
0.080010 -0.133484 0.815284
0.081480 -0.133634 0.816199
0.082945 -0.133771 0.817036
0.084413 -0.133909 0.817878
0.085886 -0.134050 0.818738
0.087370 -0.134203 0.819674
0.088866 -0.134370 0.820692
0.090349 -0.134513 0.821567
0.091852 -0.134680 0.822587
0.093333 -0.134810 0.823383
0.094799 -0.134916 0.824028
0.096290 -0.135053 0.824864
0.097795 -0.135205 0.825796
0.099309 -0.135367 0.826783
0.100847 -0.135555 0.827932
0.102414 -0.135777 0.829287
0.103957 -0.135961 0.830412
0.105513 -0.136158 0.831617
0.107054 -0.136330 0.832668
0.108628 -0.136539 0.833943
0.110177 -0.136711 0.834996
0.111750 -0.136909 0.836205
0.113296 -0.137070 0.837186
0.114856 -0.137243 0.838243
0.116398 -0.137390 0.839138
0.117953 -0.137549 0.840113
0.119513 -0.137710 0.841092
0.121100 -0.137898 0.842245
0.122717 -0.138115 0.843569
0.124318 -0.138310 0.844760
0.125933 -0.138515 0.846013
0.127585 -0.138757 0.847491
0.129250 -0.139006 0.849013
0.130962 -0.139301 0.850811
0.132692 -0.139608 0.852689
0.134439 -0.139925 0.854625
0.136114 -0.140163 0.856077
0.137737 -0.140342 0.857168
0.139281 -0.140438 0.857755
0.140796 -0.140502 0.858148
0.142260 -0.140515 0.858226
0.143711 -0.140516 0.858232
0.145175 -0.140528 0.858308
0.146613 -0.140516 0.858232
0.148076 -0.140527 0.858302
0.149555 -0.140554 0.858464
0.151081 -0.140623 0.858886
