1745
-0.086272 0.024717 0.945925
-0.084698 0.024724 0.946212
-0.083100 0.024725 0.946231
-0.081520 0.024730 0.946458
-0.079929 0.024733 0.946556
-0.078336 0.024736 0.946652
-0.076721 0.024731 0.946465
-0.075112 0.024728 0.946357
-0.073473 0.024715 0.945851
-0.071825 0.024698 0.945205
-0.070171 0.024678 0.944454
-0.068507 0.024654 0.943517
-0.066873 0.024640 0.942983
-0.065258 0.024632 0.942673
-0.063665 0.024632 0.942685
-0.062055 0.024626 0.942436
-0.060449 0.024620 0.942239
-0.058841 0.024614 0.941988
-0.057234 0.024608 0.941763
-0.055615 0.024596 0.941300
-0.054018 0.024593 0.941203
-0.052426 0.024593 0.941176
-0.050829 0.024590 0.941068
-0.049233 0.024588 0.940981
-0.047652 0.024593 0.941182
-0.046071 0.024598 0.941386
-0.044489 0.024603 0.941587
-0.042898 0.024603 0.941591
-0.041306 0.024603 0.941580
-0.039713 0.024603 0.941564
-0.038117 0.024600 0.941467
-0.036519 0.024595 0.941284
-0.034920 0.024590 0.941079
-0.033324 0.024587 0.940952
-0.031730 0.024584 0.940836
-0.030149 0.024592 0.941138
-0.028565 0.024598 0.941390
-0.026983 0.024606 0.941711
-0.025391 0.024607 0.941713
-0.023793 0.024601 0.941479
-0.022194 0.024592 0.941154
-0.020600 0.024589 0.941030
-0.019004 0.024582 0.940767
-0.017408 0.024574 0.940478
-0.015814 0.024568 0.940235
-0.014217 0.024554 0.939712
-0.012620 0.024539 0.939117
-0.011000 0.024466 0.936352
-0.009377 0.024363 0.932393
-0.007723 0.022556 0.923116
-0.007753 0.024214 0.926703
-0.006148 0.024064 0.920939
-0.004564 0.023920 0.915429
-0.003006 0.023839 0.912333
-0.001461 0.023786 0.910311
0.000078 0.023759 0.909280
0.001613 0.023727 0.908032
0.003142 0.023677 0.906147
0.004663 0.023624 0.904121
0.006176 0.023564 0.901824
0.007682 0.023507 0.899636
0.009180 0.023449 0.897416
0.010679 0.023409 0.895896
0.012173 0.023371 0.894412
0.013667 0.023339 0.893218
0.015163 0.023317 0.892370
0.016656 0.023296 0.891553
0.018145 0.023272 0.890652
0.019627 0.023244 0.889577
0.021096 0.023206 0.888110
0.022548 0.023156 0.886187
0.023987 0.023098 0.883995
0.025419 0.023041 0.881811
0.026836 0.022978 0.879400
0.028250 0.022920 0.877162
0.029665 0.022867 0.875143
0.031080 0.022820 0.873348
0.032498 0.022779 0.871762
0.033937 0.022756 0.870886
0.035392 0.022744 0.870447
0.036846 0.022734 0.870051
0.038310 0.022730 0.869887
0.039773 0.022725 0.869712
0.041235 0.022721 0.869533
0.042693 0.022714 0.869288
0.044149 0.022708 0.869040
0.045609 0.022703 0.868851
0.047057 0.022693 0.868482
0.048501 0.022682 0.868039
0.049929 0.022664 0.867352
0.051363 0.022649 0.866810
0.052795 0.022635 0.866262
0.054242 0.022628 0.865987
0.055696 0.022624 0.865827
0.057161 0.022624 0.865846
0.058625 0.022624 0.865855
0.060089 0.022624 0.865852
0.061547 0.022622 0.865769
0.063028 0.022629 0.866015
0.064531 0.022642 0.866531
0.066057 0.022663 0.867332
0.067586 0.022684 0.868144
0.069136 0.022711 0.869182
0.070676 0.022734 0.870049
0.072206 0.022753 0.870759
0.073724 0.022767 0.871305
0.075249 0.022782 0.871901
0.076746 0.022789 0.872161
0.078235 0.022794 0.872334
0.079740 0.022802 0.872664
0.081248 0.022811 0.873009
0.082766 0.022823 0.873459
0.084318 0.022844 0.874242
0.085900 0.022871 0.875300
0.087496 0.022902 0.876468
0.089108 0.022935 0.877746
0.090722 0.022968 0.879010
0.092321 0.022996 0.880085
0.093940 0.023028 0.881316
0.095585 0.023066 0.882746
0.097259 0.023109 0.884405
0.098962 0.023158 0.886259
0.100687 0.023210 0.888266
0.102430 0.023265 0.890359
0.104162 0.023316 0.892306
0.105893 0.023365 0.894184
0.107629 0.023413 0.896045
0.109378 0.023464 0.897968
0.111137 0.023515 0.899922
0.112953 0.023576 0.902277
0.114840 0.023651 0.905126
0.116801 0.023738 0.908480
0.118792 0.023829 0.911973
0.120724 0.023907 0.914928
0.122643 0.023979 0.917715
0.124517 0.024042 0.920096
0.126365 0.024098 0.922237
0.128229 0.024155 0.924429
0.130217 0.024234 0.927463
0.132201 0.024311 0.930390
0.134266 0.024400 0.933812
0.136322 0.024486 0.937090
0.138358 0.024566 0.940165
0.140316 0.024631 0.942641
0.142232 0.024687 0.944780
0.144676 0.024832 0.950342
-0.135228 0.024897 0.952844
-0.136281 0.026405 0.948962
-0.134113 0.026294 0.944993
-0.132334 0.026258 0.943695
-0.130561 0.026222 0.942413
-0.128827 0.026194 0.941381
-0.127181 0.026183 0.940981
-0.125608 0.026186 0.941112
-0.124063 0.026196 0.941466
-0.122578 0.026219 0.942279
-0.121090 0.026241 0.943097
-0.119566 0.026257 0.943657
-0.118072 0.026280 0.944469
-0.116552 0.026297 0.945088
-0.114996 0.026306 0.945429
-0.113447 0.026318 0.945840
-0.111906 0.026331 0.946334
-0.110333 0.026338 0.946560
-0.108779 0.026349 0.946968
-0.107224 0.026360 0.947368
-0.105634 0.026363 0.947476
-0.104022 0.026361 0.947377
-0.102397 0.026354 0.947160
-0.100751 0.026343 0.946743
-0.099107 0.026331 0.946332
-0.097475 0.026323 0.946019
-0.095834 0.026311 0.945605
-0.094194 0.026300 0.945185
-0.092582 0.026295 0.945039
-0.090973 0.026292 0.944931
-0.089387 0.026296 0.945048
-0.087802 0.026299 0.945182
-0.086222 0.026305 0.945374
-0.084639 0.026310 0.945551
-0.083049 0.026312 0.945648
-0.081470 0.026319 0.945870
-0.079898 0.026328 0.946197
-0.078334 0.026339 0.946622
-0.076744 0.026343 0.946747
-0.075144 0.026343 0.946757
-0.073505 0.026329 0.946257
-0.071856 0.026312 0.945620
-0.070202 0.026291 0.944865
-0.068537 0.026265 0.943941
-0.066904 0.026250 0.943415
-0.065294 0.026244 0.943198
-0.063702 0.026245 0.943226
-0.062096 0.026240 0.943062
-0.060501 0.026240 0.943044
-0.058897 0.026236 0.942893
-0.057301 0.026235 0.942859
-0.055686 0.026225 0.942495
-0.054087 0.026222 0.942400
-0.052487 0.026219 0.942279
-0.050887 0.026215 0.942157
-0.049290 0.026213 0.942073
-0.047713 0.026221 0.942374
-0.046135 0.026230 0.942685
-0.044551 0.026236 0.942894
-0.042962 0.026238 0.942993
-0.041363 0.026236 0.942891
-0.039765 0.026233 0.942786
-0.038163 0.026228 0.942601
-0.036562 0.026222 0.942408
-0.034954 0.026211 0.942016
-0.033357 0.026207 0.941870
-0.031760 0.026204 0.941749
-0.030178 0.026212 0.942045
-0.028596 0.026222 0.942387
-0.027017 0.026236 0.942908
-0.025424 0.026236 0.942917
-0.023824 0.026230 0.942691
-0.022225 0.026223 0.942453
-0.020629 0.026221 0.942349
-0.019029 0.026211 0.942004
-0.017431 0.026203 0.941715
-0.015835 0.026196 0.941460
-0.014234 0.026178 0.940825
-0.012634 0.026159 0.940131
-0.011025 0.026113 0.938490
-0.009412 0.026039 0.935808
-0.007785 0.025889 0.930432
-0.006175 0.025737 0.924972
-0.004584 0.025582 0.919398
-0.003016 0.025468 0.915289
-0.001464 0.025386 0.912369
0.000078 0.025365 0.911605
0.001618 0.025333 0.910458
0.003151 0.025286 0.908750
0.004677 0.025229 0.906724
0.006194 0.025165 0.904408
0.007702 0.025098 0.902018
0.009203 0.025033 0.899659
0.010702 0.024982 0.897846
0.012197 0.024936 0.896166
0.013692 0.024899 0.894867
0.015189 0.024873 0.893926
0.016685 0.024850 0.893102
0.018177 0.024826 0.892212
0.019665 0.024800 0.891292
0.021139 0.024762 0.889935
0.022599 0.024714 0.888194
0.024048 0.024660 0.886255
0.025491 0.024606 0.884318
0.026913 0.024539 0.881920
0.028331 0.024477 0.879675
0.029749 0.024420 0.877635
0.031162 0.024365 0.875651
0.032580 0.024318 0.873975
0.034017 0.024289 0.872918
0.035463 0.024269 0.872210
0.036913 0.024253 0.871620
0.038371 0.024243 0.871282
0.039828 0.024233 0.870928
0.041292 0.024228 0.870740
0.042751 0.024221 0.870483
0.044206 0.024212 0.870154
0.045663 0.024205 0.869892
0.047110 0.024192 0.869455
0.048555 0.024180 0.869011
0.049989 0.024163 0.868396
0.051425 0.024148 0.867856
0.052859 0.024133 0.867311
0.054308 0.024125 0.867030
0.055758 0.024118 0.866783
0.057218 0.024116 0.866708
0.058682 0.024116 0.866698
0.060146 0.024115 0.866678
0.061605 0.024113 0.866586
0.063094 0.024122 0.866916
0.064599 0.024137 0.867451
0.066128 0.024159 0.868269
0.067659 0.024182 0.869087
0.069211 0.024211 0.870126
0.070740 0.024231 0.870836
0.072265 0.024248 0.871472
0.073784 0.024263 0.872007
0.075310 0.024280 0.872613
0.076810 0.024288 0.872894
0.078317 0.024298 0.873242
0.079838 0.024311 0.873733
0.081355 0.024324 0.874167
0.082884 0.024339 0.874707
0.084439 0.024360 0.875495
0.086014 0.024387 0.876462
0.087596 0.024415 0.877460
0.089190 0.024446 0.878557
0.090787 0.024476 0.879633
0.092376 0.024503 0.880612
0.093986 0.024534 0.881743
0.095632 0.024574 0.883184
0.097299 0.024618 0.884761
0.098993 0.024668 0.886536
0.100707 0.024720 0.888436
0.102437 0.024776 0.890424
0.104170 0.024830 0.892373
0.105903 0.024883 0.894269
0.107639 0.024935 0.896130
0.109377 0.024986 0.897964
0.111110 0.025034 0.899707
0.112900 0.025094 0.901856
0.114796 0.025175 0.904778
0.116772 0.025272 0.908254
0.118791 0.025375 0.911962
0.120760 0.025465 0.915204
0.122693 0.025546 0.918088
0.124580 0.025614 0.920563
0.126432 0.025674 0.922723
0.128299 0.025736 0.924934
0.130306 0.025824 0.928092
0.132291 0.025905 0.931025
0.134375 0.026004 0.934569
0.136445 0.026098 0.937937
0.138512 0.026189 0.941210
0.140475 0.026258 0.943704
0.142419 0.026323 0.946025
0.144988 0.026500 0.952393
0.147782 0.025087 0.960084
0.147914 0.026738 0.960941
0.151005 0.025355 0.970363
0.150924 0.026986 0.969845
-0.138868 0.026593 0.955723
-0.140228 0.028162 0.953988
-0.137714 0.027979 0.947784
-0.135621 0.027878 0.944365
-0.133906 0.027853 0.943531
-0.132175 0.027824 0.942558
-0.130436 0.027793 0.941511
-0.128732 0.027769 0.940688
-0.127101 0.027760 0.940388
-0.125540 0.027766 0.940603
-0.123997 0.027777 0.940960
-0.122513 0.027801 0.941786
-0.121027 0.027826 0.942612
-0.119515 0.027845 0.943251
-0.118009 0.027866 0.943962
-0.116488 0.027883 0.944568
-0.114929 0.027893 0.944882
-0.113379 0.027904 0.945273
-0.111827 0.027916 0.945664
-0.110242 0.027919 0.945779
-0.108679 0.027929 0.946094
-0.107124 0.027940 0.946486
-0.105528 0.027941 0.946525
-0.103917 0.027938 0.946427
-0.102302 0.027934 0.946286
-0.100667 0.027925 0.945956
-0.099026 0.027913 0.945556
-0.097407 0.027907 0.945354
-0.095779 0.027898 0.945059
-0.094131 0.027883 0.944558
-0.092520 0.027879 0.944411
-0.090912 0.027875 0.944295
-0.089337 0.027882 0.944519
-0.087754 0.027886 0.944666
-0.086184 0.027895 0.944965
-0.084610 0.027903 0.945225
-0.083029 0.027909 0.945416
-0.081458 0.027918 0.945737
-0.079897 0.027931 0.946184
-0.078349 0.027950 0.946802
-0.076767 0.027956 0.947037
-0.075182 0.027962 0.947241
-0.073543 0.027948 0.946759
-0.071902 0.027933 0.946225
-0.070254 0.027913 0.945566
-0.068595 0.027889 0.944742
-0.066962 0.027873 0.944229
-0.065358 0.027870 0.944117
-0.063769 0.027873 0.944229
-0.062162 0.027869 0.944061
-0.060571 0.027871 0.944138
-0.058966 0.027867 0.944003
-0.057370 0.027866 0.943992
-0.055759 0.027859 0.943735
-0.054163 0.027859 0.943730
-0.052560 0.027855 0.943597
-0.050958 0.027851 0.943472
-0.049368 0.027854 0.943564
-0.047789 0.027863 0.943887
-0.046211 0.027874 0.944234
-0.044621 0.027878 0.944366
-0.043032 0.027883 0.944548
-0.041427 0.027877 0.944341
-0.039822 0.027871 0.944139
-0.038217 0.027865 0.943942
-0.036614 0.027859 0.943739
-0.035000 0.027844 0.943239
-0.033397 0.027837 0.942991
-0.031801 0.027836 0.942953
-0.030217 0.027845 0.943264
-0.028633 0.027856 0.943628
-0.027053 0.027872 0.944166
-0.025460 0.027875 0.944264
-0.023858 0.027868 0.944040
-0.022258 0.027864 0.943890
-0.020665 0.027866 0.943986
-0.019064 0.027859 0.943754
-0.017462 0.027848 0.943376
-0.015861 0.027837 0.942996
-0.014255 0.027815 0.942246
-0.012652 0.027791 0.941448
-0.011053 0.027774 0.940860
-0.009448 0.027731 0.939390
-0.007824 0.027606 0.935157
-0.004609 0.027290 0.924458
-0.003029 0.027136 0.919248
-0.001469 0.027022 0.915381
0.000079 0.026981 0.913979
0.001622 0.026947 0.912846
0.003159 0.026900 0.911241
0.004690 0.026845 0.909402
0.006212 0.026779 0.907164
0.007726 0.026708 0.904761
0.009231 0.026638 0.902372
0.010730 0.026574 0.900193
0.012225 0.026516 0.898226
0.013719 0.026469 0.896635
0.015215 0.026433 0.895434
0.016711 0.026406 0.894514
0.018209 0.026385 0.893788
0.019700 0.026358 0.892881
0.021179 0.026320 0.891609
0.022646 0.026274 0.890034
0.024101 0.026219 0.888192
0.025549 0.026165 0.886348
0.026980 0.026099 0.884118
0.028404 0.026035 0.881945
0.029825 0.025973 0.879854
0.031241 0.025914 0.877852
0.032658 0.025862 0.876077
0.034090 0.025824 0.874815
0.035533 0.025798 0.873926
0.036977 0.025775 0.873125
0.038426 0.025756 0.872507
0.039876 0.025741 0.871973
0.041336 0.025732 0.871684
0.042793 0.025722 0.871340
0.044249 0.025712 0.871005
0.045708 0.025704 0.870739
0.047156 0.025691 0.870304
0.048603 0.025678 0.869862
0.050043 0.025663 0.869338
0.051486 0.025649 0.868889
0.052928 0.025636 0.868444
0.054379 0.025628 0.868171
0.055826 0.025618 0.867840
0.057276 0.025611 0.867587
0.058730 0.025606 0.867404
0.060189 0.025602 0.867288
0.061648 0.025600 0.867197
0.063145 0.025612 0.867613
0.064658 0.025630 0.868237
0.066195 0.025657 0.869145
0.067728 0.025681 0.869963
0.069274 0.025709 0.870915
0.070803 0.025730 0.871610
0.072328 0.025748 0.872233
0.073855 0.025766 0.872848
0.075391 0.025787 0.873548
0.076908 0.025801 0.874011
0.078426 0.025814 0.874457
0.079959 0.025832 0.875053
0.081480 0.025845 0.875509
0.083006 0.025859 0.875987
0.084563 0.025882 0.876780
0.086132 0.025908 0.877662
0.087698 0.025933 0.878485
0.089283 0.025962 0.879469
0.090870 0.025991 0.880445
0.092452 0.026017 0.881334
0.094064 0.026051 0.882476
0.095711 0.026093 0.883912
0.097370 0.026137 0.885408
0.099052 0.026186 0.887068
0.100756 0.026239 0.888875
0.102478 0.026295 0.890773
0.104210 0.026353 0.892715
0.105935 0.026407 0.894533
0.107671 0.026462 0.896399
0.109387 0.026510 0.898049
0.111089 0.026554 0.899532
0.112854 0.026612 0.901482
0.114748 0.026698 0.904398
0.116725 0.026801 0.907890
0.118758 0.026914 0.911709
0.120763 0.027017 0.915223
0.122720 0.027108 0.918289
0.124621 0.027184 0.920869
0.126490 0.027251 0.923146
0.128397 0.027325 0.925640
0.130435 0.027424 0.929014
0.132452 0.027517 0.932156
0.134567 0.027628 0.935906
0.136652 0.027730 0.939363
0.138711 0.027824 0.942561
0.140661 0.027895 0.944956
0.142608 0.027964 0.947280
0.145287 0.028173 0.954356
0.148058 0.028394 0.961876
0.150886 0.028623 0.969600
0.153918 0.027225 0.978454
0.153670 0.028837 0.976878
-0.141158 0.029635 0.949390
-0.139111 0.029541 0.946386
-0.137091 0.029451 0.943496
-0.135425 0.029436 0.943002
-0.133759 0.029420 0.942495
-0.132079 0.029401 0.941877
-0.130376 0.029376 0.941076
-0.128687 0.029353 0.940362
-0.127077 0.029349 0.940210
-0.125513 0.029355 0.940405
-0.123958 0.029363 0.940668
-0.122475 0.029389 0.941489
-0.120987 0.029414 0.942297
-0.119450 0.029428 0.942740
-0.117931 0.029446 0.943342
-0.116410 0.029465 0.943937
-0.114853 0.029475 0.944254
-0.113293 0.029484 0.944559
-0.111741 0.029496 0.944939
-0.110145 0.029497 0.944949
-0.108571 0.029503 0.945155
-0.107009 0.029513 0.945472
-0.105416 0.029514 0.945518
-0.103807 0.029512 0.945425
-0.102204 0.029510 0.945374
-0.100580 0.029503 0.945139
-0.098942 0.029490 0.944749
-0.097334 0.029487 0.944650
-0.095727 0.029484 0.944548
-0.094091 0.029472 0.944153
-0.092491 0.029471 0.944118
-0.090902 0.029473 0.944190
-0.089337 0.029483 0.944518
-0.087755 0.029488 0.944676
-0.086204 0.029504 0.945178
-0.084630 0.029512 0.945453
-0.083050 0.029519 0.945661
-0.081488 0.029532 0.946078
-0.079934 0.029549 0.946619
-0.078377 0.029565 0.947147
-0.076802 0.029575 0.947468
-0.075231 0.029587 0.947855
-0.073592 0.029573 0.947383
-0.071957 0.029559 0.946950
-0.070315 0.029541 0.946386
-0.068662 0.029519 0.945665
-0.067028 0.029503 0.945164
-0.065430 0.029503 0.945155
-0.063832 0.029503 0.945164
-0.062223 0.029498 0.944993
-0.060631 0.029501 0.945077
-0.059027 0.029497 0.944973
-0.057436 0.029501 0.945084
-0.055834 0.029499 0.945008
-0.054242 0.029502 0.945112
-0.052643 0.029501 0.945078
-0.051043 0.029500 0.945048
-0.049451 0.029503 0.945147
-0.047870 0.029513 0.945481
-0.046289 0.029524 0.945841
-0.044697 0.029529 0.945974
-0.043105 0.029534 0.946149
-0.041496 0.029527 0.945917
-0.039884 0.029517 0.945615
-0.038276 0.029510 0.945392
-0.036666 0.029501 0.945087
-0.035046 0.029482 0.944479
-0.033444 0.029477 0.944324
-0.031849 0.029479 0.944389
-0.030264 0.029490 0.944736
-0.028681 0.029505 0.945212
-0.027101 0.029524 0.945843
-0.025503 0.029525 0.945848
-0.023900 0.029520 0.945707
-0.022298 0.029516 0.945570
-0.020702 0.029519 0.945680
-0.019099 0.029512 0.945450
-0.017493 0.029500 0.945061
-0.015887 0.029485 0.944576
-0.014277 0.029458 0.943706
-0.012670 0.029430 0.942798
-0.011069 0.029411 0.942208
-0.009471 0.029396 0.941710
-0.007852 0.029295 0.938487
-0.006209 0.027453 0.929968
-0.006237 0.029161 0.934211
-0.004631 0.028994 0.928842
-0.003043 0.028830 0.923594
-0.001474 0.028678 0.918739
0.000079 0.028607 0.916443
0.001625 0.028555 0.914774
0.003167 0.028513 0.913435
0.004703 0.028461 0.911782
0.006230 0.028398 0.909750
0.007749 0.028329 0.907532
0.009260 0.028257 0.905239
0.010763 0.028186 0.902955
0.012260 0.028118 0.900771
0.013755 0.028061 0.898959
0.015249 0.028014 0.897470
0.016745 0.027978 0.896290
0.018243 0.027952 0.895466
0.019737 0.027924 0.894553
0.021218 0.027883 0.893270
0.022693 0.027840 0.891870
0.024155 0.027787 0.890197
0.025608 0.027730 0.888368
0.027046 0.027666 0.886308
0.028477 0.027601 0.884218
0.029901 0.027535 0.882107
0.031318 0.027470 0.880021
0.032739 0.027414 0.878237
0.034165 0.027367 0.876723
0.035599 0.027330 0.875552
0.037030 0.027294 0.874393
0.038468 0.027266 0.873483
0.039909 0.027241 0.872683
0.041363 0.027227 0.872235
0.042817 0.027214 0.871815
0.044277 0.027205 0.871549
0.045740 0.027199 0.871345
0.047189 0.027185 0.870910
0.048637 0.027172 0.870470
0.050083 0.027158 0.870038
0.051529 0.027145 0.869609
0.052973 0.027132 0.869187
0.054430 0.027126 0.868993
0.055883 0.027118 0.868734
0.057334 0.027109 0.868473
0.058790 0.027104 0.868283
0.060250 0.027100 0.868177
0.061712 0.027098 0.868094
0.063210 0.027111 0.868516
0.064725 0.027130 0.869142
0.066257 0.027156 0.869960
0.067784 0.027179 0.870689
0.069331 0.027208 0.871628
0.070860 0.027229 0.872318
0.072386 0.027249 0.872932
0.073921 0.027271 0.873636
0.075466 0.027295 0.874419
0.076986 0.027310 0.874898
0.078514 0.027327 0.875438
0.080065 0.027351 0.876213
0.081599 0.027369 0.876779
0.083135 0.027386 0.877347
0.084702 0.027414 0.878223
0.086272 0.027441 0.879090
0.087823 0.027461 0.879742
0.089401 0.027489 0.880637
0.090982 0.027517 0.881524
0.092565 0.027544 0.882409
0.094173 0.027578 0.883497
0.095822 0.027623 0.884935
0.097472 0.027667 0.886337
0.099135 0.027713 0.887813
0.100810 0.027761 0.889348
0.102511 0.027815 0.891065
0.104226 0.027870 0.892848
0.105938 0.027924 0.894562
0.107675 0.027982 0.896430
0.109380 0.028031 0.897989
0.111090 0.028079 0.899545
0.112855 0.028140 0.901490
0.114749 0.028231 0.904411
0.116727 0.028340 0.907903
0.118771 0.028462 0.911808
0.120776 0.028572 0.915325
0.122747 0.028671 0.918492
0.124664 0.028755 0.921186
0.126557 0.028831 0.923639
0.128494 0.028916 0.926344
0.130549 0.029025 0.929827
0.132572 0.029124 0.933002
0.134703 0.029244 0.936852
0.136804 0.029355 0.940409
0.138867 0.029455 0.943621
0.140833 0.029533 0.946115
0.142827 0.029615 0.948734
0.145313 0.029795 0.954525
0.147870 0.029987 0.960655
0.150522 0.030193 0.967263
-0.142705 0.031232 0.949010
-0.140143 0.031020 0.942570
-0.138550 0.031020 0.942569
-0.136954 0.031020 0.942554
-0.135320 0.031010 0.942270
-0.133699 0.031004 0.942075
-0.132053 0.030991 0.941694
-0.130379 0.030972 0.941102
-0.128704 0.030951 0.940483
-0.127079 0.030943 0.940224
-0.125488 0.030943 0.940218
-0.123930 0.030950 0.940455
-0.122435 0.030974 0.941184
-0.120935 0.030998 0.941891
-0.119395 0.031011 0.942304
-0.117875 0.031031 0.942892
-0.116344 0.031048 0.943402
-0.114791 0.031059 0.943747
-0.113234 0.031070 0.944068
-0.111683 0.031082 0.944450
-0.110088 0.031082 0.944457
-0.108513 0.031089 0.944650
-0.106951 0.031099 0.944956
-0.105357 0.031100 0.944989
-0.103751 0.031097 0.944913
-0.102149 0.031096 0.944871
-0.100519 0.031086 0.944559
-0.098890 0.031076 0.944260
-0.097294 0.031076 0.944257
-0.095698 0.031076 0.944260
-0.094073 0.031066 0.943977
-0.092502 0.031075 0.944227
-0.090923 0.031081 0.944411
-0.089368 0.031095 0.944852
-0.087796 0.031104 0.945115
-0.086261 0.031127 0.945808
-0.084697 0.031140 0.946199
-0.083126 0.031150 0.946521
-0.081564 0.031165 0.946968
-0.080007 0.031182 0.947480
-0.078440 0.031196 0.947902
-0.076854 0.031202 0.948108
-0.075276 0.031213 0.948416
-0.073643 0.031200 0.948039
-0.072015 0.031189 0.947707
-0.070378 0.031174 0.947244
-0.068739 0.031157 0.946719
-0.067110 0.031144 0.946321
-0.065510 0.031143 0.946318
-0.063904 0.031141 0.946229
-0.062299 0.031138 0.946138
-0.060705 0.031141 0.946226
-0.059106 0.031141 0.946230
-0.057519 0.031148 0.946441
-0.055926 0.031152 0.946566
-0.054332 0.031155 0.946677
-0.052737 0.031158 0.946765
-0.051136 0.031158 0.946763
-0.049546 0.031165 0.946961
-0.047962 0.031175 0.947288
-0.046377 0.031187 0.947631
-0.044776 0.031188 0.947658
-0.043181 0.031193 0.947816
-0.041565 0.031182 0.947488
-0.039949 0.031172 0.947169
-0.038339 0.031164 0.946952
-0.036727 0.031154 0.946644
-0.035100 0.031131 0.945939
-0.033495 0.031126 0.945775
-0.031902 0.031132 0.945957
-0.030315 0.031144 0.946331
-0.028731 0.031160 0.946830
-0.027150 0.031184 0.947536
-0.025548 0.031183 0.947514
-0.023940 0.031175 0.947281
-0.022336 0.031171 0.947162
-0.020739 0.031178 0.947371
-0.019133 0.031171 0.947144
-0.017526 0.031161 0.946838
-0.015919 0.031148 0.946440
-0.014305 0.031119 0.945564
-0.012693 0.031086 0.944558
-0.011090 0.031069 0.944044
-0.009489 0.031052 0.943536
-0.007874 0.030971 0.941089
-0.006261 0.030862 0.937752
-0.004650 0.030694 0.932668
-0.003056 0.030518 0.927319
-0.001480 0.030353 0.922305
0.000079 0.030249 0.919128
0.001629 0.030172 0.916785
0.003174 0.030131 0.915543
0.004714 0.030080 0.913991
0.006247 0.030019 0.912158
0.007772 0.029956 0.910235
0.009289 0.029885 0.908061
0.010797 0.029809 0.905782
0.012296 0.029731 0.903389
0.013790 0.029660 0.901238
0.015281 0.029598 0.899345
0.016774 0.029549 0.897881
0.018272 0.029517 0.896884
0.019770 0.029489 0.896050
0.021256 0.029449 0.894843
0.022735 0.029406 0.893523
0.024203 0.029354 0.891938
0.025660 0.029297 0.890202
0.027107 0.029234 0.888291
0.028547 0.029170 0.886362
0.029976 0.029104 0.884336
0.031397 0.029035 0.882247
0.032821 0.028975 0.880429
0.034240 0.028917 0.878661
0.035664 0.028867 0.877142
0.037086 0.028820 0.875710
0.038518 0.028784 0.874611
0.039948 0.028749 0.873549
0.041396 0.028728 0.872932
0.042847 0.028712 0.872427
0.044304 0.028701 0.872084
0.045764 0.028691 0.871810
0.047218 0.028679 0.871444
0.048671 0.028668 0.871086
0.050128 0.028659 0.870815
0.051585 0.028650 0.870555
0.053041 0.028642 0.870300
0.054506 0.028639 0.870203
0.055966 0.028633 0.870024
0.057415 0.028622 0.869688
0.058871 0.028615 0.869488
0.060334 0.028612 0.869389
0.061799 0.028609 0.869319
0.063295 0.028621 0.869681
0.064811 0.028642 0.870296
0.066337 0.028665 0.871009
0.067859 0.028686 0.871650
0.069400 0.028714 0.872497
0.070932 0.028737 0.873195
0.072460 0.028758 0.873823
0.074005 0.028784 0.874625
0.075552 0.028810 0.875421
0.077081 0.028829 0.875978
0.078618 0.028849 0.876598
0.080178 0.028877 0.877460
0.081716 0.028896 0.878036
0.083261 0.028918 0.878685
0.084830 0.028946 0.879551
0.086395 0.028972 0.880338
0.087948 0.028994 0.880993
0.089520 0.029020 0.881805
0.091102 0.029050 0.882691
0.092690 0.029079 0.883600
0.094308 0.029118 0.884770
0.095944 0.029161 0.886067
0.097586 0.029204 0.887372
0.099238 0.029248 0.888730
0.100903 0.029296 0.890166
0.102576 0.029344 0.891633
0.104300 0.029405 0.893483
0.106013 0.029461 0.895199
0.107749 0.029522 0.897050
0.109435 0.029568 0.898443
0.111167 0.029625 0.900164
0.112912 0.029683 0.901952
0.114786 0.029774 0.904700
0.116729 0.029880 0.907920
0.118768 0.030007 0.911787
0.120763 0.030120 0.915226
0.122749 0.030228 0.918505
0.124705 0.030326 0.921485
0.126675 0.030425 0.924496
0.128667 0.030527 0.927593
0.130741 0.030646 0.931195
0.132796 0.030757 0.934579
0.134927 0.030883 0.938409
0.136995 0.030992 0.941722
0.139017 0.031088 0.944638
0.140986 0.031171 0.947139
0.142998 0.031260 0.949870
0.145340 0.031419 0.954703
0.147733 0.031586 0.959768
-0.145610 0.031514 0.957564
-0.144374 0.032855 0.949432
-0.142118 0.032706 0.945105
-0.140056 0.032598 0.941983
-0.138464 0.032598 0.941983
-0.136870 0.032597 0.941973
-0.135263 0.032594 0.941875
-0.133658 0.032591 0.941783
-0.132052 0.032587 0.941686
-0.130393 0.032570 0.941199
-0.128729 0.032552 0.940668
-0.127090 0.032540 0.940307
-0.125485 0.032536 0.940192
-0.123916 0.032541 0.940346
-0.122407 0.032563 0.940970
-0.120895 0.032584 0.941579
-0.119353 0.032597 0.941976
-0.117834 0.032618 0.942560
-0.116305 0.032636 0.943081
-0.114766 0.032651 0.943540
-0.113223 0.032666 0.943970
-0.111673 0.032680 0.944358
-0.110076 0.032680 0.944358
-0.108490 0.032683 0.944450
-0.106926 0.032693 0.944739
-0.105332 0.032694 0.944766
-0.103736 0.032694 0.944775
-0.102137 0.032694 0.944756
-0.100517 0.032686 0.944542
-0.098889 0.032676 0.944250
-0.097292 0.032676 0.944244
-0.095697 0.032676 0.944250
-0.094083 0.032670 0.944071
-0.092523 0.032683 0.944443
-0.090966 0.032697 0.944849
-0.089429 0.032719 0.945494
-0.087874 0.032735 0.945955
-0.086347 0.032762 0.946745
-0.084791 0.032780 0.947251
-0.083220 0.032792 0.947590
-0.081647 0.032803 0.947931
-0.080078 0.032817 0.948332
-0.078501 0.032828 0.948639
-0.076906 0.032832 0.948749
-0.075318 0.032839 0.948956
-0.073692 0.032829 0.948674
-0.072071 0.032821 0.948449
-0.070442 0.032809 0.948101
-0.068816 0.032798 0.947776
-0.067193 0.032788 0.947484
-0.065591 0.032788 0.947484
-0.063983 0.032785 0.947384
-0.062386 0.032787 0.947466
-0.060791 0.032791 0.947559
-0.059190 0.032791 0.947575
-0.057600 0.032798 0.947779
-0.056016 0.032809 0.948084
-0.054421 0.032813 0.948218
-0.052830 0.032821 0.948441
-0.051238 0.032828 0.948647
-0.049650 0.032839 0.948944
-0.048056 0.032846 0.949157
-0.046462 0.032853 0.949370
-0.044853 0.032850 0.949282
-0.043251 0.032852 0.949345
-0.041632 0.032842 0.949035
-0.040015 0.032831 0.948728
-0.038403 0.032824 0.948520
-0.036791 0.032816 0.948297
-0.035166 0.032796 0.947704
-0.033561 0.032793 0.947641
-0.031972 0.032806 0.948011
-0.030381 0.032820 0.948400
-0.028790 0.032833 0.948791
-0.027203 0.032854 0.949382
-0.025597 0.032853 0.949348
-0.023984 0.032841 0.949028
-0.022377 0.032838 0.948918
-0.020777 0.032845 0.949128
-0.019170 0.032839 0.948971
-0.017560 0.032829 0.948672
-0.015950 0.032816 0.948301
-0.014334 0.032787 0.947457
-0.012720 0.032755 0.946532
-0.011113 0.032736 0.945994
-0.009509 0.032718 0.945470
-0.007897 0.032663 0.943870
-0.006286 0.032584 0.941591
-0.004674 0.032444 0.937542
-0.003072 0.032260 0.932239
-0.001487 0.032077 0.926936
0.000079 0.031932 0.922746
0.001633 0.031815 0.919360
0.003180 0.031741 0.917216
0.004724 0.031693 0.915850
0.006262 0.031642 0.914367
0.007794 0.031588 0.912820
0.009318 0.031524 0.910946
0.010833 0.031451 0.908856
0.012336 0.031365 0.906349
0.013830 0.031280 0.903894
0.015318 0.031197 0.901498
0.016809 0.031135 0.899720
0.018304 0.031091 0.898434
0.019802 0.031059 0.897514
0.021291 0.031018 0.896323
0.022775 0.030975 0.895096
0.024248 0.030923 0.893599
0.025713 0.030869 0.892022
0.027165 0.030806 0.890196
0.028608 0.030739 0.888274
0.030044 0.030672 0.886327
0.031471 0.030602 0.884313
0.032891 0.030533 0.882322
0.034309 0.030468 0.880435
0.035728 0.030409 0.878728
0.037142 0.030350 0.877026
0.038564 0.030303 0.875664
0.039992 0.030262 0.874501
0.041436 0.030238 0.873789
0.042888 0.030220 0.873271
0.044347 0.030208 0.872931
0.045809 0.030199 0.872667
0.047270 0.030190 0.872399
0.048730 0.030180 0.872129
0.050188 0.030171 0.871856
0.051647 0.030162 0.871596
0.053105 0.030153 0.871339
0.054567 0.030147 0.871168
0.056024 0.030139 0.870923
0.057479 0.030130 0.870669
0.058944 0.030126 0.870562
0.060415 0.030126 0.870548
0.061887 0.030126 0.870562
0.063385 0.030138 0.870911
0.064890 0.030154 0.871359
0.066410 0.030175 0.871977
0.067927 0.030194 0.872516
0.069463 0.030220 0.873289
0.070998 0.030245 0.874006
0.072542 0.030273 0.874817
0.074091 0.030302 0.875639
0.075641 0.030330 0.876442
0.077170 0.030348 0.876985
0.078714 0.030372 0.877669
0.080270 0.030399 0.878456
0.081808 0.030419 0.879030
0.083356 0.030442 0.879681
0.084925 0.030471 0.880534
0.086492 0.030499 0.881332
0.088056 0.030524 0.882071
0.089632 0.030553 0.882909
0.091216 0.030584 0.883799
0.092813 0.030618 0.884775
0.094426 0.030656 0.885877
0.096056 0.030698 0.887096
0.097697 0.030743 0.888387
0.099350 0.030790 0.889739
0.101016 0.030839 0.891161
0.102681 0.030887 0.892542
0.104386 0.030945 0.894222
0.106079 0.030998 0.895749
0.107804 0.031058 0.897507
0.109471 0.031101 0.898734
0.111205 0.031161 0.900477
0.112952 0.031223 0.902270
0.114815 0.031315 0.904927
0.116729 0.031419 0.907920
0.118741 0.031546 0.911581
0.120722 0.031661 0.914914
0.122710 0.031775 0.918215
0.124694 0.031886 0.921404
0.126732 0.032007 0.924915
0.128796 0.032132 0.928523
0.130906 0.032265 0.932369
0.133001 0.032391 0.936017
0.135129 0.032523 0.939813
0.137154 0.032626 0.942811
0.139136 0.032717 0.945446
0.141093 0.032801 0.947857
0.143107 0.032896 0.950592
0.145329 0.033035 0.954634
0.147583 0.033179 0.958789
-0.143255 0.034198 0.942073
-0.141687 0.034204 0.942239
-0.140085 0.034202 0.942179
-0.138479 0.034198 0.942090
-0.136872 0.034195 0.941990
-0.135264 0.034191 0.941882
-0.133631 0.034180 0.941595
-0.132011 0.034173 0.941394
-0.130351 0.034155 0.940897
-0.128687 0.034136 0.940364
-0.127051 0.034123 0.940020
-0.125458 0.034122 0.939992
-0.123900 0.034131 0.940224
-0.122380 0.034150 0.940761
-0.120858 0.034169 0.941290
-0.119316 0.034184 0.941683
-0.117797 0.034205 0.942263
-0.116269 0.034224 0.942791
-0.114743 0.034244 0.943351
-0.113212 0.034263 0.943879
-0.111673 0.034281 0.944358
-0.110076 0.034281 0.944358
-0.108490 0.034284 0.944450
-0.106926 0.034295 0.944739
-0.105332 0.034295 0.944766
-0.103736 0.034296 0.944775
-0.102137 0.034295 0.944756
-0.100516 0.034287 0.944539
-0.098889 0.034277 0.944244
-0.097291 0.034276 0.944229
-0.095696 0.034277 0.944244
-0.094092 0.034274 0.944166
-0.092543 0.034291 0.944650
-0.091006 0.034314 0.945271
-0.089481 0.034342 0.946037
-0.087943 0.034366 0.946701
-0.086424 0.034398 0.947595
-0.084876 0.034420 0.948193
-0.083294 0.034429 0.948439
-0.081718 0.034440 0.948759
-0.080140 0.034451 0.949057
-0.078551 0.034458 0.949242
-0.076947 0.034458 0.949257
-0.075358 0.034465 0.949451
-0.073738 0.034459 0.949267
-0.072125 0.034455 0.949150
-0.070504 0.034447 0.948932
-0.068891 0.034442 0.948816
-0.067281 0.034439 0.948724
-0.065684 0.034443 0.948827
-0.064080 0.034443 0.948825
-0.062488 0.034449 0.949003
-0.060883 0.034449 0.948999
-0.059280 0.034450 0.949020
-0.057682 0.034454 0.949127
-0.056095 0.034465 0.949428
-0.054497 0.034469 0.949554
-0.052916 0.034485 0.949976
-0.051327 0.034496 0.950299
-0.049742 0.034511 0.950713
-0.048145 0.034518 0.950910
-0.046547 0.034526 0.951107
-0.044934 0.034522 0.950996
-0.043325 0.034521 0.950975
-0.041709 0.034513 0.950770
-0.040089 0.034503 0.950479
-0.038474 0.034495 0.950276
-0.036859 0.034488 0.950069
-0.035235 0.034470 0.949573
-0.033628 0.034469 0.949536
-0.032039 0.034486 0.950006
-0.030442 0.034496 0.950283
-0.028841 0.034502 0.950468
-0.027245 0.034516 0.950843
-0.025633 0.034511 0.950693
-0.024018 0.034499 0.950377
-0.022409 0.034496 0.950282
-0.020809 0.034506 0.950580
-0.019201 0.034504 0.950508
-0.017590 0.034497 0.950318
-0.015978 0.034485 0.949982
-0.014363 0.034462 0.949351
-0.012747 0.034432 0.948530
-0.011138 0.034416 0.948076
-0.009530 0.034397 0.947551
-0.007922 0.034371 0.946845
-0.006312 0.034323 0.945516
-0.004699 0.034212 0.942454
-0.001496 0.033854 0.932607
0.000080 0.033661 0.927278
0.001640 0.033501 0.922871
0.003189 0.033385 0.919693
0.004732 0.033306 0.917510
0.006274 0.033259 0.916203
0.007812 0.033213 0.914934
0.009342 0.033152 0.913262
0.010865 0.033087 0.911468
0.012371 0.032996 0.908958
0.013866 0.032896 0.906217
0.015350 0.032794 0.903403
0.016837 0.032715 0.901221
0.018328 0.032658 0.899643
0.019827 0.032621 0.898630
0.021320 0.032581 0.897542
0.022809 0.032541 0.896422
0.024286 0.032489 0.895013
0.025753 0.032432 0.893427
0.027211 0.032368 0.891681
0.028659 0.032302 0.889856
0.030101 0.032235 0.888014
0.031534 0.032165 0.886085
0.032957 0.032093 0.884079
0.034373 0.032020 0.882081
0.035790 0.031953 0.880251
0.037198 0.031885 0.878363
0.038616 0.031829 0.876835
0.040037 0.031781 0.875498
0.041475 0.031748 0.874604
0.042923 0.031726 0.873981
0.044383 0.031713 0.873635
0.045847 0.031704 0.873385
0.047314 0.031698 0.873215
0.048780 0.031692 0.873038
0.050241 0.031682 0.872777
0.051706 0.031675 0.872591
0.053170 0.031669 0.872408
0.054639 0.031665 0.872314
0.056103 0.031660 0.872152
0.057566 0.031653 0.871982
0.059028 0.031647 0.871806
0.060500 0.031646 0.871781
0.061970 0.031644 0.871719
0.063463 0.031653 0.871982
0.064963 0.031666 0.872336
0.066477 0.031685 0.872853
0.067988 0.031701 0.873304
0.069527 0.031730 0.874093
0.071070 0.031759 0.874895
0.072625 0.031792 0.875810
0.074181 0.031825 0.876710
0.075733 0.031854 0.877514
0.077264 0.031874 0.878052
0.078802 0.031895 0.878651
0.080359 0.031924 0.879432
0.081899 0.031944 0.880003
0.083448 0.031968 0.880656
0.085028 0.032002 0.881597
0.086597 0.032031 0.882397
0.088156 0.032056 0.883078
0.089734 0.032086 0.883915
0.091312 0.032116 0.884728
0.092901 0.032148 0.885611
0.094513 0.032187 0.886694
0.096144 0.032232 0.887910
0.097789 0.032279 0.889215
0.099452 0.032331 0.890652
0.101121 0.032383 0.892089
0.102789 0.032434 0.893482
0.104486 0.032492 0.895074
0.106167 0.032543 0.896492
0.107892 0.032607 0.898240
0.109560 0.032651 0.899467
0.111299 0.032715 0.901232
0.113036 0.032777 0.902939
0.114863 0.032863 0.905312
0.116738 0.032961 0.907989
0.118721 0.033085 0.911425
0.120677 0.033200 0.914576
0.122692 0.033327 0.918080
0.124740 0.033460 0.921750
0.126827 0.033600 0.925609
0.128941 0.033744 0.929566
0.131088 0.033893 0.933665
0.133198 0.034028 0.937403
0.135287 0.034156 0.940912
0.137292 0.034259 0.943759
0.139240 0.034346 0.946154
0.141179 0.034429 0.948440
0.143168 0.034522 0.950999
-0.145604 0.035981 0.946991
-0.143576 0.035875 0.944184
-0.141814 0.035833 0.943084
-0.140190 0.035825 0.942884
-0.138541 0.035811 0.942507
-0.136902 0.035799 0.942196
-0.135265 0.035788 0.941885
-0.133615 0.035772 0.941480
-0.131981 0.035760 0.941175
-0.130333 0.035745 0.940764
-0.128685 0.035729 0.940346
-0.127074 0.035723 0.940192
-0.125484 0.035723 0.940186
-0.123937 0.035735 0.940505
-0.122405 0.035752 0.940954
-0.120869 0.035768 0.941380
-0.119316 0.035780 0.941686
-0.117797 0.035802 0.942263
-0.116269 0.035822 0.942791
-0.114754 0.035847 0.943443
-0.113234 0.035870 0.944069
-0.111707 0.035893 0.944650
-0.110122 0.035896 0.944749
-0.108546 0.035904 0.944939
-0.106973 0.035912 0.945149
-0.105378 0.035913 0.945179
-0.103782 0.035913 0.945195
-0.102171 0.035909 0.945071
-0.100539 0.035896 0.944752
-0.098909 0.035885 0.944440
-0.097311 0.035884 0.944427
-0.095716 0.035885 0.944440
-0.094131 0.035889 0.944552
-0.092591 0.035911 0.945139
-0.091072 0.035942 0.945956
-0.089547 0.035972 0.946743
-0.088019 0.036002 0.947524
-0.086500 0.036036 0.948430
-0.084942 0.036055 0.948932
-0.083349 0.036060 0.949058
-0.081770 0.036071 0.949353
-0.080189 0.036082 0.949641
-0.078592 0.036086 0.949746
-0.076995 0.036090 0.949853
-0.075397 0.036094 0.949945
-0.073776 0.036086 0.949753
-0.072155 0.036079 0.949552
-0.070542 0.036075 0.949442
-0.068937 0.036075 0.949450
-0.067341 0.036079 0.949571
-0.065750 0.036088 0.949787
-0.064152 0.036092 0.949891
-0.062565 0.036102 0.950175
-0.060965 0.036107 0.950283
-0.059361 0.036108 0.950315
-0.057760 0.036111 0.950402
-0.056169 0.036122 0.950679
-0.054568 0.036126 0.950788
-0.052985 0.036142 0.951226
-0.051401 0.036159 0.951659
-0.049814 0.036175 0.952085
-0.048215 0.036183 0.952294
-0.046610 0.036187 0.952389
-0.044995 0.036183 0.952283
-0.043384 0.036182 0.952273
-0.041770 0.036178 0.952173
-0.040152 0.036171 0.951981
-0.038538 0.036167 0.951863
-0.036925 0.036162 0.951751
-0.035301 0.036148 0.951364
-0.033693 0.036147 0.951349
-0.032097 0.036162 0.951740
-0.030493 0.036168 0.951889
-0.028886 0.036169 0.951938
-0.027283 0.036179 0.952188
-0.025670 0.036174 0.952047
-0.024055 0.036165 0.951833
-0.022442 0.036159 0.951651
-0.020835 0.036163 0.951757
-0.019224 0.036159 0.951671
-0.017612 0.036152 0.951479
-0.015998 0.036141 0.951175
-0.014384 0.036125 0.950758
-0.012768 0.036101 0.950134
-0.011157 0.036084 0.949692
-0.009547 0.036068 0.949276
-0.007937 0.036043 0.948603
-0.006330 0.036024 0.948096
-0.004716 0.035944 0.945998
-0.003091 0.034052 0.938053
-0.003106 0.035817 0.942671
0.000080 0.035435 0.932619
0.001647 0.035230 0.927214
0.003200 0.035069 0.922989
0.004744 0.034947 0.919762
0.006284 0.034867 0.917652
0.007826 0.034826 0.916577
0.009361 0.034770 0.915100
0.010891 0.034715 0.913671
0.012404 0.034628 0.911356
0.013904 0.034527 0.908697
0.015389 0.034412 0.905687
0.016873 0.034317 0.903177
0.018358 0.034238 0.901116
0.019855 0.034193 0.899910
0.021349 0.034148 0.898748
0.022842 0.034109 0.897723
0.024324 0.034060 0.896416
0.025798 0.034006 0.894993
0.027261 0.033943 0.893328
0.028712 0.033873 0.891508
0.030163 0.033810 0.889842
0.031602 0.033740 0.888007
0.033032 0.033668 0.886090
0.034451 0.033591 0.884080
0.035868 0.033518 0.882150
0.037271 0.033439 0.880073
0.038686 0.033376 0.878428
0.040102 0.033319 0.876921
0.041534 0.033278 0.875851
0.042980 0.033252 0.875141
0.044441 0.033238 0.874778
0.045906 0.033228 0.874524
0.047376 0.033222 0.874366
0.048850 0.033219 0.874282
0.050313 0.033209 0.874030
0.051775 0.033199 0.873763
0.053235 0.033189 0.873486
0.054705 0.033185 0.873381
0.056172 0.033179 0.873222
0.057643 0.033175 0.873140
0.059112 0.033172 0.873044
0.060592 0.033174 0.873103
0.062057 0.033168 0.872945
0.063551 0.033178 0.873197
0.065041 0.033185 0.873384
0.066545 0.033198 0.873741
0.068049 0.033212 0.874095
0.069590 0.033242 0.874880
0.071128 0.033269 0.875613
0.072691 0.033308 0.876614
0.074250 0.033342 0.877514
0.075795 0.033369 0.878237
0.077326 0.033389 0.878759
0.078858 0.033409 0.879280
0.080409 0.033436 0.879985
0.081966 0.033464 0.880729
0.083532 0.033495 0.881544
0.085124 0.033535 0.882591
0.086711 0.033572 0.883565
0.088289 0.033604 0.884411
0.089861 0.033632 0.885168
0.091431 0.033659 0.885879
0.093002 0.033686 0.886575
0.094606 0.033723 0.887559
0.096229 0.033767 0.888694
0.097876 0.033817 0.890013
0.099554 0.033875 0.891562
0.101238 0.033935 0.893119
0.102900 0.033985 0.894446
0.104587 0.034042 0.895947
0.106267 0.034095 0.897336
0.107981 0.034157 0.898977
0.109651 0.034204 0.900217
0.111404 0.034275 0.902082
0.113132 0.034337 0.903707
0.114922 0.034416 0.905777
0.116759 0.034506 0.908153
0.118715 0.034628 0.911378
0.120660 0.034745 0.914445
0.122700 0.034885 0.918142
0.124804 0.035040 0.922221
0.126949 0.035203 0.926494
0.129083 0.035358 0.930590
0.131223 0.035512 0.934622
0.133295 0.035643 0.938090
0.135341 0.035765 0.941288
0.137315 0.035865 0.943921
0.139248 0.035952 0.946207
0.141170 0.036034 0.948376
-0.143934 0.037569 0.946536
-0.142003 0.037482 0.944339
-0.140330 0.037461 0.943822
-0.138632 0.037433 0.943127
-0.136960 0.037412 0.942595
-0.135292 0.037392 0.942072
-0.133625 0.037371 0.941552
-0.131963 0.037351 0.941048
-0.130327 0.037338 0.940727
-0.128695 0.037326 0.940420
-0.127091 0.037322 0.940315
-0.125504 0.037322 0.940332
-0.123967 0.037338 0.940735
-0.122421 0.037352 0.941075
-0.120871 0.037365 0.941397
-0.119329 0.037380 0.941784
-0.117820 0.037407 0.942452
-0.116305 0.037432 0.943082
-0.114803 0.037462 0.943839
-0.113294 0.037491 0.944568
-0.111768 0.037514 0.945163
-0.110183 0.037519 0.945272
-0.108608 0.037526 0.945472
-0.107033 0.037535 0.945686
-0.105439 0.037537 0.945726
-0.103841 0.037537 0.945731
-0.102218 0.037528 0.945507
-0.100584 0.037515 0.945174
-0.098952 0.037502 0.944848
-0.097354 0.037501 0.944838
-0.095758 0.037502 0.944858
-0.094182 0.037511 0.945072
-0.092642 0.037534 0.945656
-0.091122 0.037566 0.946477
-0.089597 0.037597 0.947262
-0.088068 0.037629 0.948046
-0.086539 0.037661 0.948858
-0.084979 0.037680 0.949350
-0.083384 0.037685 0.949459
-0.081804 0.037696 0.949753
-0.080224 0.037708 0.950052
-0.078635 0.037717 0.950264
-0.077038 0.037721 0.950382
-0.075439 0.037725 0.950474
-0.073824 0.037721 0.950364
-0.072208 0.037716 0.950248
-0.070601 0.037716 0.950237
-0.069003 0.037720 0.950350
-0.067413 0.037729 0.950583
-0.065822 0.037739 0.950825
-0.064223 0.037744 0.950949
-0.062641 0.037759 0.951338
-0.061047 0.037768 0.951557
-0.059441 0.037770 0.951592
-0.057838 0.037773 0.951687
-0.056238 0.037780 0.951848
-0.054629 0.037779 0.951844
-0.053038 0.037792 0.952171
-0.051452 0.037810 0.952618
-0.049865 0.037828 0.953064
-0.048270 0.037840 0.953378
-0.046663 0.037844 0.953477
-0.045047 0.037841 0.953382
-0.043439 0.037844 0.953468
-0.041823 0.037841 0.953383
-0.040207 0.037836 0.953283
-0.038595 0.037836 0.953256
-0.036986 0.037838 0.953321
-0.035364 0.037827 0.953042
-0.033753 0.037827 0.953050
-0.032151 0.037838 0.953331
-0.030537 0.037836 0.953267
-0.028920 0.037829 0.953086
-0.027311 0.037831 0.953140
-0.025693 0.037822 0.952912
-0.024075 0.037810 0.952619
-0.022462 0.037806 0.952523
-0.020852 0.037807 0.952530
-0.019240 0.037803 0.952428
-0.017628 0.037799 0.952330
-0.016014 0.037790 0.952107
-0.014400 0.037777 0.951795
-0.012785 0.037761 0.951379
-0.011173 0.037748 0.951061
-0.009563 0.037740 0.950851
-0.007952 0.037721 0.950375
-0.006342 0.037705 0.949964
-0.004730 0.037656 0.948725
-0.003118 0.037558 0.946267
-0.001505 0.035647 0.938185
-0.001512 0.037413 0.942607
0.000081 0.037227 0.937912
0.001656 0.036995 0.932085
0.003213 0.036783 0.926732
0.004758 0.036617 0.922568
0.006298 0.036500 0.919607
0.007837 0.036429 0.917827
0.009377 0.036382 0.916630
0.010913 0.036336 0.915483
0.012433 0.036256 0.913464
0.013939 0.036159 0.911009
0.015430 0.036043 0.908086
0.016917 0.035942 0.905538
0.018403 0.035854 0.903340
0.019897 0.035795 0.901839
0.021390 0.035741 0.900477
0.022882 0.035693 0.899286
0.024364 0.035638 0.897884
0.025841 0.035581 0.896464
0.027308 0.035519 0.894894
0.028768 0.035453 0.893232
0.030227 0.035394 0.891739
0.031679 0.035331 0.890158
0.033116 0.035259 0.888351
0.034543 0.035184 0.886443
0.035964 0.035107 0.884509
0.037370 0.035023 0.882405
0.038781 0.034951 0.880574
0.040195 0.034886 0.878954
0.041622 0.034837 0.877711
0.043062 0.034802 0.876819
0.044517 0.034780 0.876283
0.045981 0.034767 0.875937
0.047448 0.034757 0.875693
0.048928 0.034757 0.875687
0.050394 0.034747 0.875436
0.051858 0.034736 0.875166
0.053321 0.034725 0.874886
0.054793 0.034721 0.874778
0.056256 0.034711 0.874538
0.057730 0.034708 0.874465
0.059202 0.034704 0.874367
0.060684 0.034707 0.874429
0.062150 0.034700 0.874256
0.063641 0.034707 0.874438
0.065126 0.034711 0.874527
0.066625 0.034721 0.874791
0.068131 0.034735 0.875137
0.069665 0.034763 0.875833
0.071200 0.034789 0.876493
0.072757 0.034825 0.877400
0.074309 0.034857 0.878216
0.075847 0.034882 0.878838
0.077379 0.034903 0.879365
0.078913 0.034924 0.879893
0.080458 0.034949 0.880521
0.082031 0.034985 0.881428
0.083609 0.035021 0.882356
0.085214 0.035068 0.883524
0.086814 0.035111 0.884612
0.088409 0.035151 0.885613
0.089980 0.035180 0.886342
0.091542 0.035204 0.886956
0.093096 0.035225 0.887477
0.094700 0.035263 0.888445
0.096324 0.035308 0.889574
0.097975 0.035361 0.890911
0.099677 0.035430 0.892661
0.101383 0.035500 0.894403
0.103059 0.035556 0.895829
0.104748 0.035615 0.897322
0.106428 0.035670 0.898697
0.108135 0.035732 0.900260
0.109810 0.035782 0.901518
0.111544 0.035850 0.903222
0.113263 0.035910 0.904750
0.115018 0.035981 0.906531
0.116818 0.036063 0.908610
0.118749 0.036184 0.911646
0.120709 0.036310 0.914813
0.122780 0.036465 0.918738
0.124940 0.036644 0.923227
0.127114 0.036821 0.927703
0.129263 0.036987 0.931883
0.131406 0.037148 0.935926
0.133451 0.037277 0.939185
0.135433 0.037386 0.941925
0.137354 0.037475 0.944185
0.139256 0.037558 0.946263
-0.144294 0.039271 0.948909
-0.142277 0.039158 0.946163
-0.140532 0.039117 0.945181
-0.138781 0.039074 0.944143
-0.137075 0.039043 0.943387
-0.135375 0.039013 0.942653
-0.133682 0.038984 0.941950
-0.132016 0.038962 0.941427
-0.130382 0.038949 0.941119
-0.128750 0.038937 0.940818
-0.127150 0.038934 0.940748
-0.125574 0.038938 0.940862
-0.124025 0.038951 0.941175
-0.122462 0.038960 0.941390
-0.120920 0.038976 0.941778
-0.119389 0.038996 0.942261
-0.117884 0.039025 0.942961
-0.116381 0.039056 0.943702
-0.114901 0.039095 0.944647
-0.113382 0.039122 0.945298
-0.111845 0.039144 0.945820
-0.110260 0.039148 0.945932
-0.108683 0.039156 0.946125
-0.107095 0.039161 0.946234
-0.105498 0.039162 0.946257
-0.103899 0.039162 0.946260
-0.102276 0.039153 0.946041
-0.100651 0.039143 0.945799
-0.099017 0.039129 0.945472
-0.097418 0.039129 0.945465
-0.095822 0.039130 0.945489
-0.094247 0.039139 0.945718
-0.092688 0.039156 0.946122
-0.091166 0.039189 0.946927
-0.089636 0.039221 0.947683
-0.088106 0.039253 0.948452
-0.086567 0.039282 0.949165
-0.085006 0.039302 0.949650
-0.083402 0.039303 0.949661
-0.081814 0.039311 0.949869
-0.080235 0.039324 0.950183
-0.078656 0.039338 0.950520
-0.077068 0.039348 0.950749
-0.075469 0.039352 0.950856
-0.073859 0.039351 0.950825
-0.072242 0.039345 0.950690
-0.070634 0.039345 0.950680
-0.069035 0.039350 0.950800
-0.067452 0.039364 0.951135
-0.065860 0.039373 0.951368
-0.064266 0.039382 0.951581
-0.062689 0.039402 0.952069
-0.061101 0.039416 0.952405
-0.059501 0.039422 0.952557
-0.057902 0.039431 0.952754
-0.056295 0.039433 0.952804
-0.054678 0.039428 0.952693
-0.053073 0.039433 0.952811
-0.051482 0.039447 0.953160
-0.049883 0.039457 0.953404
-0.048292 0.039474 0.953812
-0.046689 0.039483 0.954012
-0.045081 0.039487 0.954115
-0.043478 0.039495 0.954316
-0.041869 0.039500 0.954420
-0.040251 0.039496 0.954326
-0.038637 0.039495 0.954310
-0.037027 0.039499 0.954394
-0.035407 0.039491 0.954210
-0.033794 0.039491 0.954216
-0.032187 0.039499 0.954397
-0.030564 0.039487 0.954105
-0.028942 0.039474 0.953796
-0.027326 0.039468 0.953667
-0.025705 0.039455 0.953355
-0.024086 0.039444 0.953068
-0.022475 0.039443 0.953059
-0.020859 0.039435 0.952856
-0.019244 0.039426 0.952637
-0.017629 0.039417 0.952421
-0.016014 0.039404 0.952117
-0.014400 0.039391 0.951805
-0.012788 0.039382 0.951591
-0.011177 0.039374 0.951385
-0.009567 0.039370 0.951286
-0.007957 0.039358 0.950991
-0.006347 0.039344 0.950665
-0.004737 0.039326 0.950214
-0.003126 0.039262 0.948687
-0.001518 0.039149 0.945947
0.000081 0.038985 0.941988
0.001664 0.038763 0.936626
0.003227 0.038516 0.930656
0.004775 0.038314 0.925764
0.006315 0.038163 0.922120
0.007854 0.038067 0.919812
0.009395 0.038010 0.918427
0.010934 0.037962 0.917278
0.012461 0.037891 0.915558
0.013975 0.037799 0.913333
0.015470 0.037680 0.910449
0.016962 0.037574 0.907900
0.018449 0.037477 0.905559
0.019938 0.037400 0.903681
0.021428 0.037334 0.902105
0.022922 0.037284 0.900878
0.024407 0.037225 0.899460
0.025886 0.037166 0.898039
0.027359 0.037105 0.896553
0.028827 0.037044 0.895078
0.030298 0.036992 0.893836
0.031760 0.036935 0.892445
0.033211 0.036871 0.890908
0.034657 0.036807 0.889352
0.036086 0.036731 0.887526
0.037497 0.036644 0.885411
0.038908 0.036563 0.883467
0.040318 0.036488 0.881646
0.041733 0.036422 0.880052
0.043168 0.036377 0.878975
0.044617 0.036347 0.878247
0.046078 0.036329 0.877801
0.047540 0.036311 0.877383
0.049018 0.036307 0.877288
0.050481 0.036293 0.876944
0.051942 0.036278 0.876585
0.053402 0.036263 0.876216
0.054876 0.036259 0.876111
0.056342 0.036249 0.875871
0.057818 0.036246 0.875805
0.059292 0.036242 0.875702
0.060777 0.036244 0.875766
0.062246 0.036238 0.875603
0.063739 0.036245 0.875784
0.065226 0.036249 0.875872
0.066720 0.036256 0.876044
0.068214 0.036263 0.876212
0.069737 0.036284 0.876726
0.071258 0.036304 0.877211
0.072801 0.036334 0.877940
0.074340 0.036361 0.878586
0.075878 0.036386 0.879192
0.077410 0.036408 0.879719
0.078946 0.036430 0.880252
0.080492 0.036456 0.880892
0.082081 0.036501 0.881958
0.083676 0.036546 0.883064
0.085295 0.036600 0.884369
0.086916 0.036654 0.885651
0.088522 0.036699 0.886744
0.090094 0.036728 0.887462
0.091649 0.036750 0.887989
