1694
-0.042116 -0.144869 0.998545
-0.040555 -0.145323 1.001670
-0.039155 -0.148132 1.009240
-0.039009 -0.145875 1.005480
-0.037670 -0.149008 1.015210
-0.037501 -0.146626 1.010650
-0.034519 -0.148496 1.023540
-0.032983 -0.149377 1.029620
-0.031401 -0.150136 1.034850
-0.029742 -0.150594 1.038000
-0.028029 -0.150819 1.039550
-0.026284 -0.150887 1.040020
-0.024523 -0.150870 1.039900
-0.022762 -0.150850 1.039770
-0.021001 -0.150832 1.039640
-0.019235 -0.150763 1.039170
-0.017472 -0.150707 1.038780
-0.015709 -0.150647 1.038370
-0.013949 -0.150591 1.037980
-0.012197 -0.150623 1.038210
-0.010448 -0.150715 1.038840
-0.008695 -0.150779 1.039280
-0.006945 -0.150928 1.040310
-0.005172 -0.150506 1.037400
0.004829 -0.135843 0.936329
0.006399 -0.135564 0.934406
0.007957 -0.135204 0.931922
0.009512 -0.134912 0.929910
0.011062 -0.134636 0.928011
0.012605 -0.134365 0.926139
0.014142 -0.134093 0.924264
0.015676 -0.133845 0.922558
0.017207 -0.133626 0.921047
0.018731 -0.133390 0.919418
0.020252 -0.133168 0.917893
0.021764 -0.132929 0.916245
0.023266 -0.132658 0.914372
0.024753 -0.132346 0.912225
0.026239 -0.132063 0.910274
0.027722 -0.131798 0.908448
0.029212 -0.131590 0.907014
0.030697 -0.131385 0.905600
0.032178 -0.131180 0.904189
0.033656 -0.130984 0.902837
0.035137 -0.130815 0.901672
0.036623 -0.130680 0.900741
0.038112 -0.130563 0.899938
0.039605 -0.130471 0.899301
0.041103 -0.130398 0.898799
0.042595 -0.130315 0.898228
0.044066 -0.130174 0.897254
0.045541 -0.130054 0.896425
0.047006 -0.129914 0.895461
0.048453 -0.129737 0.894243
0.049896 -0.129559 0.893014
0.051357 -0.129435 0.892159
0.052822 -0.129328 0.891425
0.054302 -0.129265 0.890985
0.055797 -0.129239 0.890810
0.057276 -0.129178 0.890388
0.058751 -0.129111 0.889927
0.060222 -0.129039 0.889432
0.061692 -0.128970 0.888956
0.063164 -0.128907 0.888520
0.064660 -0.128894 0.888432
0.066155 -0.128882 0.888345
0.067650 -0.128868 0.888249
0.069150 -0.128865 0.888234
0.070652 -0.128865 0.888234
0.072155 -0.128868 0.888249
0.073664 -0.128882 0.888345
0.075188 -0.128919 0.888601
0.076721 -0.128971 0.888963
0.078266 -0.129040 0.889435
0.079813 -0.129111 0.889924
0.081383 -0.129215 0.890642
0.082948 -0.129308 0.891282
0.084517 -0.129402 0.891934
0.086079 -0.129484 0.892501
0.087641 -0.129563 0.893039
0.089177 -0.129601 0.893304
0.090704 -0.129625 0.893467
0.092233 -0.129651 0.893647
0.093755 -0.129667 0.893757
0.095288 -0.129697 0.893964
0.096848 -0.129762 0.894411
0.098432 -0.129856 0.895063
0.100011 -0.129942 0.895654
0.101621 -0.130065 0.896502
0.103242 -0.130198 0.897416
0.104836 -0.130293 0.898075
0.106423 -0.130377 0.898653
0.108018 -0.130469 0.899286
0.109606 -0.130549 0.899840
0.111163 -0.130592 0.900133
0.112763 -0.130683 0.900762
0.114367 -0.130775 0.901400
0.115967 -0.130861 0.901991
0.117557 -0.130933 0.902488
0.119190 -0.131052 0.903305
0.120840 -0.131186 0.904227
0.122490 -0.131316 0.905122
0.124217 -0.131524 0.906559
0.126000 -0.131786 0.908366
0.127871 -0.132133 0.910754
0.129735 -0.132463 0.913034
0.131656 -0.132844 0.915658
0.133557 -0.133196 0.918085
0.135434 -0.133517 0.920295
0.137241 -0.133761 0.921979
0.139051 -0.134003 0.923648
0.140879 -0.134257 0.925399
0.142774 -0.134570 0.927552
0.144751 -0.134950 0.930175
0.146699 -0.135297 0.932563
0.148649 -0.135638 0.934914
0.150547 -0.135924 0.936890
-0.079539 -0.143690 1.002130
-0.077814 -0.143634 1.001730
-0.076081 -0.143560 1.001220
-0.074321 -0.143430 1.000310
-0.072564 -0.143298 0.999395
-0.070784 -0.143117 0.998129
-0.068994 -0.142904 0.996644
-0.067216 -0.142706 0.995260
-0.065455 -0.142536 0.994080
-0.063696 -0.142360 0.992847
-0.061948 -0.142201 0.991742
-0.060223 -0.142085 0.990932
-0.058506 -0.141985 0.990237
-0.056800 -0.141905 0.989675
-0.055126 -0.141904 0.989667
-0.053472 -0.141954 0.990016
-0.051818 -0.142007 0.990386
-0.050166 -0.142071 0.990836
-0.048517 -0.142148 0.991369
-0.046867 -0.142226 0.991917
-0.045228 -0.142344 0.992739
-0.043605 -0.142526 0.994005
-0.042021 -0.142852 0.996280
-0.040449 -0.143252 0.999068
-0.038898 -0.143759 1.002610
-0.037364 -0.144383 1.006960
-0.032852 -0.147046 1.025530
-0.031294 -0.147875 1.031310
-0.029675 -0.148498 1.035660
-0.027994 -0.148867 1.038230
-0.026258 -0.148980 1.039020
-0.024499 -0.148961 1.038890
-0.022736 -0.148923 1.038620
-0.020978 -0.148903 1.038480
-0.019216 -0.148854 1.038140
-0.017459 -0.148836 1.038010
-0.015700 -0.148800 1.037760
-0.013944 -0.148778 1.037610
-0.012194 -0.148827 1.037950
-0.010445 -0.148918 1.038590
-0.008693 -0.148973 1.038970
-0.006944 -0.149135 1.040100
-0.005191 -0.149299 1.041250
0.004834 -0.134393 0.937285
0.006405 -0.134105 0.935278
0.007964 -0.133732 0.932674
0.009519 -0.133425 0.930538
0.011070 -0.133163 0.928705
0.012613 -0.132881 0.926739
0.014153 -0.132627 0.924972
0.015688 -0.132383 0.923265
0.017220 -0.132164 0.921742
0.018743 -0.131913 0.919993
0.020266 -0.131705 0.918540
0.021782 -0.131483 0.916992
0.023286 -0.131221 0.915161
0.024777 -0.130927 0.913115
0.026267 -0.130657 0.911230
0.027751 -0.130394 0.909396
0.029237 -0.130163 0.907785
0.030723 -0.129961 0.906375
0.032202 -0.129744 0.904864
0.033678 -0.129537 0.903418
0.035153 -0.129345 0.902078
0.036635 -0.129194 0.901028
0.038124 -0.129077 0.900212
0.039614 -0.128973 0.899489
0.041108 -0.128891 0.898917
0.042604 -0.128819 0.898415
0.044083 -0.128703 0.897599
0.045563 -0.128597 0.896864
0.047034 -0.128475 0.896010
0.048493 -0.128326 0.894973
0.049938 -0.128152 0.893760
0.051390 -0.128005 0.892737
0.052844 -0.127872 0.891809
0.054318 -0.127793 0.891255
0.055803 -0.127742 0.890897
0.057276 -0.127669 0.890391
0.058751 -0.127603 0.889932
0.060228 -0.127545 0.889527
0.061699 -0.127477 0.889049
0.063171 -0.127414 0.888612
0.064666 -0.127401 0.888520
0.066162 -0.127388 0.888433
0.067651 -0.127364 0.888264
0.069152 -0.127363 0.888255
0.070653 -0.127363 0.888255
0.072156 -0.127364 0.888264
0.073665 -0.127377 0.888351
0.075195 -0.127425 0.888691
0.076737 -0.127490 0.889146
0.078283 -0.127561 0.889638
0.079838 -0.127641 0.890198
0.081415 -0.127756 0.890995
0.082989 -0.127859 0.891715
0.084560 -0.127955 0.892389
0.086132 -0.128050 0.893047
0.087695 -0.128128 0.893593
0.089232 -0.128166 0.893854
0.090744 -0.128167 0.893861
0.092281 -0.128203 0.894116
0.093814 -0.128232 0.894315
0.095358 -0.128275 0.894620
0.096930 -0.128355 0.895173
0.098524 -0.128459 0.895901
0.100094 -0.128531 0.896403
0.101694 -0.128638 0.897147
0.103305 -0.128755 0.897968
0.104891 -0.128838 0.898544
0.106488 -0.128933 0.899203
0.108085 -0.129025 0.899847
0.109674 -0.129105 0.900404
0.111243 -0.129159 0.900784
0.112857 -0.129263 0.901509
0.114463 -0.129356 0.902155
0.116088 -0.129467 0.902928
0.117691 -0.129552 0.903522
0.119329 -0.129671 0.904357
0.120957 -0.129778 0.905099
0.122603 -0.129901 0.905959
0.124306 -0.130080 0.907207
0.126102 -0.130351 0.909096
0.127976 -0.130695 0.911498
0.129867 -0.131049 0.913964
0.131793 -0.131429 0.916611
0.133709 -0.131790 0.919134
0.135580 -0.132099 0.921284
0.137403 -0.132355 0.923072
0.139259 -0.132636 0.925035
0.141112 -0.132908 0.926930
0.142975 -0.133184 0.928855
0.144915 -0.133525 0.931232
0.146811 -0.133818 0.933275
0.148695 -0.134094 0.935203
0.150549 -0.134338 0.936901
-0.079448 -0.141831 1.000990
-0.077719 -0.141762 1.000510
-0.075981 -0.141676 0.999903
-0.074210 -0.141522 0.998811
-0.072436 -0.141356 0.997641
-0.070661 -0.141179 0.996391
-0.068883 -0.140987 0.995037
-0.067109 -0.140794 0.993674
-0.065352 -0.140629 0.992513
-0.063595 -0.140453 0.991268
-0.061849 -0.140295 0.990151
-0.060120 -0.140166 0.989243
-0.058406 -0.140066 0.988535
-0.056702 -0.139985 0.987969
-0.055031 -0.139984 0.987957
-0.053374 -0.140019 0.988203
-0.051724 -0.140072 0.988581
-0.050075 -0.140136 0.989034
-0.048429 -0.140212 0.989567
-0.046782 -0.140290 0.990118
-0.045145 -0.140403 0.990917
-0.043516 -0.140552 0.991965
-0.041920 -0.140823 0.993882
-0.040333 -0.141151 0.996194
-0.038771 -0.141598 0.999350
-0.037217 -0.142114 1.002990
-0.035863 -0.145199 1.012650
-0.035691 -0.142791 1.007770
-0.032720 -0.144722 1.021390
-0.031189 -0.145638 1.027870
-0.029606 -0.146402 1.033250
-0.027959 -0.146926 1.036950
-0.026229 -0.147057 1.037880
-0.024471 -0.147035 1.037720
-0.022708 -0.146980 1.037340
-0.020952 -0.146959 1.037190
-0.019195 -0.146929 1.036980
-0.017442 -0.146932 1.036990
-0.015687 -0.146916 1.036880
-0.013934 -0.146915 1.036870
-0.012185 -0.146963 1.037220
-0.010437 -0.147038 1.037750
-0.008686 -0.147099 1.038170
-0.006921 -0.146879 1.036620
-0.005159 -0.146628 1.034850
-0.003405 -0.148177 1.033420
-0.003389 -0.145747 1.028630
0.004841 -0.132979 0.938520
0.006412 -0.132666 0.936308
0.007972 -0.132292 0.933673
0.009528 -0.131972 0.931409
0.011078 -0.131685 0.929389
0.012623 -0.131406 0.927417
0.014165 -0.131169 0.925747
0.015700 -0.130917 0.923966
0.017231 -0.130689 0.922357
0.018755 -0.130437 0.920578
0.020276 -0.130216 0.919016
0.021795 -0.130008 0.917553
0.023301 -0.129753 0.915752
0.024799 -0.129491 0.913903
0.026290 -0.129226 0.912033
0.027778 -0.128976 0.910269
0.029262 -0.128735 0.908566
0.030750 -0.128536 0.907159
0.032227 -0.128310 0.905565
0.033703 -0.128103 0.904104
0.035175 -0.127896 0.902647
0.036651 -0.127722 0.901414
0.038139 -0.127604 0.900583
0.039630 -0.127500 0.899850
0.041121 -0.127407 0.899194
0.042613 -0.127324 0.898606
0.044096 -0.127219 0.897866
0.045577 -0.127115 0.897134
0.047050 -0.126998 0.896309
0.048519 -0.126878 0.895463
0.049976 -0.126734 0.894444
0.051434 -0.126600 0.893498
0.052894 -0.126480 0.892649
0.054362 -0.126385 0.891980
0.055836 -0.126307 0.891428
0.057303 -0.126219 0.890809
0.058767 -0.126129 0.890178
0.060239 -0.126060 0.889691
0.061717 -0.126006 0.889309
0.063195 -0.125957 0.888961
0.064686 -0.125933 0.888794
0.066188 -0.125931 0.888778
0.067676 -0.125906 0.888601
0.069172 -0.125894 0.888513
0.070667 -0.125882 0.888432
0.072169 -0.125882 0.888432
0.073678 -0.125894 0.888513
0.075210 -0.125944 0.888866
0.076760 -0.126021 0.889414
0.078315 -0.126104 0.889997
0.079877 -0.126195 0.890642
0.081464 -0.126320 0.891522
0.083039 -0.126423 0.892252
0.084612 -0.126521 0.892938
0.086194 -0.126627 0.893691
0.087768 -0.126719 0.894337
0.089309 -0.126759 0.894620
0.090822 -0.126760 0.894629
0.092368 -0.126806 0.894954
0.093901 -0.126834 0.895149
0.095446 -0.126876 0.895448
0.097012 -0.126944 0.895926
0.098605 -0.127046 0.896644
0.100157 -0.127090 0.896960
0.101745 -0.127181 0.897599
0.103347 -0.127285 0.898332
0.104934 -0.127368 0.898917
0.106532 -0.127461 0.899578
0.108141 -0.127565 0.900312
0.109732 -0.127645 0.900875
0.111315 -0.127715 0.901367
0.112942 -0.127831 0.902190
0.114564 -0.127939 0.902950
0.116203 -0.128063 0.903824
0.117820 -0.128160 0.904511
0.119448 -0.128266 0.905258
0.121063 -0.128356 0.905890
0.122697 -0.128463 0.906647
0.124385 -0.128624 0.907782
0.126183 -0.128893 0.909679
0.128072 -0.129247 0.912180
0.129979 -0.129612 0.914753
0.131921 -0.130001 0.917502
0.133853 -0.130372 0.920117
0.135739 -0.130690 0.922363
0.137567 -0.130946 0.924171
0.139457 -0.131254 0.926347
0.141329 -0.131539 0.928355
0.143181 -0.131799 0.930191
0.145077 -0.132094 0.932275
0.146937 -0.132349 0.934075
0.148757 -0.132564 0.935592
0.150565 -0.132764 0.937003
-0.081102 -0.140066 1.000510
-0.079366 -0.139989 0.999957
-0.077628 -0.139903 0.999344
-0.075880 -0.139795 0.998572
-0.074089 -0.139602 0.997193
-0.072305 -0.139412 0.995836
-0.070532 -0.139235 0.994573
-0.068758 -0.139047 0.993229
-0.066987 -0.138858 0.991879
-0.065234 -0.138696 0.990721
-0.063486 -0.138536 0.989576
-0.061749 -0.138392 0.988547
-0.060029 -0.138279 0.987740
-0.058324 -0.138196 0.987151
-0.056628 -0.138131 0.986683
-0.054959 -0.138129 0.986668
-0.053299 -0.138147 0.986802
-0.051644 -0.138185 0.987069
-0.049994 -0.138234 0.987421
-0.048346 -0.138295 0.987858
-0.046702 -0.138372 0.988410
-0.045062 -0.138468 0.989094
-0.043430 -0.138596 0.990010
-0.041822 -0.138814 0.991565
-0.040228 -0.139099 0.993603
-0.038651 -0.139470 0.996250
-0.037087 -0.139922 0.999480
-0.035540 -0.140488 1.003520
-0.031090 -0.143438 1.024590
-0.029532 -0.144291 1.030680
-0.027916 -0.144944 1.035350
-0.026192 -0.145092 1.036410
-0.024439 -0.145084 1.036350
-0.022681 -0.145046 1.036080
-0.020927 -0.145027 1.035940
-0.019173 -0.145012 1.035840
-0.017424 -0.145031 1.035970
-0.015673 -0.145033 1.035990
-0.013922 -0.145036 1.036010
-0.012175 -0.145083 1.036340
-0.010427 -0.145139 1.036740
-0.008677 -0.145182 1.037050
-0.006894 -0.144559 1.032600
-0.005123 -0.143851 1.027540
-0.003367 -0.143032 1.021690
0.004848 -0.131579 0.939881
0.006420 -0.131242 0.937480
0.007982 -0.130860 0.934745
0.009538 -0.130531 0.932396
0.011089 -0.130232 0.930262
0.012634 -0.129955 0.928281
0.014178 -0.129721 0.926613
0.015713 -0.129461 0.924757
0.017246 -0.129236 0.923149
0.018769 -0.128974 0.921273
0.020291 -0.128751 0.919680
0.021811 -0.128546 0.918218
0.023320 -0.128307 0.916510
0.024822 -0.128063 0.914771
0.026315 -0.127801 0.912899
0.027804 -0.127555 0.911142
0.029290 -0.127316 0.909434
0.030779 -0.127119 0.908024
0.032257 -0.126893 0.906412
0.033738 -0.126699 0.905028
0.035208 -0.126483 0.903483
0.036678 -0.126287 0.902079
0.038163 -0.126154 0.901133
0.039650 -0.126038 0.900304
0.041138 -0.125933 0.899557
0.042627 -0.125840 0.898888
0.044114 -0.125748 0.898231
0.045591 -0.125634 0.897418
0.047070 -0.125531 0.896684
0.048545 -0.125427 0.895939
0.050013 -0.125310 0.895101
0.051478 -0.125193 0.894266
0.052950 -0.125098 0.893587
0.054419 -0.125003 0.892913
0.055888 -0.124912 0.892263
0.057349 -0.124810 0.891531
0.058808 -0.124706 0.890790
0.060274 -0.124625 0.890210
0.061748 -0.124562 0.889758
0.063229 -0.124516 0.889430
0.064714 -0.124480 0.889176
0.066215 -0.124476 0.889148
0.067703 -0.124449 0.888954
0.069199 -0.124436 0.888859
0.070695 -0.124425 0.888778
0.072204 -0.124436 0.888859
0.073714 -0.124448 0.888947
0.075247 -0.124498 0.889302
0.076799 -0.124576 0.889860
0.078355 -0.124659 0.890450
0.079926 -0.124762 0.891190
0.081515 -0.124887 0.892082
0.083093 -0.124992 0.892833
0.084674 -0.125099 0.893594
0.086267 -0.125217 0.894442
0.087843 -0.125309 0.895096
0.089394 -0.125362 0.895477
0.090917 -0.125375 0.895567
0.092456 -0.125409 0.895807
0.093989 -0.125433 0.895980
0.095527 -0.125465 0.896208
0.097084 -0.125519 0.896593
0.098659 -0.125594 0.897133
0.100207 -0.125633 0.897411
0.101786 -0.125710 0.897958
0.103379 -0.125800 0.898606
0.104966 -0.125883 0.899194
0.106575 -0.125987 0.899942
0.108186 -0.126092 0.900688
0.109779 -0.126173 0.901266
0.111385 -0.126266 0.901932
0.113015 -0.126384 0.902775
0.114652 -0.126506 0.903647
0.116315 -0.126653 0.904694
0.117947 -0.126764 0.905487
0.119575 -0.126867 0.906224
0.121191 -0.126955 0.906850
0.122823 -0.127056 0.907579
0.124501 -0.127203 0.908627
0.126302 -0.127471 0.910538
0.128208 -0.127837 0.913151
0.130134 -0.128213 0.915839
0.132090 -0.128611 0.918680
0.134026 -0.128979 0.921309
0.135913 -0.129293 0.923552
0.137730 -0.129533 0.925267
0.139633 -0.129848 0.927518
0.141495 -0.130118 0.929447
0.143350 -0.130376 0.931288
0.145218 -0.130640 0.933176
0.147044 -0.130861 0.934755
0.148819 -0.131032 0.935979
0.150596 -0.131202 0.937192
0.153799 -0.134204 0.947163
0.152395 -0.131387 0.938512
-0.081009 -0.138213 0.999372
-0.079278 -0.138139 0.998837
-0.077534 -0.138042 0.998133
-0.075776 -0.137913 0.997201
-0.073995 -0.137736 0.995926
-0.072205 -0.137534 0.994462
-0.070420 -0.137330 0.992988
-0.068646 -0.137140 0.991613
-0.066869 -0.136935 0.990133
-0.065114 -0.136763 0.988889
-0.063369 -0.136607 0.987756
-0.061643 -0.136481 0.986850
-0.059926 -0.136371 0.986053
-0.058226 -0.136292 0.985484
-0.056534 -0.136231 0.985042
-0.054868 -0.136230 0.985031
-0.053209 -0.136246 0.985150
-0.051562 -0.136292 0.985485
-0.049918 -0.136354 0.985928
-0.048273 -0.136415 0.986370
-0.046632 -0.136493 0.986933
-0.044989 -0.136572 0.987503
-0.043350 -0.136666 0.988183
-0.041726 -0.136817 0.989281
-0.040120 -0.137047 0.990939
-0.038525 -0.137333 0.993012
-0.036953 -0.137730 0.995882
-0.035384 -0.138177 0.999112
-0.031000 -0.141291 1.021630
-0.029468 -0.142233 1.028440
-0.027882 -0.143016 1.034100
-0.026163 -0.143177 1.035270
-0.024413 -0.143176 1.035260
-0.022662 -0.143170 1.035220
-0.020909 -0.143153 1.035090
-0.019158 -0.143139 1.034990
-0.017410 -0.143156 1.035120
-0.015662 -0.143173 1.035230
-0.013910 -0.143158 1.035130
-0.012162 -0.143174 1.035250
-0.010414 -0.143207 1.035480
-0.008666 -0.143244 1.035750
-0.006864 -0.142191 1.028130
-0.005084 -0.141018 1.019650
0.004854 -0.130161 0.941154
0.006426 -0.129768 0.938308
0.007987 -0.129363 0.935382
0.009543 -0.129026 0.932943
0.011095 -0.128731 0.930811
0.012642 -0.128456 0.928823
0.014187 -0.128235 0.927225
0.015725 -0.127992 0.925464
0.017258 -0.127757 0.923765
0.018781 -0.127496 0.921880
0.020304 -0.127274 0.920274
0.021823 -0.127060 0.918727
0.023333 -0.126823 0.917014
0.024841 -0.126606 0.915449
0.026337 -0.126360 0.913666
0.027828 -0.126118 0.911914
0.029317 -0.125892 0.910281
0.030808 -0.125696 0.908866
0.032284 -0.125461 0.907170
0.033766 -0.125270 0.905789
0.035237 -0.125057 0.904245
0.036702 -0.124839 0.902668
0.038180 -0.124683 0.901541
0.039666 -0.124564 0.900680
0.041151 -0.124448 0.899843
0.042637 -0.124346 0.899105
0.044128 -0.124266 0.898528
0.045610 -0.124164 0.897787
0.047093 -0.124072 0.897125
0.048574 -0.123981 0.896463
0.050053 -0.123891 0.895815
0.051526 -0.123791 0.895090
0.053006 -0.123714 0.894533
0.054479 -0.123625 0.893889
0.055944 -0.123524 0.893157
0.057400 -0.123407 0.892312
0.058852 -0.123289 0.891459
0.060313 -0.123195 0.890784
0.061781 -0.123120 0.890237
0.063263 -0.123075 0.889912
0.064749 -0.123040 0.889659
0.066251 -0.123035 0.889628
0.067739 -0.123007 0.889420
0.069235 -0.122993 0.889323
0.070732 -0.122982 0.889243
0.072242 -0.122994 0.889330
0.073753 -0.123007 0.889420
0.075280 -0.123044 0.889691
0.076832 -0.123122 0.890251
0.078396 -0.123213 0.890915
0.079978 -0.123331 0.891763
0.081577 -0.123469 0.892761
0.083172 -0.123596 0.893683
0.084763 -0.123713 0.894528
0.086356 -0.123829 0.895365
0.087933 -0.123919 0.896016
0.089487 -0.123973 0.896409
0.091012 -0.123986 0.896504
0.092544 -0.124008 0.896662
0.094068 -0.124019 0.896741
0.095597 -0.124036 0.896864
0.097135 -0.124064 0.897067
0.098700 -0.124125 0.897507
0.100248 -0.124162 0.897777
0.101827 -0.124238 0.898320
0.103411 -0.124316 0.898888
0.105009 -0.124409 0.899557
0.106619 -0.124513 0.900310
0.108241 -0.124628 0.901142
0.109836 -0.124710 0.901734
0.111464 -0.124825 0.902569
0.113095 -0.124942 0.903413
0.114744 -0.125074 0.904371
0.116410 -0.125222 0.905440
0.118056 -0.125344 0.906322
0.119687 -0.125447 0.907067
0.121305 -0.125535 0.907701
0.122961 -0.125659 0.908599
0.124668 -0.125832 0.909847
0.126499 -0.126124 0.911958
0.128425 -0.126502 0.914695
0.130379 -0.126899 0.917565
0.132316 -0.127270 0.920247
0.134225 -0.127607 0.922681
0.136088 -0.127891 0.924736
0.137877 -0.128101 0.926253
0.139739 -0.128373 0.928224
0.141583 -0.128623 0.930029
0.143424 -0.128864 0.931772
0.145265 -0.129101 0.933483
0.147078 -0.129307 0.934974
0.148865 -0.129486 0.936272
0.150627 -0.129640 0.937386
0.152411 -0.129810 0.938612
-0.080945 -0.136410 0.998571
-0.079209 -0.136327 0.997969
-0.077464 -0.136226 0.997225
-0.075689 -0.136067 0.996061
-0.073903 -0.135879 0.994687
-0.072100 -0.135649 0.993005
-0.070307 -0.135429 0.991393
-0.068526 -0.135222 0.989875
-0.066745 -0.135005 0.988290
-0.064992 -0.134835 0.987046
-0.063259 -0.134698 0.986041
-0.061543 -0.134591 0.985257
-0.059837 -0.134500 0.984594
-0.058147 -0.134440 0.984150
-0.056464 -0.134395 0.983827
-0.054801 -0.134394 0.983819
-0.053138 -0.134395 0.983827
-0.051486 -0.134425 0.984043
-0.049844 -0.134484 0.984474
-0.048202 -0.134545 0.984923
-0.046564 -0.134622 0.985486
-0.044923 -0.134699 0.986050
-0.043286 -0.134790 0.986717
-0.041650 -0.134895 0.987484
-0.040034 -0.135075 0.988805
-0.038437 -0.135337 0.990722
-0.036868 -0.135728 0.993583
-0.035284 -0.136098 0.996291
-0.033932 -0.139148 1.006130
-0.033855 -0.137133 1.003860
-0.032480 -0.140225 1.013920
-0.032418 -0.138241 1.011980
-0.030948 -0.139326 1.019920
-0.029422 -0.140270 1.026830
-0.027855 -0.141124 1.033080
-0.026133 -0.141256 1.034050
-0.024387 -0.141273 1.034170
-0.022639 -0.141272 1.034160
-0.020888 -0.141256 1.034050
-0.019138 -0.141241 1.033940
-0.017392 -0.141256 1.034050
-0.015646 -0.141272 1.034170
-0.013896 -0.141256 1.034050
-0.012149 -0.141268 1.034140
-0.010402 -0.141294 1.034330
-0.008635 -0.140981 1.032040
-0.006819 -0.139524 1.021370
-0.003328 -0.139689 1.010040
-0.005034 -0.137939 1.009760
0.001711 -0.133216 0.963240
0.000083 -0.131887 0.965466
0.001702 -0.130871 0.958027
0.003301 -0.131657 0.951968
0.003295 -0.129813 0.950284
0.004863 -0.128789 0.942789
0.006435 -0.128368 0.939702
0.007996 -0.127928 0.936487
0.009554 -0.127582 0.933948
0.011106 -0.127276 0.931711
0.012653 -0.126991 0.929621
0.014198 -0.126760 0.927934
0.015738 -0.126530 0.926248
0.017269 -0.126274 0.924375
0.018793 -0.126015 0.922478
0.020317 -0.125795 0.920867
0.021835 -0.125569 0.919217
0.023343 -0.125325 0.917430
0.024856 -0.125134 0.916030
0.026356 -0.124904 0.914345
0.027851 -0.124675 0.912671
0.029342 -0.124453 0.911047
0.030834 -0.124259 0.909624
0.032311 -0.124028 0.907932
0.033795 -0.123840 0.906557
0.035268 -0.123631 0.905026
0.036733 -0.123414 0.903442
0.038211 -0.123256 0.902283
0.039694 -0.123124 0.901317
0.041176 -0.122997 0.900389
0.042659 -0.122885 0.899569
0.044152 -0.122808 0.899000
0.045633 -0.122704 0.898244
0.047116 -0.122613 0.897575
0.048602 -0.122534 0.896995
0.050088 -0.122459 0.896448
0.051568 -0.122374 0.895828
0.053056 -0.122312 0.895374
0.054536 -0.122238 0.894829
0.056004 -0.122139 0.894107
0.057462 -0.122027 0.893283
0.058915 -0.121908 0.892414
0.060371 -0.121801 0.891632
0.061833 -0.121713 0.890985
0.063308 -0.121653 0.890551
0.064789 -0.121606 0.890205
0.066286 -0.121591 0.890095
0.067775 -0.121564 0.889899
0.069273 -0.121553 0.889815
0.070772 -0.121543 0.889740
0.072283 -0.121555 0.889830
0.073795 -0.121567 0.889917
0.075321 -0.121602 0.890177
0.076873 -0.121677 0.890721
0.078444 -0.121778 0.891466
0.080036 -0.121907 0.892409
0.081645 -0.122058 0.893514
0.083252 -0.122198 0.894541
0.084843 -0.122313 0.895380
0.086437 -0.122426 0.896204
0.088008 -0.122504 0.896774
0.089553 -0.122543 0.897066
0.091071 -0.122546 0.897082
0.092603 -0.122566 0.897231
0.094119 -0.122566 0.897229
0.095656 -0.122591 0.897411
0.097194 -0.122617 0.897605
0.098759 -0.122676 0.898040
0.100308 -0.122715 0.898320
0.101889 -0.122789 0.898866
0.103456 -0.122846 0.899278
0.105053 -0.122935 0.899935
0.106672 -0.123048 0.900763
0.108297 -0.123165 0.901614
0.109895 -0.123247 0.902214
0.111533 -0.123372 0.903130
0.113163 -0.123485 0.903957
0.114802 -0.123603 0.904824
0.116468 -0.123748 0.905884
0.118127 -0.123882 0.906866
0.119763 -0.123989 0.907645
0.121395 -0.124088 0.908374
0.123079 -0.124239 0.909476
0.124815 -0.124437 0.910924
0.126679 -0.124756 0.913261
0.128638 -0.125159 0.916212
0.130607 -0.125563 0.919172
0.132545 -0.125928 0.921840
0.134441 -0.126245 0.924164
0.136264 -0.126487 0.925936
0.138023 -0.126664 0.927232
0.139840 -0.126891 0.928894
0.141653 -0.127109 0.930488
0.143479 -0.127333 0.932130
0.145310 -0.127557 0.933767
0.147112 -0.127751 0.935188
0.148897 -0.127927 0.936474
0.150643 -0.128065 0.937485
0.152395 -0.128206 0.938515
-0.080874 -0.134599 0.997701
-0.079135 -0.134511 0.997048
-0.077384 -0.134397 0.996199
-0.075604 -0.134226 0.994932
-0.073811 -0.134025 0.993445
-0.071993 -0.133768 0.991538
-0.070195 -0.133535 0.989814
-0.068408 -0.133314 0.988175
-0.066630 -0.133100 0.986583
-0.064888 -0.132947 0.985453
-0.063165 -0.132828 0.984572
-0.061459 -0.132739 0.983909
-0.059768 -0.132677 0.983452
-0.058092 -0.132646 0.983221
-0.056418 -0.132618 0.983011
-0.054756 -0.132618 0.983011
-0.053094 -0.132618 0.983011
-0.051438 -0.132632 0.983121
-0.049793 -0.132677 0.983451
-0.048148 -0.132726 0.983817
-0.046511 -0.132803 0.984382
-0.044873 -0.132878 0.984942
-0.043232 -0.132952 0.985493
-0.041589 -0.133028 0.986050
-0.039971 -0.133191 0.987258
-0.038364 -0.133405 0.988850
-0.036794 -0.133775 0.991589
-0.035214 -0.134141 0.994304
-0.033807 -0.135237 1.002430
-0.032377 -0.136353 1.010700
-0.030919 -0.137468 1.018960
-0.029396 -0.138406 1.025920
-0.027834 -0.139269 1.032320
-0.026108 -0.139369 1.033060
-0.024367 -0.139402 1.033300
-0.022623 -0.139418 1.033420
-0.020875 -0.139415 1.033400
-0.019126 -0.139401 1.033290
-0.017379 -0.139401 1.033290
-0.015634 -0.139415 1.033400
-0.013884 -0.139385 1.033180
-0.012136 -0.139367 1.033040
-0.010390 -0.139378 1.033120
-0.008602 -0.138710 1.028170
0.000082 -0.129114 0.957044
0.001693 -0.128570 0.953006
0.003289 -0.127969 0.948556
0.004870 -0.127381 0.944195
0.006443 -0.126930 0.940852
0.008004 -0.126466 0.937415
0.009563 -0.126119 0.934844
0.011115 -0.125804 0.932505
0.012662 -0.125508 0.930311
0.014207 -0.125267 0.928526
0.015749 -0.125040 0.926842
0.017277 -0.124764 0.924796
0.018801 -0.124506 0.922881
0.020324 -0.124273 0.921159
0.021839 -0.124038 0.919414
0.023348 -0.123796 0.917625
0.024864 -0.123621 0.916323
0.026365 -0.123397 0.914661
0.027864 -0.123185 0.913093
0.029358 -0.122978 0.911560
0.030850 -0.122784 0.910124
0.032332 -0.122567 0.908515
0.033817 -0.122383 0.907145
0.035294 -0.122188 0.905702
0.036764 -0.121985 0.904201
0.038247 -0.121840 0.903124
0.039731 -0.121709 0.902150
0.041214 -0.121583 0.901218
0.042694 -0.121460 0.900305
0.044183 -0.121370 0.899639
0.045657 -0.121245 0.898711
0.047137 -0.121144 0.897961
0.048624 -0.121067 0.897394
0.050116 -0.121005 0.896937
0.051601 -0.120934 0.896408
0.053099 -0.120893 0.896104
0.054586 -0.120831 0.895642
0.056060 -0.120745 0.895007
0.057521 -0.120636 0.894195
0.058976 -0.120521 0.893344
0.060423 -0.120394 0.892404
0.061878 -0.120290 0.891637
0.063346 -0.120216 0.891086
0.064821 -0.120157 0.890648
0.066313 -0.120132 0.890462
0.067811 -0.120119 0.890367
0.069316 -0.120119 0.890367
0.070823 -0.120121 0.890383
0.072342 -0.120145 0.890561
0.073855 -0.120157 0.890648
0.075382 -0.120191 0.890899
0.076934 -0.120262 0.891426
0.078506 -0.120363 0.892174
0.080086 -0.120470 0.892966
0.081698 -0.120621 0.894086
0.083296 -0.120747 0.895020
0.084881 -0.120850 0.895783
0.086476 -0.120961 0.896609
0.088063 -0.121059 0.897336
0.089617 -0.121110 0.897712
0.091161 -0.121145 0.897974
0.092695 -0.121165 0.898123
0.094204 -0.121153 0.898031
0.095732 -0.121165 0.898123
0.097261 -0.121180 0.898228
0.098810 -0.121217 0.898507
0.100371 -0.121268 0.898882
0.101955 -0.121344 0.899451
0.103522 -0.121398 0.899850
0.105129 -0.121497 0.900583
0.106749 -0.121608 0.901407
0.108366 -0.121713 0.902183
0.109965 -0.121795 0.902790
0.111605 -0.121919 0.903712
0.113225 -0.122018 0.904446
0.114850 -0.122121 0.905206
0.116515 -0.122262 0.906252
0.118175 -0.122395 0.907235
0.119814 -0.122502 0.908033
0.121461 -0.122616 0.908872
0.123185 -0.122802 0.910254
0.124951 -0.123026 0.911917
0.126850 -0.123374 0.914492
0.128837 -0.123798 0.917635
0.130810 -0.124198 0.920602
0.132734 -0.124543 0.923157
0.134605 -0.124831 0.925292
0.136411 -0.125052 0.926935
0.138144 -0.125202 0.928045
0.139916 -0.125385 0.929400
0.141698 -0.125571 0.930781
0.143520 -0.125789 0.932397
0.145325 -0.125987 0.933863
0.147129 -0.126180 0.935295
0.148930 -0.126367 0.936678
0.150674 -0.126502 0.937682
0.152394 -0.126614 0.938511
-0.080830 -0.132836 0.997158
-0.079091 -0.132746 0.996487
-0.077330 -0.132615 0.995503
-0.075526 -0.132403 0.993909
-0.073718 -0.132174 0.992186
-0.071884 -0.131887 0.990036
-0.070073 -0.131629 0.988100
-0.068284 -0.131402 0.986393
-0.066525 -0.131221 0.985033
-0.064793 -0.131086 0.984023
-0.063086 -0.130996 0.983345
-0.061396 -0.130936 0.982897
-0.059714 -0.130892 0.982564
-0.058046 -0.130875 0.982439
-0.056373 -0.130847 0.982231
-0.054707 -0.130834 0.982128
-0.053041 -0.130820 0.982027
-0.051391 -0.130846 0.982224
-0.049742 -0.130878 0.982459
-0.048099 -0.130925 0.982817
-0.046464 -0.131001 0.983387
-0.044827 -0.131075 0.983941
-0.043188 -0.131148 0.984492
-0.041547 -0.131223 0.985052
-0.039926 -0.131369 0.986144
-0.038308 -0.131537 0.987411
-0.036731 -0.131869 0.989898
-0.035142 -0.132186 0.992281
-0.030833 -0.135364 1.016140
-0.029325 -0.136338 1.023450
-0.027778 -0.137242 1.030230
-0.026088 -0.137516 1.032290
-0.024349 -0.137549 1.032540
-0.022608 -0.137577 1.032750
-0.020862 -0.137576 1.032740
-0.019114 -0.137562 1.032630
-0.017368 -0.137562 1.032630
-0.015624 -0.137576 1.032740
-0.013875 -0.137547 1.032520
-0.012128 -0.137530 1.032400
-0.010384 -0.137543 1.032500
-0.008594 -0.136835 1.027180
0.000082 -0.127544 0.957430
0.001694 -0.127039 0.953646
0.003292 -0.126467 0.949346
0.004875 -0.125911 0.945175
0.006449 -0.125449 0.941706
0.008010 -0.124964 0.938064
0.009567 -0.124595 0.935294
0.011120 -0.124278 0.932918
0.012666 -0.123972 0.930622
0.014211 -0.123721 0.928734
0.015755 -0.123521 0.927233
0.017286 -0.123260 0.925274
0.018810 -0.122994 0.923276
0.020332 -0.122761 0.921529
0.021846 -0.122513 0.919669
0.023352 -0.122261 0.917778
0.024869 -0.122091 0.916497
0.026374 -0.121884 0.914943
0.027876 -0.121690 0.913488
0.029374 -0.121498 0.912046
0.030867 -0.121307 0.910614
0.032352 -0.121102 0.909075
0.033838 -0.120919 0.907704
0.035316 -0.120729 0.906273
0.036791 -0.120541 0.904862
0.038280 -0.120412 0.903898
0.039762 -0.120274 0.902857
0.041246 -0.120149 0.901921
0.042726 -0.120023 0.900977
0.044211 -0.119920 0.900206
0.045681 -0.119786 0.899196
0.047162 -0.119685 0.898440
0.048650 -0.119610 0.897876
0.050143 -0.119549 0.897418
0.051629 -0.119478 0.896885
0.053127 -0.119437 0.896580
0.054623 -0.119395 0.896260
0.056104 -0.119322 0.895717
0.057573 -0.119227 0.895000
0.059037 -0.119128 0.894256
0.060484 -0.119001 0.893306
0.061929 -0.118877 0.892371
0.063391 -0.118788 0.891706
0.064859 -0.118717 0.891173
0.066346 -0.118681 0.890900
0.067851 -0.118679 0.890889
0.069364 -0.118691 0.890979
0.070879 -0.118706 0.891092
0.072408 -0.118742 0.891364
0.073922 -0.118755 0.891455
0.075443 -0.118777 0.891624
0.076989 -0.118835 0.892061
0.078556 -0.118925 0.892733
0.080127 -0.119017 0.893427
0.081739 -0.119165 0.894538
0.083337 -0.119288 0.895456
0.084922 -0.119388 0.896213
0.086510 -0.119488 0.896963
0.088099 -0.119587 0.897703
0.089656 -0.119640 0.898098
0.091209 -0.119686 0.898446
0.092745 -0.119708 0.898612
0.094264 -0.119707 0.898603
0.095793 -0.119719 0.898695
0.097323 -0.119733 0.898799
0.098865 -0.119761 0.899006
0.100436 -0.119822 0.899465
0.102021 -0.119897 0.900032
0.103589 -0.119951 0.900432
0.105197 -0.120049 0.901169
0.106817 -0.120157 0.901981
0.108425 -0.120249 0.902675
0.110036 -0.120342 0.903373
0.111677 -0.120465 0.904294
0.113287 -0.120552 0.904947
0.114912 -0.120651 0.905692
0.116576 -0.120789 0.906729
0.118225 -0.120908 0.907617
0.119875 -0.121025 0.908498
0.121547 -0.121161 0.909517
0.123299 -0.121371 0.911096
0.125095 -0.121620 0.912967
0.127023 -0.121989 0.915735
0.129015 -0.122411 0.918900
0.130991 -0.122807 0.921875
0.132903 -0.123135 0.924334
0.134749 -0.123394 0.926280
0.136517 -0.123577 0.927653
0.138221 -0.123698 0.928563
0.139951 -0.123840 0.929631
0.141704 -0.123998 0.930819
0.143508 -0.124199 0.932321
0.145311 -0.124393 0.933777
0.147130 -0.124596 0.935303
0.148947 -0.124793 0.936786
0.150693 -0.124928 0.937795
0.152396 -0.125025 0.938521
-0.082433 -0.131014 0.996158
-0.080746 -0.131009 0.996123
-0.079021 -0.130941 0.995603
-0.077261 -0.130812 0.994619
-0.075441 -0.130572 0.992798
-0.073630 -0.130337 0.991012
-0.071790 -0.130038 0.988737
-0.069982 -0.129785 0.986811
-0.068205 -0.129578 0.985241
-0.066463 -0.129430 0.984117
-0.064741 -0.129313 0.983227
-0.063043 -0.129240 0.982674
-0.061361 -0.129197 0.982340
-0.059675 -0.129141 0.981919
-0.058002 -0.129112 0.981695
-0.056324 -0.129070 0.981375
-0.054653 -0.129041 0.981158
-0.052983 -0.129014 0.980948
-0.051334 -0.129039 0.981141
-0.049687 -0.129068 0.981366
-0.048045 -0.129115 0.981717
-0.046412 -0.129188 0.982273
-0.044776 -0.129261 0.982826
-0.043139 -0.129334 0.983388
-0.041505 -0.129421 0.984049
-0.039881 -0.129551 0.985035
-0.038256 -0.129685 0.986055
-0.036663 -0.129950 0.988066
-0.035059 -0.130196 0.989942
-0.033697 -0.133104 0.999173
-0.033567 -0.130904 0.995322
-0.029239 -0.134208 1.020440
-0.027716 -0.135193 1.027930
-0.026067 -0.135656 1.031450
-0.024332 -0.135704 1.031820
-0.022595 -0.135745 1.032130
-0.020850 -0.135745 1.032130
-0.019103 -0.135731 1.032020
-0.017358 -0.135731 1.032020
-0.015615 -0.135745 1.032130
-0.013869 -0.135731 1.032020
-0.012123 -0.135717 1.031910
-0.010379 -0.135730 1.032020
-0.008590 -0.135030 1.026700
0.000082 -0.125970 0.957808
0.001695 -0.125510 0.954307
0.003294 -0.124948 0.950038
0.004879 -0.124423 0.946044
0.006454 -0.123956 0.942497
0.008015 -0.123452 0.938662
0.009571 -0.123051 0.935611
0.011123 -0.122723 0.933122
0.012668 -0.122407 0.930719
0.014212 -0.122158 0.928822
0.015760 -0.121985 0.927509
0.017292 -0.121731 0.925576
0.018816 -0.121470 0.923588
0.020338 -0.121237 0.921819
0.021850 -0.120977 0.919845
0.023354 -0.120714 0.917843
0.024873 -0.120558 0.916660
0.026381 -0.120367 0.915206
0.027887 -0.120190 0.913859
0.029386 -0.120001 0.912420
0.030880 -0.119812 0.910982
0.032365 -0.119609 0.909443
0.033851 -0.119429 0.908074
0.035331 -0.119242 0.906650
0.036814 -0.119081 0.905422
0.038308 -0.118969 0.904571
0.039793 -0.118836 0.903562
0.041278 -0.118713 0.902628
0.042758 -0.118586 0.901662
0.044239 -0.118469 0.900776
0.045705 -0.118324 0.899668
0.047187 -0.118224 0.898911
0.048675 -0.118148 0.898332
0.050168 -0.118087 0.897868
0.051655 -0.118017 0.897335
0.053154 -0.117978 0.897042
0.054647 -0.117927 0.896649
0.056129 -0.117855 0.896105
0.057603 -0.117771 0.895468
0.059073 -0.117685 0.894813
0.060523 -0.117562 0.893878
0.061975 -0.117450 0.893024
0.063436 -0.117361 0.892349
0.064905 -0.117289 0.891803
0.066386 -0.117242 0.891445
0.067892 -0.117240 0.891431
0.069406 -0.117252 0.891521
0.070923 -0.117268 0.891638
0.072454 -0.117306 0.891934
0.073977 -0.117331 0.892122
0.075514 -0.117376 0.892462
0.077068 -0.117445 0.892984
0.078644 -0.117543 0.893733
0.080201 -0.117612 0.894254
0.081803 -0.117741 0.895240
0.083383 -0.117835 0.895956
0.084968 -0.117933 0.896699
0.086558 -0.118034 0.897467
0.088159 -0.118147 0.898322
0.089728 -0.118212 0.898820
0.091294 -0.118272 0.899278
0.092824 -0.118286 0.899378
0.094336 -0.118275 0.899295
0.095865 -0.118285 0.899375
0.097386 -0.118286 0.899384
0.098918 -0.118300 0.899488
0.100490 -0.118360 0.899942
0.102075 -0.118434 0.900506
0.103645 -0.118488 0.900921
0.105253 -0.118585 0.901652
0.106875 -0.118693 0.902477
0.108483 -0.118783 0.903160
0.110104 -0.118884 0.903930
0.111746 -0.119006 0.904857
0.113359 -0.119094 0.905523
0.114986 -0.119193 0.906277
0.116639 -0.119316 0.907216
0.118286 -0.119431 0.908086
0.119948 -0.119557 0.909049
0.121646 -0.119717 0.910259
0.123426 -0.119950 0.912034
0.125249 -0.120220 0.914090
0.127179 -0.120585 0.916861
0.129160 -0.120989 0.919932
0.131111 -0.121355 0.922717
0.133000 -0.121656 0.925004
0.134833 -0.121899 0.926856
0.136576 -0.122057 0.928051
0.138265 -0.122163 0.928860
0.139969 -0.122280 0.929747
0.141103 -0.121902 0.926872
0.142218 -0.121515 0.923936
-0.080674 -0.129206 0.995236
-0.078945 -0.129130 0.994653
-0.077177 -0.128984 0.993531
-0.075349 -0.128731 0.991577
-0.073515 -0.128455 0.989454
-0.071667 -0.128142 0.987046
-0.069871 -0.127909 0.985245
-0.068113 -0.127736 0.983918
-0.066396 -0.127634 0.983128
-0.064697 -0.127561 0.982567
-0.063015 -0.127517 0.982230
-0.061341 -0.127489 0.982017
-0.059656 -0.127436 0.981605
-0.057982 -0.127405 0.981367
-0.056303 -0.127359 0.981009
-0.054626 -0.127316 0.980679
-0.052950 -0.127273 0.980349
-0.051298 -0.127285 0.980444
-0.049646 -0.127300 0.980557
-0.048000 -0.127332 0.980803
-0.046363 -0.127390 0.981249
-0.044730 -0.127461 0.981798
-0.043094 -0.127534 0.982360
-0.041466 -0.127634 0.983134
-0.039845 -0.127764 0.984131
-0.038216 -0.127880 0.985025
-0.036607 -0.128078 0.986550
-0.034994 -0.128280 0.988106
-0.033448 -0.128758 0.991790
-0.027652 -0.133144 1.025570
-0.026049 -0.133813 1.030720
-0.024318 -0.133877 1.031220
-0.022582 -0.133922 1.031570
-0.020840 -0.133936 1.031680
-0.019096 -0.133936 1.031680
-0.017352 -0.133936 1.031680
-0.015608 -0.133936 1.031680
-0.013864 -0.133936 1.031680
-0.012120 -0.133936 1.031680
-0.010377 -0.133951 1.031780
-0.008590 -0.133295 1.026730
0.000083 -0.125059 0.963298
0.001701 -0.124284 0.957326
0.003297 -0.123447 0.950879
0.004883 -0.122919 0.946809
0.006460 -0.122460 0.943274
0.008022 -0.121960 0.939426
0.009576 -0.121537 0.936167
0.011126 -0.121177 0.933391
0.012671 -0.120862 0.930965
0.014214 -0.120605 0.928990
0.015763 -0.120437 0.927695
0.017297 -0.120201 0.925878
0.018823 -0.119946 0.923910
0.020343 -0.119705 0.922053
0.021857 -0.119456 0.920138
0.023361 -0.119195 0.918125
0.024881 -0.119041 0.916944
0.026392 -0.118865 0.915585
0.027901 -0.118701 0.914320
0.029398 -0.118502 0.912791
0.030892 -0.118315 0.911345
0.032378 -0.118115 0.909806
0.033865 -0.117938 0.908446
0.035346 -0.117754 0.907029
0.036836 -0.117617 0.905973
0.038335 -0.117518 0.905212
0.039822 -0.117390 0.904220
0.041308 -0.117269 0.903288
0.042789 -0.117142 0.902312
0.044266 -0.117015 0.901332
0.045729 -0.116859 0.900131
0.047210 -0.116759 0.899366
0.048695 -0.116672 0.898695
0.050187 -0.116611 0.898221
0.051675 -0.116541 0.897687
0.053176 -0.116506 0.897411
0.054671 -0.116458 0.897044
0.056159 -0.116398 0.896585
0.057634 -0.116316 0.895947
0.059110 -0.116240 0.895363
0.060567 -0.116131 0.894527
0.062026 -0.116032 0.893766
0.063497 -0.115958 0.893197
0.064967 -0.115887 0.892650
0.066449 -0.115840 0.892283
0.067955 -0.115836 0.892255
0.069470 -0.115848 0.892345
0.070989 -0.115865 0.892475
0.072528 -0.115914 0.892850
0.074054 -0.115939 0.893048
0.075601 -0.115996 0.893483
0.077158 -0.116067 0.894030
0.078728 -0.116153 0.894692
0.080046 -0.115871 0.892522
0.081372 -0.115612 0.890525
0.082925 -0.115677 0.891026
0.084503 -0.115775 0.891787
0.086122 -0.115925 0.892939
0.087989 -0.116398 0.896585
0.089827 -0.116818 0.899815
0.091380 -0.116857 0.900122
0.092912 -0.116871 0.900227
0.094426 -0.116862 0.900153
0.095964 -0.116881 0.900304
0.097476 -0.116869 0.900210
0.098997 -0.116868 0.900206
0.100568 -0.116926 0.900648
0.102155 -0.116999 0.901210
0.103728 -0.117055 0.901644
0.105339 -0.117152 0.902387
0.106972 -0.117269 0.903290
0.108569 -0.117344 0.903873
0.110182 -0.117435 0.904568
0.111815 -0.117545 0.905415
0.113440 -0.117643 0.906170
0.115058 -0.117731 0.906849
0.116701 -0.117842 0.907703
0.118349 -0.117954 0.908571
0.120022 -0.118090 0.909612
0.121738 -0.118262 0.910941
0.123524 -0.118498 0.912759
0.125374 -0.118789 0.914999
0.127301 -0.119145 0.917742
0.129267 -0.119528 0.920695
0.131179 -0.119854 0.923199
0.133066 -0.120148 0.925464
0.134873 -0.120364 0.927133
0.136615 -0.120519 0.928322
0.138291 -0.120611 0.929035
0.139421 -0.120231 0.926110
0.139854 -0.119265 0.918669
-0.082274 -0.127390 0.994236
-0.080583 -0.127375 0.994118
-0.078853 -0.127295 0.993494
-0.077072 -0.127128 0.992185
-0.075245 -0.126875 0.990216
-0.073413 -0.126602 0.988081
-0.071576 -0.126308 0.985787
-0.069791 -0.126094 0.984117
-0.068051 -0.125954 0.983021
-0.066352 -0.125883 0.982469
-0.064662 -0.125826 0.982026
-0.062981 -0.125785 0.981704
-0.061315 -0.125771 0.981597
-0.059630 -0.125718 0.981186
-0.057957 -0.125686 0.980937
-0.056277 -0.125638 0.980558
-0.054594 -0.125579 0.980100
-0.052908 -0.125511 0.979570
-0.051262 -0.125535 0.979752
-0.049606 -0.125537 0.979771
-0.047957 -0.125555 0.979908
-0.046320 -0.125609 0.980336
-0.044687 -0.125678 0.980868
-0.043050 -0.125738 0.981341
-0.041424 -0.125840 0.982135
-0.039804 -0.125968 0.983134
-0.038174 -0.126071 0.983942
-0.036554 -0.126222 0.985117
-0.034930 -0.126374 0.986304
-0.033339 -0.126663 0.988561
-0.027586 -0.131090 1.023110
-0.026028 -0.131959 1.029890
-0.024309 -0.132081 1.030840
-0.022577 -0.132144 1.031330
-0.020838 -0.132174 1.031570
-0.019096 -0.132188 1.031680
-0.017352 -0.132188 1.031680
-0.015607 -0.132174 1.031570
-0.013862 -0.132173 1.031560
-0.012118 -0.132172 1.031560
-0.010375 -0.132173 1.031560
-0.008610 -0.131861 1.029130
0.001706 -0.123057 0.960416
0.003299 -0.121920 0.951540
0.004886 -0.121387 0.947379
0.006463 -0.120919 0.943726
0.008025 -0.120422 0.939849
0.009579 -0.119988 0.936463
0.011127 -0.119608 0.933493
0.012673 -0.119308 0.931153
0.014217 -0.119055 0.929181
0.015766 -0.118890 0.927893
0.017305 -0.118682 0.926269
0.018832 -0.118442 0.924400
0.020352 -0.118195 0.922466
0.021869 -0.117960 0.920635
0.023374 -0.117702 0.918625
0.024892 -0.117540 0.917355
0.026405 -0.117368 0.916014
0.027914 -0.117204 0.914731
0.029408 -0.116994 0.913096
0.030902 -0.116807 0.911634
0.032385 -0.116598 0.910004
0.033873 -0.116426 0.908660
0.035357 -0.116255 0.907325
0.036852 -0.116131 0.906362
0.038351 -0.116032 0.905585
0.039842 -0.115914 0.904670
0.041329 -0.115795 0.903737
0.042810 -0.115671 0.902766
0.044289 -0.115546 0.901797
0.045752 -0.115392 0.900590
0.047235 -0.115294 0.899828
0.048719 -0.115208 0.899153
0.050208 -0.115136 0.898596
0.051696 -0.115067 0.898056
0.053198 -0.115031 0.897777
0.054689 -0.114974 0.897333
0.056172 -0.114905 0.896791
0.057651 -0.114832 0.896221
0.059128 -0.114758 0.895645
0.060593 -0.114664 0.894913
0.062067 -0.114592 0.894353
0.063551 -0.114543 0.893965
0.065029 -0.114484 0.893510
0.066519 -0.114449 0.893230
0.068028 -0.114446 0.893210
0.069544 -0.114457 0.893297
0.071064 -0.114472 0.893409
0.072604 -0.114519 0.893776
0.073918 -0.114214 0.891401
0.075222 -0.113907 0.889002
0.076519 -0.113602 0.886621
0.092165 -0.114417 0.892984
0.093970 -0.114779 0.895808
0.095774 -0.115127 0.898524
0.097547 -0.115427 0.900864
0.099058 -0.115413 0.900759
0.100630 -0.115469 0.901196
0.102209 -0.115533 0.901691
0.103803 -0.115610 0.902298
0.105426 -0.115717 0.903132
0.107060 -0.115833 0.904038
0.108649 -0.115898 0.904544
0.110261 -0.115985 0.905225
0.111895 -0.116093 0.906061
0.113512 -0.116180 0.906740
0.115131 -0.116267 0.907419
0.116774 -0.116375 0.908268
0.118422 -0.116486 0.909133
0.120110 -0.116633 0.910277
0.121844 -0.116819 0.911733
0.123647 -0.117067 0.913667
0.125513 -0.117368 0.916016
0.127440 -0.117718 0.918745
0.129368 -0.118060 0.921412
0.131262 -0.118363 0.923781
0.133120 -0.118627 0.925844
0.134913 -0.118828 0.927407
0.136657 -0.118981 0.928601
0.138319 -0.119060 0.929221
0.138820 -0.118150 0.922118
0.140209 -0.118255 0.910884
0.138511 -0.116578 0.909848
-0.083970 -0.127414 0.994418
-0.085624 -0.125688 0.994103
-0.083890 -0.125609 0.993473
-0.082178 -0.125558 0.993075
-0.080458 -0.125495 0.992575
-0.078713 -0.125388 0.991732
-0.076939 -0.125229 0.990469
-0.075124 -0.124995 0.988622
-0.073302 -0.124739 0.986598
-0.071477 -0.124466 0.984434
-0.069704 -0.124271 0.982898
-0.067983 -0.124163 0.982038
-0.066294 -0.124108 0.981607
-0.064613 -0.124066 0.981276
-0.062939 -0.124038 0.981054
-0.061280 -0.124037 0.981042
-0.059597 -0.123985 0.980635
-0.057919 -0.123942 0.980295
-0.056234 -0.123882 0.979818
-0.054546 -0.123810 0.979249
-0.052856 -0.123729 0.978605
-0.051211 -0.123751 0.978784
-0.049562 -0.123767 0.978909
-0.047915 -0.123785 0.979052
-0.046275 -0.123826 0.979374
-0.044642 -0.123890 0.979880
-0.043001 -0.123934 0.980226
-0.041378 -0.124036 0.981032
-0.039761 -0.124165 0.982055
-0.038140 -0.124294 0.983076
-0.036515 -0.124419 0.984066
-0.034893 -0.124569 0.985251
-0.033262 -0.124697 0.986266
-0.027513 -0.129015 1.020420
-0.025991 -0.130030 1.028440
-0.024282 -0.130187 1.029680
-0.022562 -0.130307 1.030630
-0.020831 -0.130380 1.031210
-0.019092 -0.130410 1.031450
-0.017350 -0.130425 1.031570
-0.015606 -0.130424 1.031560
-0.013862 -0.130422 1.031550
-0.012118 -0.130421 1.031540
-0.010375 -0.130422 1.031550
-0.008631 -0.130424 1.031560
0.003303 -0.120431 0.952522
0.004891 -0.119896 0.948292
0.006468 -0.119419 0.944520
0.008031 -0.118920 0.940570
0.009584 -0.118453 0.936877
0.011129 -0.118042 0.933630
0.012676 -0.117757 0.931376
0.014221 -0.117508 0.929401
0.015770 -0.117345 0.928113
0.017312 -0.117161 0.926655
0.018844 -0.116948 0.924973
0.020367 -0.116717 0.923144
0.021887 -0.116498 0.921418
0.023396 -0.116255 0.919495
0.024914 -0.116085 0.918146
0.026424 -0.115903 0.916709
0.027932 -0.115730 0.915338
0.029427 -0.115520 0.913682
0.030918 -0.115322 0.912114
0.032401 -0.115114 0.910471
0.033891 -0.114944 0.909125
0.035376 -0.114776 0.907796
0.036871 -0.114654 0.906834
0.038367 -0.114545 0.905966
0.039858 -0.114427 0.905038
0.041345 -0.114309 0.904098
0.042828 -0.114186 0.903132
0.044303 -0.114055 0.902091
0.045771 -0.113913 0.900970
0.047255 -0.113817 0.900213
0.048741 -0.113734 0.899554
0.050226 -0.113654 0.898917
0.051718 -0.113593 0.898439
0.053220 -0.113555 0.898139
0.054710 -0.113497 0.897681
0.056194 -0.113429 0.897138
0.057679 -0.113368 0.896656
0.059157 -0.113295 0.896080
0.060629 -0.113214 0.895442
0.062117 -0.113167 0.895073
0.063617 -0.113144 0.894888
0.065111 -0.113111 0.894626
0.066616 -0.113098 0.894527
0.068132 -0.113106 0.894587
0.069444 -0.112781 0.892015
0.070727 -0.112423 0.889181
0.072013 -0.112084 0.886505
0.098234 -0.112939 0.893263
0.100109 -0.113352 0.896535
0.102011 -0.113783 0.899942
0.103913 -0.114201 0.903249
0.105528 -0.114297 0.904003
0.107144 -0.114390 0.904743
0.108732 -0.114452 0.905234
0.110344 -0.114537 0.905906
0.111969 -0.114632 0.906656
0.113584 -0.114716 0.907321
0.115203 -0.114801 0.907991
0.116848 -0.114908 0.908841
0.118485 -0.115006 0.909617
0.120198 -0.115174 0.910940
0.121958 -0.115382 0.912587
0.123779 -0.115642 0.914644
0.125661 -0.115952 0.917100
0.127603 -0.116308 0.919916
0.129507 -0.116623 0.922404
0.131375 -0.116898 0.924578
0.133206 -0.117133 0.926437
0.134453 -0.116856 0.924246
0.135567 -0.116471 0.921199
-0.085591 -0.123955 0.993720
-0.083838 -0.123848 0.992857
-0.082092 -0.123745 0.992036
-0.080341 -0.123631 0.991122
-0.078571 -0.123483 0.989932
-0.076787 -0.123305 0.988510
-0.074986 -0.123092 0.986800
-0.073185 -0.122870 0.985022
-0.071380 -0.122630 0.983098
-0.069618 -0.122454 0.981685
-0.067907 -0.122361 0.980939
-0.066220 -0.122307 0.980509
-0.064540 -0.122267 0.980181
-0.062868 -0.122237 0.979944
-0.061217 -0.122247 0.980027
-0.059542 -0.122211 0.979736
-0.057868 -0.122172 0.979427
-0.056191 -0.122126 0.979058
-0.054504 -0.122055 0.978484
-0.052809 -0.121961 0.977729
-0.051154 -0.121957 0.977699
-0.049503 -0.121960 0.977726
-0.047848 -0.121956 0.977693
-0.046210 -0.121994 0.977995
-0.044579 -0.122056 0.978493
-0.042944 -0.122110 0.978925
-0.041326 -0.122221 0.979817
-0.039720 -0.122374 0.981045
-0.038105 -0.122516 0.982179
-0.036486 -0.122656 0.983304
-0.034875 -0.122834 0.984734
-0.033253 -0.122992 0.986000
-0.031841 -0.125670 0.993962
-0.031819 -0.123898 0.993264
-0.030421 -0.126757 1.002550
-0.030385 -0.124906 1.001340
-0.027460 -0.127041 1.018450
-0.025939 -0.128030 1.026380
-0.024245 -0.128245 1.028110
-0.022538 -0.128425 1.029550
-0.020819 -0.128556 1.030600
-0.019085 -0.128616 1.031080
-0.017346 -0.128647 1.031330
-0.015605 -0.128661 1.031450
-0.013862 -0.128673 1.031540
-0.012118 -0.128671 1.031520
-0.010375 -0.128673 1.031540
-0.008631 -0.128675 1.031560
-0.006854 -0.129799 1.026620
-0.006871 -0.128386 1.029240
-0.005091 -0.129112 1.021190
-0.005119 -0.128070 1.026710
0.003307 -0.118975 0.953795
0.004898 -0.118449 0.949575
0.006475 -0.117950 0.945573
0.008038 -0.117426 0.941377
0.009589 -0.116927 0.937377
0.011131 -0.116488 0.933854
0.012681 -0.116219 0.931704
0.014227 -0.115982 0.929802
0.015775 -0.115810 0.928418
0.017319 -0.115638 0.927042
0.018856 -0.115453 0.925558
0.020383 -0.115239 0.923847
0.021904 -0.115027 0.922146
0.023418 -0.114807 0.920380
0.024935 -0.114626 0.918930
0.026447 -0.114445 0.917476
0.027953 -0.114263 0.916021
0.029448 -0.114056 0.914360
0.030940 -0.113859 0.912780
0.032425 -0.113653 0.911131
0.033915 -0.113484 0.909777
0.035401 -0.113319 0.908451
0.036898 -0.113199 0.907488
0.038392 -0.113081 0.906543
0.039883 -0.112963 0.905599
0.041367 -0.112835 0.904568
0.042850 -0.112714 0.903601
0.044322 -0.112573 0.902472
0.045791 -0.112434 0.901357
0.047275 -0.112338 0.900589
0.048762 -0.112258 0.899942
0.050248 -0.112178 0.899307
0.051741 -0.112119 0.898834
0.053236 -0.112068 0.898424
0.054721 -0.111999 0.897866
0.056205 -0.111930 0.897314
