1693
0.071746 -0.097773 0.921582
0.073400 -0.097899 0.922779
0.075063 -0.098034 0.924050
0.076740 -0.098181 0.925436
0.078407 -0.098310 0.926652
0.080079 -0.098439 0.927869
0.081784 -0.098604 0.929417
0.083498 -0.098773 0.931015
0.085222 -0.098948 0.932660
0.086971 -0.099144 0.934507
0.088731 -0.099345 0.936404
0.090479 -0.099526 0.938112
0.092233 -0.099708 0.939828
0.094006 -0.099904 0.941678
0.095760 -0.100073 0.943268
0.097515 -0.100238 0.944822
0.099280 -0.100408 0.946428
0.101072 -0.100599 0.948228
0.103101 -0.101017 0.952161
0.105554 -0.101830 0.959830
0.113016 -0.104223 0.982379
0.115069 -0.104579 0.985739
0.116648 -0.104500 0.984997
0.118154 -0.104360 0.983670
0.119522 -0.104103 0.981256
0.120702 -0.103691 0.977372
0.121760 -0.103188 0.972629
0.122752 -0.102642 0.967483
0.123731 -0.102100 0.962377
0.124828 -0.101669 0.958313
0.126067 -0.101363 0.955422
0.127382 -0.101124 0.953173
0.128726 -0.100915 0.951204
0.129940 -0.100610 0.948325
0.130972 -0.100173 0.944208
0.131922 -0.099685 0.939605
0.132844 -0.099187 0.934916
0.133812 -0.098735 0.930652
0.134936 -0.098407 0.927566
0.136201 -0.098189 0.925504
0.137546 -0.098033 0.924034
0.138915 -0.097896 0.922749
0.140268 -0.097752 0.921387
0.141584 -0.097586 0.919820
0.142936 -0.097447 0.918517
0.144287 -0.097311 0.917230
0.145641 -0.097180 0.915993
0.147062 -0.097096 0.915203
0.148513 -0.097033 0.914607
0.149950 -0.096962 0.913941
0.151414 -0.096910 0.913451
0.152922 -0.096887 0.913238
0.154403 -0.096848 0.912867
0.155868 -0.096799 0.912408
0.157310 -0.096737 0.911824
0.158760 -0.096681 0.911297
0.160197 -0.096620 0.910714
0.161672 -0.096580 0.910346
0.163213 -0.096582 0.910359
0.164821 -0.096622 0.910740
0.166420 -0.096657 0.911065
0.168067 -0.096718 0.911642
0.169713 -0.096778 0.912209
0.171379 -0.096848 0.912866
0.173016 -0.096901 0.913364
0.174724 -0.096992 0.914222
0.176421 -0.097075 0.915005
0.178141 -0.097169 0.915895
0.179826 -0.097243 0.916595
0.181525 -0.097323 0.917348
-0.099423 -0.093097 0.891762
-0.097881 -0.093065 0.891452
-0.096344 -0.093036 0.891174
-0.094801 -0.093000 0.890827
-0.093237 -0.092942 0.890277
-0.091694 -0.092904 0.889914
-0.090150 -0.092863 0.889516
-0.088601 -0.092815 0.889063
-0.087038 -0.092752 0.888454
-0.085524 -0.092739 0.888329
-0.084012 -0.092727 0.888216
-0.082512 -0.092729 0.888237
-0.081005 -0.092724 0.888182
-0.079480 -0.092696 0.887921
-0.077929 -0.092636 0.887347
-0.076355 -0.092547 0.886489
-0.074751 -0.092416 0.885236
-0.073150 -0.092284 0.883974
-0.071539 -0.092134 0.882541
-0.069780 -0.091784 0.879179
-0.068007 -0.091398 0.875483
-0.066250 -0.091017 0.871841
-0.064511 -0.090645 0.868270
-0.062823 -0.090328 0.865235
-0.061251 -0.090168 0.863706
-0.059679 -0.089999 0.862086
-0.058115 -0.089834 0.860502
-0.056546 -0.089653 0.858770
-0.054974 -0.089457 0.856899
-0.053433 -0.089304 0.855424
-0.051904 -0.089160 0.854048
-0.050371 -0.089003 0.852542
-0.048857 -0.088870 0.851269
-0.047368 -0.088777 0.850384
-0.045886 -0.088691 0.849556
-0.044429 -0.088649 0.849153
-0.042978 -0.088617 0.848851
-0.041531 -0.088591 0.848601
-0.040083 -0.088563 0.848334
-0.038637 -0.088535 0.848061
-0.037192 -0.088509 0.847814
-0.035759 -0.088509 0.847814
-0.034329 -0.088519 0.847907
-0.032900 -0.088530 0.848012
-0.031473 -0.088548 0.848185
-0.030048 -0.088573 0.848429
-0.028619 -0.088591 0.848601
-0.027192 -0.088617 0.848846
-0.025767 -0.088650 0.849165
-0.024338 -0.088676 0.849410
-0.022916 -0.088727 0.849901
-0.021496 -0.088796 0.850564
-0.020072 -0.088861 0.851181
-0.018645 -0.088915 0.851698
-0.017219 -0.088990 0.852420
-0.015786 -0.089034 0.852841
-0.014352 -0.089080 0.853286
-0.012919 -0.089151 0.853960
0.001621 -0.095238 0.912267
0.003177 -0.095672 0.916424
0.004747 -0.096083 0.920360
0.006327 -0.096455 0.923924
0.007881 -0.096356 0.922977
0.009430 -0.096236 0.921828
0.010976 -0.096129 0.920803
0.012514 -0.095983 0.919409
0.014048 -0.095851 0.918144
0.015584 -0.095750 0.917175
0.017126 -0.095699 0.916683
0.018666 -0.095650 0.916213
0.020210 -0.095629 0.916019
0.021756 -0.095619 0.915916
0.023302 -0.095609 0.915824
0.024851 -0.095609 0.915824
0.026399 -0.095609 0.915824
0.027947 -0.095609 0.915824
0.029495 -0.095609 0.915824
0.031044 -0.095609 0.915824
0.032586 -0.095590 0.915643
0.034126 -0.095569 0.915443
0.035665 -0.095547 0.915226
0.037204 -0.095526 0.915026
0.038743 -0.095507 0.914845
0.040290 -0.095507 0.914845
0.041837 -0.095507 0.914845
0.043379 -0.095497 0.914753
0.044916 -0.095477 0.914558
0.046460 -0.095474 0.914526
0.048010 -0.095482 0.914603
0.049568 -0.095503 0.914808
0.051147 -0.095564 0.915390
0.052734 -0.095636 0.916081
0.054312 -0.095688 0.916580
0.055885 -0.095728 0.916964
0.057464 -0.095775 0.917417
0.059040 -0.095816 0.917808
0.060620 -0.095861 0.918236
0.062200 -0.095904 0.918652
0.063780 -0.095945 0.919036
0.065352 -0.095972 0.919303
0.066933 -0.096011 0.919673
0.068539 -0.096082 0.920350
0.070171 -0.096186 0.921353
0.071815 -0.096302 0.922465
0.073485 -0.096447 0.923846
0.075150 -0.096580 0.925126
0.076821 -0.096715 0.926419
0.078481 -0.096831 0.927526
0.080136 -0.096936 0.928530
0.081815 -0.097066 0.929778
0.083520 -0.097220 0.931255
0.085236 -0.097382 0.932805
0.086986 -0.097577 0.934670
0.088784 -0.097816 0.936963
0.090565 -0.098030 0.939008
0.092344 -0.098234 0.940965
0.094151 -0.098459 0.943124
0.095935 -0.098654 0.944993
0.097694 -0.098818 0.946557
0.099484 -0.099007 0.948369
0.101326 -0.099240 0.950607
0.103258 -0.099554 0.953608
0.105588 -0.100235 0.960138
0.108085 -0.102693 0.967960
0.107986 -0.100960 0.967078
0.110602 -0.103518 0.975734
0.110329 -0.101612 0.973320
0.112554 -0.102138 0.978364
0.114595 -0.102484 0.981673
0.116150 -0.102391 0.980791
0.117627 -0.102235 0.979287
0.118953 -0.101952 0.976584
0.120093 -0.101520 0.972444
0.121230 -0.101098 0.968398
0.122341 -0.100664 0.964245
0.123431 -0.100225 0.960042
0.124635 -0.099890 0.956828
0.125971 -0.099667 0.954696
0.127255 -0.099410 0.952228
0.128557 -0.099172 0.949950
0.129742 -0.098852 0.946883
0.130762 -0.098414 0.942690
0.131724 -0.097945 0.938196
0.132660 -0.097467 0.933622
0.133643 -0.097035 0.929479
0.134781 -0.096724 0.926503
0.136058 -0.096519 0.924534
0.137403 -0.096365 0.923067
0.138770 -0.096231 0.921785
0.140121 -0.096089 0.920423
0.141436 -0.095926 0.918855
0.142771 -0.095779 0.917453
0.144119 -0.095644 0.916160
0.145470 -0.095515 0.914922
0.146893 -0.095434 0.914148
0.148342 -0.095372 0.913556
0.149807 -0.095322 0.913074
0.151286 -0.095281 0.912679
0.152795 -0.095260 0.912479
0.154276 -0.095222 0.912116
0.155739 -0.095174 0.911652
0.157180 -0.095113 0.911070
0.158630 -0.095059 0.910552
0.160084 -0.095008 0.910069
0.161573 -0.094979 0.909787
0.163128 -0.094989 0.909883
0.164717 -0.095018 0.910166
0.166313 -0.095051 0.910478
0.167959 -0.095112 0.911058
0.169609 -0.095173 0.911648
0.171294 -0.095253 0.912414
0.172968 -0.095326 0.913109
0.174694 -0.095425 0.914060
0.176392 -0.095508 0.914853
0.178107 -0.095598 0.915722
0.179771 -0.095660 0.916313
0.181431 -0.095718 0.916871
-0.097906 -0.091577 0.891680
-0.096394 -0.091572 0.891635
-0.094862 -0.091549 0.891404
-0.093320 -0.091514 0.891067
-0.091799 -0.091500 0.890928
-0.090272 -0.091478 0.890717
-0.088739 -0.091451 0.890452
-0.087192 -0.091407 0.890025
-0.085685 -0.091405 0.890004
-0.084179 -0.091403 0.889988
-0.082677 -0.091406 0.890011
-0.081159 -0.091391 0.889864
-0.079622 -0.091354 0.889504
-0.078051 -0.091275 0.888735
-0.076458 -0.091167 0.887688
-0.074842 -0.091027 0.886321
-0.073217 -0.090869 0.884788
-0.071569 -0.090676 0.882907
-0.069793 -0.090310 0.879339
-0.068004 -0.089910 0.875447
-0.066237 -0.089521 0.871662
-0.064499 -0.089157 0.868112
-0.062823 -0.088862 0.865247
-0.061252 -0.088705 0.863715
-0.059679 -0.088538 0.862090
-0.058109 -0.088367 0.860421
-0.056540 -0.088188 0.858676
-0.054968 -0.087996 0.856810
-0.053428 -0.087845 0.855340
-0.051899 -0.087705 0.853973
-0.050371 -0.087558 0.852548
-0.048857 -0.087428 0.851277
-0.047369 -0.087337 0.850395
-0.045886 -0.087252 0.849564
-0.044429 -0.087210 0.849159
-0.042974 -0.087170 0.848769
-0.041522 -0.087135 0.848429
-0.040070 -0.087097 0.848061
-0.038621 -0.087061 0.847707
-0.037173 -0.087028 0.847383
-0.035741 -0.087028 0.847383
-0.034312 -0.087037 0.847472
-0.032883 -0.087046 0.847564
-0.031456 -0.087064 0.847735
-0.030032 -0.087090 0.847987
-0.028605 -0.087110 0.848180
-0.027179 -0.087136 0.848440
-0.025755 -0.087169 0.848764
-0.024327 -0.087194 0.849005
-0.022902 -0.087235 0.849404
-0.021479 -0.087286 0.849901
-0.020053 -0.087332 0.850345
-0.018623 -0.087369 0.850701
-0.017198 -0.087434 0.851339
-0.015766 -0.087477 0.851763
-0.014334 -0.087523 0.852209
-0.012902 -0.087584 0.852798
-0.011557 -0.089780 0.859987
-0.011505 -0.087928 0.856147
0.006300 -0.094474 0.919887
0.007867 -0.094624 0.921348
0.009435 -0.094727 0.922347
0.010982 -0.094620 0.921305
0.012519 -0.094466 0.919811
0.014054 -0.094334 0.918529
0.015591 -0.094234 0.917550
0.017133 -0.094183 0.917056
0.018674 -0.094136 0.916595
0.020221 -0.094126 0.916500
0.021768 -0.094117 0.916408
0.023315 -0.094108 0.916322
0.024864 -0.094108 0.916322
0.026413 -0.094108 0.916322
0.027962 -0.094108 0.916322
0.029512 -0.094108 0.916322
0.031061 -0.094108 0.916322
0.032606 -0.094098 0.916229
0.034151 -0.094088 0.916127
0.035696 -0.094077 0.916019
0.037240 -0.094066 0.915916
0.038789 -0.094066 0.915910
0.040337 -0.094066 0.915917
0.041886 -0.094067 0.915919
0.043430 -0.094058 0.915831
0.044969 -0.094038 0.915637
0.046506 -0.094017 0.915434
0.048057 -0.094023 0.915493
0.049615 -0.094043 0.915688
0.051191 -0.094094 0.916184
0.052774 -0.094154 0.916774
0.054353 -0.094204 0.917262
0.055921 -0.094234 0.917550
0.057495 -0.094272 0.917918
0.059066 -0.094302 0.918216
0.060640 -0.094336 0.918540
0.062213 -0.094367 0.918848
0.063786 -0.094396 0.919129
0.065359 -0.094424 0.919396
0.066948 -0.094473 0.919877
0.068563 -0.094554 0.920670
0.070210 -0.094678 0.921870
0.071871 -0.094812 0.923179
0.073548 -0.094963 0.924650
0.075216 -0.095096 0.925940
0.076880 -0.095217 0.927125
0.078525 -0.095312 0.928043
0.080169 -0.095401 0.928915
0.081825 -0.095501 0.929885
0.083520 -0.095641 0.931254
0.085235 -0.095800 0.932798
0.086993 -0.096000 0.934746
0.088804 -0.096250 0.937176
0.090625 -0.096502 0.939634
0.092439 -0.096738 0.941931
0.094269 -0.096983 0.944314
0.096084 -0.097203 0.946460
0.097865 -0.097383 0.948215
0.099683 -0.097593 0.950261
0.101579 -0.097873 0.952979
0.103590 -0.098252 0.956672
0.105813 -0.098818 0.962180
0.108066 -0.099394 0.967791
0.110241 -0.099882 0.972547
0.112279 -0.100234 0.975968
0.114134 -0.100414 0.977725
0.115667 -0.100310 0.976711
0.117113 -0.100135 0.975005
0.118402 -0.099832 0.972056
0.119604 -0.099465 0.968487
0.120815 -0.099115 0.965080
0.122027 -0.098776 0.961771
0.123214 -0.098425 0.958358
0.124503 -0.098164 0.955818
0.125831 -0.097940 0.953634
0.127095 -0.097672 0.951028
0.128366 -0.097417 0.948543
0.129538 -0.097093 0.945392
0.130569 -0.096673 0.941299
0.131535 -0.096216 0.936849
0.132488 -0.095760 0.932411
0.133473 -0.095337 0.928294
0.134623 -0.095042 0.925416
0.135899 -0.094841 0.923457
0.137242 -0.094690 0.921989
0.138611 -0.094560 0.920726
0.139971 -0.094428 0.919440
0.141299 -0.094277 0.917969
0.142634 -0.094133 0.916570
0.143981 -0.094001 0.915284
0.145331 -0.093874 0.914047
0.146766 -0.093804 0.913359
0.148203 -0.093736 0.912697
0.149682 -0.093696 0.912311
0.151178 -0.093667 0.912028
0.152688 -0.093647 0.911837
0.154167 -0.093610 0.911473
0.155642 -0.093570 0.911086
0.157097 -0.093520 0.910593
0.158550 -0.093468 0.910094
0.160036 -0.093437 0.909794
0.161526 -0.093410 0.909523
0.163078 -0.093418 0.909608
0.164649 -0.093437 0.909791
0.166240 -0.093467 0.910081
0.167868 -0.093516 0.910563
0.169535 -0.093587 0.911251
0.171239 -0.093677 0.912123
0.172917 -0.093750 0.912840
0.174660 -0.093857 0.913883
0.176356 -0.093938 0.914666
0.178053 -0.094017 0.915441
0.179698 -0.094069 0.915940
0.181356 -0.094125 0.916493
-0.094907 -0.090080 0.891826
-0.093386 -0.090068 0.891704
-0.091876 -0.090065 0.891671
-0.090366 -0.090063 0.891655
-0.088859 -0.090062 0.891650
-0.087321 -0.090031 0.891342
-0.085830 -0.090048 0.891502
-0.084329 -0.090055 0.891574
-0.082824 -0.090057 0.891592
-0.081295 -0.090033 0.891357
-0.079755 -0.089995 0.890983
-0.078173 -0.089908 0.890124
-0.076571 -0.089794 0.888991
-0.074951 -0.089654 0.887606
-0.073302 -0.089473 0.885811
-0.071596 -0.089213 0.883244
-0.069794 -0.088820 0.879348
-0.067988 -0.088405 0.875239
-0.066202 -0.087999 0.871216
-0.064468 -0.087643 0.867699
-0.062822 -0.087394 0.865227
-0.061250 -0.087238 0.863684
-0.059676 -0.087072 0.862040
-0.058106 -0.086903 0.860369
-0.056537 -0.086728 0.858634
-0.054972 -0.086548 0.856857
-0.053432 -0.086402 0.855406
-0.051904 -0.086265 0.854050
-0.050381 -0.086129 0.852711
-0.048867 -0.086002 0.851446
-0.047375 -0.085906 0.850500
-0.045891 -0.085821 0.849658
-0.044433 -0.085779 0.849241
-0.042969 -0.085723 0.848690
-0.041514 -0.085680 0.848267
-0.040059 -0.085635 0.847814
-0.038606 -0.085591 0.847383
-0.037156 -0.085551 0.846989
-0.035724 -0.085551 0.846989
-0.034295 -0.085560 0.847068
-0.032867 -0.085568 0.847150
-0.031440 -0.085584 0.847309
-0.030017 -0.085608 0.847554
-0.028590 -0.085627 0.847739
-0.027168 -0.085662 0.848086
-0.025744 -0.085697 0.848427
-0.024318 -0.085723 0.848683
-0.022891 -0.085755 0.849005
-0.021466 -0.085796 0.849410
-0.020037 -0.085823 0.849679
-0.018606 -0.085851 0.849953
-0.017181 -0.085907 0.850510
-0.015751 -0.085950 0.850931
-0.014319 -0.085993 0.851366
-0.012888 -0.086045 0.851873
-0.011458 -0.086119 0.852605
-0.010131 -0.088569 0.862389
-0.010054 -0.086443 0.855815
0.007813 -0.092426 0.915047
0.009396 -0.092781 0.918560
0.010963 -0.092898 0.919723
0.012525 -0.092954 0.920274
0.014061 -0.092823 0.918984
0.015597 -0.092716 0.917918
0.017139 -0.092665 0.917417
0.018681 -0.092618 0.916953
0.020229 -0.092609 0.916860
0.021777 -0.092600 0.916774
0.023327 -0.092600 0.916774
0.024876 -0.092600 0.916774
0.026426 -0.092600 0.916774
0.027976 -0.092600 0.916774
0.029526 -0.092600 0.916774
0.031076 -0.092600 0.916774
0.032623 -0.092592 0.916688
0.034169 -0.092582 0.916595
0.035715 -0.092573 0.916500
0.037260 -0.092563 0.916408
0.038810 -0.092564 0.916415
0.040360 -0.092565 0.916425
0.041909 -0.092565 0.916430
0.043458 -0.092565 0.916425
0.045002 -0.092555 0.916322
0.046542 -0.092535 0.916127
0.048099 -0.092551 0.916291
0.049663 -0.092580 0.916573
0.051236 -0.092621 0.916981
0.052815 -0.092672 0.917483
0.054395 -0.092721 0.917970
0.055958 -0.092741 0.918165
0.057528 -0.092768 0.918440
0.059099 -0.092797 0.918723
0.060666 -0.092818 0.918934
0.062238 -0.092847 0.919220
0.063811 -0.092874 0.919490
0.065386 -0.092903 0.919769
0.066983 -0.092962 0.920353
0.068613 -0.093062 0.921349
0.070264 -0.093186 0.922570
0.071925 -0.093318 0.923880
0.073604 -0.093467 0.925353
0.075266 -0.093588 0.926549
0.076916 -0.093689 0.927557
0.078552 -0.093771 0.928362
0.080180 -0.093839 0.929042
0.081819 -0.093918 0.929823
0.083489 -0.094028 0.930909
0.085195 -0.094174 0.932356
0.086943 -0.094361 0.934204
0.088770 -0.094625 0.936817
0.090621 -0.094905 0.939589
0.092477 -0.095180 0.942318
0.094328 -0.095441 0.944902
0.096173 -0.095687 0.947338
0.097986 -0.095895 0.949390
0.099842 -0.096137 0.951784
0.101792 -0.096459 0.954976
0.103868 -0.096890 0.959246
0.105993 -0.097352 0.963821
0.108108 -0.097792 0.968172
0.110123 -0.098129 0.971510
0.111991 -0.098327 0.973470
0.113683 -0.098367 0.973866
0.115201 -0.098257 0.972782
0.116648 -0.098091 0.971135
0.117999 -0.097850 0.968752
0.119280 -0.097558 0.965861
0.120573 -0.097284 0.963144
0.121873 -0.097022 0.960555
0.123108 -0.096717 0.957532
0.124366 -0.096437 0.954760
0.125663 -0.096195 0.952360
0.126883 -0.095900 0.949445
0.128113 -0.095620 0.946672
0.129281 -0.095301 0.943513
0.130350 -0.094918 0.939720
0.131331 -0.094481 0.935396
0.132314 -0.094056 0.931186
0.133326 -0.093661 0.927277
0.134488 -0.093379 0.924487
0.135749 -0.093172 0.922435
0.137092 -0.093025 0.920980
0.138459 -0.092898 0.919720
0.139821 -0.092770 0.918450
0.141148 -0.092622 0.916989
0.142482 -0.092482 0.915599
0.143831 -0.092354 0.914332
0.145179 -0.092228 0.913088
0.146612 -0.092159 0.912401
0.148062 -0.092101 0.911830
0.149557 -0.092073 0.911550
0.151069 -0.092055 0.911374
0.152594 -0.092045 0.911278
0.154086 -0.092016 0.910994
0.155573 -0.091985 0.910681
0.157043 -0.091944 0.910280
0.158515 -0.091905 0.909893
0.160019 -0.091886 0.909700
0.161526 -0.091868 0.909523
0.163048 -0.091859 0.909438
0.164600 -0.091867 0.909517
0.166170 -0.091885 0.909697
0.167779 -0.091924 0.910082
0.169443 -0.091992 0.910758
0.171165 -0.092091 0.911729
0.172842 -0.092163 0.912443
0.174585 -0.092269 0.913493
0.176277 -0.092346 0.914259
0.177974 -0.092425 0.915038
0.179636 -0.092484 0.915623
0.181316 -0.092552 0.916292
-0.093447 -0.088614 0.892280
-0.091951 -0.088626 0.892408
-0.090458 -0.088641 0.892560
-0.088969 -0.088661 0.892756
-0.087454 -0.088655 0.892699
-0.085970 -0.088681 0.892956
-0.084468 -0.088689 0.893041
-0.082959 -0.088689 0.893044
-0.081426 -0.088665 0.892797
-0.079876 -0.088620 0.892344
-0.078287 -0.088528 0.891419
-0.076682 -0.088416 0.890288
-0.075053 -0.088270 0.888823
-0.073375 -0.088059 0.886697
-0.071611 -0.087734 0.883427
-0.069787 -0.087321 0.879261
-0.067957 -0.086882 0.874841
-0.066161 -0.086467 0.870664
-0.064436 -0.086130 0.867267
-0.062814 -0.085916 0.865121
-0.061242 -0.085763 0.863573
-0.059668 -0.085599 0.861927
-0.058099 -0.085434 0.860264
-0.056531 -0.085263 0.858538
-0.054975 -0.085102 0.856919
-0.053442 -0.084968 0.855566
-0.051919 -0.084841 0.854298
-0.050401 -0.084717 0.853044
-0.048890 -0.084599 0.851853
-0.047393 -0.084497 0.850829
-0.045905 -0.084405 0.849903
-0.044441 -0.084355 0.849401
-0.042973 -0.084292 0.848764
-0.041514 -0.084243 0.848267
-0.040059 -0.084198 0.847814
-0.038606 -0.084155 0.847383
-0.037156 -0.084116 0.846989
-0.035721 -0.084108 0.846915
-0.034289 -0.084108 0.846915
-0.032857 -0.084108 0.846915
-0.031428 -0.084116 0.846989
-0.030002 -0.084132 0.847148
-0.028576 -0.084148 0.847318
-0.027154 -0.084182 0.847652
-0.025731 -0.084216 0.847995
-0.024308 -0.084251 0.848347
-0.022883 -0.084284 0.848682
-0.021458 -0.084324 0.849085
-0.020029 -0.084349 0.849336
-0.018598 -0.084373 0.849583
-0.017170 -0.084413 0.849983
-0.015740 -0.084447 0.850326
-0.014309 -0.084490 0.850762
-0.012878 -0.084533 0.851193
-0.011446 -0.084590 0.851764
-0.010013 -0.084648 0.852344
-0.008625 -0.086622 0.857583
-0.008585 -0.084778 0.853660
-0.007192 -0.086830 0.859644
-0.007155 -0.084932 0.855213
-0.005767 -0.087252 0.863828
-0.005722 -0.085124 0.857138
0.009351 -0.090788 0.914179
0.010940 -0.091147 0.917791
0.012529 -0.091422 0.920558
0.014066 -0.091294 0.919274
0.015600 -0.091181 0.918129
0.017143 -0.091131 0.917629
0.018685 -0.091083 0.917149
0.020231 -0.091064 0.916953
0.021777 -0.091046 0.916774
0.023327 -0.091046 0.916774
0.024876 -0.091046 0.916774
0.026426 -0.091046 0.916774
0.027976 -0.091046 0.916774
0.029526 -0.091046 0.916774
0.031076 -0.091046 0.916774
0.032626 -0.091046 0.916774
0.034176 -0.091046 0.916774
0.035726 -0.091046 0.916774
0.037275 -0.091046 0.916774
0.038829 -0.091056 0.916870
0.040380 -0.091057 0.916882
0.041931 -0.091058 0.916897
0.043480 -0.091057 0.916882
0.045025 -0.091047 0.916784
0.046570 -0.091037 0.916682
0.048134 -0.091064 0.916954
0.049701 -0.091095 0.917262
0.051275 -0.091137 0.917688
0.052855 -0.091186 0.918182
0.054430 -0.091224 0.918565
0.055989 -0.091234 0.918668
0.057553 -0.091252 0.918848
0.059124 -0.091279 0.919121
0.060691 -0.091299 0.919320
0.062265 -0.091328 0.919609
0.063839 -0.091355 0.919887
0.065421 -0.091393 0.920262
0.067019 -0.091451 0.920847
0.068657 -0.091559 0.921935
0.070308 -0.091680 0.923155
0.071971 -0.091811 0.924472
0.073651 -0.091957 0.925943
0.075313 -0.092074 0.927126
0.076949 -0.092156 0.927952
0.078576 -0.092226 0.928650
0.080196 -0.092283 0.929230
0.081818 -0.092341 0.929811
0.083472 -0.092431 0.930718
0.085166 -0.092562 0.932037
0.086903 -0.092735 0.933774
0.088738 -0.093003 0.936481
0.090617 -0.093308 0.939544
0.092495 -0.093601 0.942497
0.094368 -0.093880 0.945306
0.096245 -0.094152 0.948047
0.098090 -0.094386 0.950401
0.099984 -0.094658 0.953139
0.101990 -0.095025 0.956837
0.104029 -0.095411 0.960728
0.106082 -0.095798 0.964628
0.108081 -0.096126 0.967928
0.109970 -0.096348 0.970157
0.111709 -0.096433 0.971017
0.113373 -0.096452 0.971210
0.114915 -0.096368 0.970364
0.116400 -0.096239 0.969068
0.117814 -0.096057 0.967229
0.119145 -0.095812 0.964768
0.120475 -0.095574 0.962365
0.121774 -0.095317 0.959776
0.122994 -0.095006 0.956648
0.124200 -0.094692 0.953490
0.125456 -0.094424 0.950790
0.126646 -0.094114 0.947670
0.127837 -0.093813 0.944631
0.128988 -0.093489 0.941374
0.130081 -0.093132 0.937781
0.131091 -0.092725 0.933683
0.132092 -0.092322 0.929625
0.133142 -0.091962 0.925994
0.134328 -0.091702 0.923383
0.135586 -0.091499 0.921329
0.136929 -0.091355 0.919886
0.138309 -0.091239 0.918721
0.139683 -0.091123 0.917543
0.141025 -0.090988 0.916189
0.142375 -0.090861 0.914909
0.143724 -0.090736 0.913651
0.145083 -0.090621 0.912488
0.146501 -0.090543 0.911709
0.147947 -0.090485 0.911126
0.149444 -0.090459 0.910859
0.150969 -0.090450 0.910772
0.152496 -0.090442 0.910694
0.154003 -0.090423 0.910498
0.155504 -0.090401 0.910280
0.156977 -0.090363 0.909895
0.158465 -0.090334 0.909608
0.159986 -0.090325 0.909514
0.161509 -0.090317 0.909432
0.163017 -0.090300 0.909263
0.164551 -0.090299 0.909246
0.166085 -0.090297 0.909232
0.167673 -0.090325 0.909509
0.169303 -0.090374 0.910005
0.171024 -0.090470 0.910975
0.172714 -0.090549 0.911767
0.174471 -0.090661 0.912898
0.176161 -0.090737 0.913658
0.177892 -0.090832 0.914614
0.179575 -0.090901 0.915313
0.181277 -0.090979 0.916095
-0.093508 -0.087159 0.892869
-0.092016 -0.087175 0.893037
-0.090528 -0.087195 0.893245
-0.089047 -0.087224 0.893536
-0.087547 -0.087234 0.893646
-0.086076 -0.087275 0.894064
-0.084581 -0.087291 0.894230
-0.083078 -0.087301 0.894325
-0.081550 -0.087284 0.894152
-0.079998 -0.087239 0.893697
-0.078406 -0.087149 0.892775
-0.076799 -0.087040 0.891649
-0.075169 -0.086897 0.890194
-0.073453 -0.086648 0.887641
-0.071643 -0.086275 0.883817
-0.069797 -0.085842 0.879384
-0.067948 -0.085388 0.874732
-0.066138 -0.084962 0.870364
-0.064429 -0.084650 0.867169
-0.062826 -0.084466 0.865281
-0.061248 -0.084307 0.863656
-0.059674 -0.084147 0.862017
-0.058106 -0.083986 0.860368
-0.056543 -0.083825 0.858722
-0.054993 -0.083676 0.857192
-0.053464 -0.083551 0.855911
-0.051941 -0.083429 0.854658
-0.050426 -0.083313 0.853471
-0.048914 -0.083196 0.852279
-0.047416 -0.083095 0.851244
-0.045923 -0.082997 0.850237
-0.044454 -0.082939 0.849647
-0.042985 -0.082877 0.849003
-0.041522 -0.082820 0.848429
-0.040063 -0.082770 0.847907
-0.038610 -0.082727 0.847472
-0.037159 -0.082688 0.847068
-0.035721 -0.082673 0.846915
-0.034289 -0.082673 0.846915
-0.032857 -0.082673 0.846915
-0.031426 -0.082673 0.846915
-0.029996 -0.082680 0.846989
-0.028567 -0.082688 0.847068
-0.027143 -0.082711 0.847312
-0.025719 -0.082737 0.847573
-0.024296 -0.082771 0.847924
-0.022872 -0.082805 0.848267
-0.021448 -0.082845 0.848676
-0.020019 -0.082869 0.848926
-0.018589 -0.082893 0.849167
-0.017160 -0.082923 0.849484
-0.015729 -0.082948 0.849740
-0.014298 -0.082983 0.850094
-0.012866 -0.083017 0.850445
-0.011434 -0.083058 0.850864
-0.010002 -0.083106 0.851354
-0.008574 -0.083217 0.852489
-0.007144 -0.083351 0.853861
-0.005712 -0.083513 0.855519
-0.004284 -0.085338 0.859296
-0.004276 -0.083713 0.857567
-0.002838 -0.085550 0.861427
-0.002832 -0.083912 0.859609
-0.001385 -0.085699 0.862937
-0.001382 -0.084066 0.861185
0.000075 -0.086245 0.868432
0.000074 -0.084402 0.864632
0.001553 -0.086793 0.873946
0.001542 -0.084734 0.868034
0.010889 -0.089174 0.913510
0.012505 -0.089689 0.918788
0.014070 -0.089765 0.919575
0.015604 -0.089647 0.918361
0.017148 -0.089598 0.917860
0.018689 -0.089549 0.917354
0.020233 -0.089519 0.917049
0.021777 -0.089492 0.916774
0.023327 -0.089492 0.916774
0.024876 -0.089492 0.916774
0.026426 -0.089492 0.916774
0.027976 -0.089492 0.916774
0.029526 -0.089492 0.916774
0.031076 -0.089492 0.916774
0.032626 -0.089492 0.916774
0.034176 -0.089492 0.916774
0.035726 -0.089492 0.916774
0.037275 -0.089492 0.916774
0.038829 -0.089501 0.916867
0.040380 -0.089502 0.916877
0.041930 -0.089503 0.916882
0.043480 -0.089502 0.916877
0.045029 -0.089501 0.916867
0.046584 -0.089510 0.916953
0.048154 -0.089547 0.917338
0.049727 -0.089588 0.917754
0.051307 -0.089638 0.918268
0.052888 -0.089685 0.918752
0.054458 -0.089713 0.919036
0.056017 -0.089722 0.919129
0.057576 -0.089730 0.919216
0.059148 -0.089757 0.919492
0.060716 -0.089778 0.919702
0.062293 -0.089809 0.920018
0.063868 -0.089837 0.920310
0.065464 -0.089892 0.920869
0.067063 -0.089949 0.921451
0.068701 -0.090054 0.922531
0.070353 -0.090173 0.923748
0.072010 -0.090292 0.924965
0.073675 -0.090416 0.926240
0.075328 -0.090521 0.927318
0.076956 -0.090592 0.928040
0.078576 -0.090651 0.928643
0.080195 -0.090707 0.929216
0.081808 -0.090753 0.929689
0.083442 -0.090820 0.930382
0.085116 -0.090929 0.931493
0.086833 -0.091078 0.933019
0.088656 -0.091331 0.935617
0.090544 -0.091641 0.938789
0.092442 -0.091950 0.941956
0.094337 -0.092247 0.944992
0.096234 -0.092534 0.947936
0.098100 -0.092784 0.950495
0.100015 -0.093071 0.953433
0.102015 -0.093425 0.957069
0.104032 -0.093786 0.960759
0.106034 -0.094121 0.964193
0.107959 -0.094379 0.966832
0.109771 -0.094532 0.968402
0.111471 -0.094585 0.968944
0.113120 -0.094594 0.969043
0.114684 -0.094533 0.968418
0.116192 -0.094428 0.967340
0.117641 -0.094279 0.965812
0.118997 -0.094060 0.963565
0.120328 -0.093827 0.961186
0.121614 -0.093567 0.958518
0.122843 -0.093270 0.955472
0.124033 -0.092951 0.952205
0.125286 -0.092687 0.949505
0.126464 -0.092375 0.946305
0.127650 -0.092076 0.943247
0.128785 -0.091749 0.939892
0.129877 -0.091399 0.936311
0.130890 -0.091003 0.932254
0.131921 -0.090629 0.928421
0.132987 -0.090287 0.924914
0.134185 -0.090042 0.922404
0.135443 -0.089842 0.920354
0.136797 -0.089709 0.919001
0.138176 -0.089596 0.917840
0.139564 -0.089491 0.916765
0.140919 -0.089368 0.915498
0.142271 -0.089245 0.914242
0.143604 -0.089113 0.912891
0.144976 -0.089008 0.911815
0.146390 -0.088930 0.911019
0.147838 -0.088875 0.910451
0.149346 -0.088856 0.910261
0.150885 -0.088857 0.910265
0.152411 -0.088849 0.910185
0.153919 -0.088831 0.910002
0.155438 -0.088820 0.909893
0.156913 -0.088784 0.909524
0.158417 -0.088766 0.909331
0.159953 -0.088765 0.909323
0.161491 -0.088766 0.909331
0.162999 -0.088749 0.909162
0.164531 -0.088747 0.909140
0.166030 -0.088726 0.908928
0.167582 -0.088735 0.909016
0.169176 -0.088764 0.909319
0.170876 -0.088849 0.910188
0.172567 -0.088928 0.910992
0.174340 -0.089047 0.912209
0.176049 -0.089131 0.913078
0.177814 -0.089242 0.914216
0.179518 -0.089321 0.915023
0.181240 -0.089408 0.915910
-0.092054 -0.085696 0.893402
-0.090566 -0.085717 0.893621
-0.089090 -0.085751 0.893974
-0.087600 -0.085772 0.894195
-0.086126 -0.085810 0.894585
-0.084647 -0.085843 0.894933
-0.083156 -0.085866 0.895170
-0.081644 -0.085868 0.895189
-0.080098 -0.085832 0.894817
-0.078520 -0.085761 0.894074
-0.076911 -0.085652 0.892941
-0.075291 -0.085526 0.891630
-0.073544 -0.085249 0.888737
-0.071693 -0.084837 0.884444
-0.069827 -0.084388 0.879766
-0.067964 -0.083924 0.874931
-0.066131 -0.083478 0.870280
-0.064432 -0.083183 0.867204
-0.062846 -0.083026 0.865564
-0.061267 -0.082869 0.863929
-0.059694 -0.082713 0.862301
-0.058126 -0.082556 0.860669
-0.056568 -0.082406 0.859098
-0.055021 -0.082265 0.857629
-0.053491 -0.082142 0.856352
-0.051968 -0.082023 0.855108
-0.050457 -0.081917 0.853998
-0.048949 -0.081809 0.852873
-0.047445 -0.081702 0.851758
-0.045950 -0.081605 0.850752
-0.044476 -0.081539 0.850068
-0.043006 -0.081477 0.849414
-0.041534 -0.081406 0.848682
-0.040071 -0.081349 0.848087
-0.038614 -0.081299 0.847564
-0.037163 -0.081260 0.847150
-0.035721 -0.081237 0.846915
-0.034289 -0.081237 0.846915
-0.032857 -0.081237 0.846915
-0.031426 -0.081237 0.846915
-0.029994 -0.081237 0.846915
-0.028562 -0.081237 0.846915
-0.027135 -0.081252 0.847068
-0.025708 -0.081268 0.847236
-0.024284 -0.081293 0.847493
-0.022862 -0.081332 0.847907
-0.021439 -0.081373 0.848334
-0.020011 -0.081399 0.848601
-0.018582 -0.081423 0.848851
-0.017153 -0.081452 0.849159
-0.015721 -0.081469 0.849328
-0.014290 -0.081493 0.849586
-0.012857 -0.081518 0.849848
-0.011425 -0.081550 0.850182
-0.009993 -0.081590 0.850591
-0.008564 -0.081683 0.851566
-0.007135 -0.081798 0.852762
-0.005703 -0.081940 0.854246
-0.004268 -0.082118 0.856103
-0.002827 -0.082297 0.857964
-0.001379 -0.082454 0.859602
0.000074 -0.082603 0.861157
0.001533 -0.082743 0.862616
0.012473 -0.087903 0.916412
0.014068 -0.088191 0.919410
0.015602 -0.088075 0.918204
0.017146 -0.088036 0.917797
0.018689 -0.087995 0.917370
0.020233 -0.087965 0.917056
0.021777 -0.087938 0.916774
0.023327 -0.087938 0.916774
0.024876 -0.087938 0.916774
0.026424 -0.087930 0.916688
0.027971 -0.087921 0.916595
0.029517 -0.087912 0.916500
0.031064 -0.087903 0.916408
0.032610 -0.087895 0.916322
0.034159 -0.087895 0.916322
0.035708 -0.087895 0.916322
0.037260 -0.087903 0.916408
0.038817 -0.087920 0.916586
0.040371 -0.087930 0.916688
0.041925 -0.087939 0.916784
0.043479 -0.087947 0.916867
0.045029 -0.087946 0.916860
0.046588 -0.087964 0.917049
0.048164 -0.088011 0.917533
0.049744 -0.088061 0.918056
0.051324 -0.088110 0.918565
0.052904 -0.088155 0.919036
0.054468 -0.088172 0.919216
0.056022 -0.088172 0.919216
0.057582 -0.088181 0.919303
0.059160 -0.088217 0.919679
0.060736 -0.088247 0.919998
0.062320 -0.088288 0.920424
0.063904 -0.088326 0.920821
0.065500 -0.088380 0.921378
0.067093 -0.088427 0.921871
0.068725 -0.088521 0.922854
0.070370 -0.088628 0.923969
0.072019 -0.088735 0.925082
0.073669 -0.088839 0.926162
0.075313 -0.088931 0.927131
0.076931 -0.088990 0.927746
0.078536 -0.089031 0.928168
0.080146 -0.089076 0.928643
0.081741 -0.089104 0.928929
0.083346 -0.089142 0.929321
0.084998 -0.089226 0.930203
0.086693 -0.089353 0.931520
0.088462 -0.089548 0.933564
0.090309 -0.089816 0.936357
0.092244 -0.090161 0.939946
0.094169 -0.090483 0.943303
0.096096 -0.090797 0.946578
0.098020 -0.091098 0.949718
0.100018 -0.091457 0.953460
0.102010 -0.091799 0.957025
0.104009 -0.092136 0.960541
0.105986 -0.092445 0.963760
0.107881 -0.092673 0.966138
0.109634 -0.092774 0.967194
0.111308 -0.092807 0.967532
0.112945 -0.092807 0.967539
0.114506 -0.092748 0.966914
0.115999 -0.092634 0.965729
0.117434 -0.092479 0.964111
0.118776 -0.092255 0.961782
0.120096 -0.092020 0.959335
0.121391 -0.091773 0.956758
0.122642 -0.091500 0.953907
0.123845 -0.091198 0.950763
0.125098 -0.090941 0.948078
0.126273 -0.090634 0.944881
0.127429 -0.090321 0.941618
0.128548 -0.089990 0.938166
0.129649 -0.089655 0.934672
0.130678 -0.089278 0.930742
0.131737 -0.088931 0.927127
0.132833 -0.088616 0.923843
0.134044 -0.088385 0.921433
0.135303 -0.088190 0.919402
0.136657 -0.088061 0.918058
0.138048 -0.087959 0.916988
0.139449 -0.087865 0.916011
0.140818 -0.087753 0.914842
0.142184 -0.087641 0.913679
0.143528 -0.087519 0.912406
0.144900 -0.087416 0.911334
0.146312 -0.087340 0.910535
0.147761 -0.087286 0.909977
0.149268 -0.087268 0.909787
0.150807 -0.087268 0.909791
0.152345 -0.087268 0.909794
0.153869 -0.087260 0.909709
0.155405 -0.087259 0.909700
0.156881 -0.087225 0.909338
0.158384 -0.087206 0.909140
0.159916 -0.087203 0.909111
0.161441 -0.087197 0.909046
0.162934 -0.087173 0.908802
0.164466 -0.087171 0.908777
0.165959 -0.087149 0.908543
0.167475 -0.087138 0.908430
0.169062 -0.087165 0.908711
0.170761 -0.087247 0.909575
0.172452 -0.087325 0.910387
0.174230 -0.087445 0.911634
0.175975 -0.087547 0.912694
0.177760 -0.087666 0.913937
0.179483 -0.087753 0.914845
0.181223 -0.087847 0.915824
-0.089126 -0.084270 0.894335
-0.087640 -0.084294 0.894597
-0.086174 -0.084340 0.895081
-0.084704 -0.084383 0.895538
-0.083219 -0.084412 0.895848
-0.081706 -0.084414 0.895868
-0.080158 -0.084378 0.895486
-0.078590 -0.084320 0.894870
-0.076986 -0.084220 0.893811
-0.075385 -0.084120 0.892750
-0.073614 -0.083822 0.889584
-0.071755 -0.083409 0.885205
-0.069869 -0.082947 0.880295
-0.067999 -0.082483 0.875378
-0.066155 -0.082032 0.870589
-0.064474 -0.081766 0.867769
-0.062897 -0.081624 0.866258
-0.061310 -0.081461 0.864530
-0.059736 -0.081308 0.862902
-0.058166 -0.081153 0.861261
-0.056607 -0.081006 0.859700
-0.055064 -0.080874 0.858302
-0.053534 -0.080755 0.857031
-0.052009 -0.080636 0.855777
-0.050492 -0.080525 0.854597
-0.048987 -0.080426 0.853545
-0.047478 -0.080315 0.852362
-0.045983 -0.080220 0.851356
-0.044500 -0.080141 0.850521
-0.043028 -0.080077 0.849840
-0.041547 -0.079992 0.848941
-0.040080 -0.079928 0.848260
-0.038618 -0.079871 0.847653
-0.037166 -0.079831 0.847230
-0.035721 -0.079801 0.846915
-0.034289 -0.079801 0.846915
-0.032857 -0.079801 0.846915
-0.031426 -0.079801 0.846915
-0.029994 -0.079801 0.846915
-0.028562 -0.079801 0.846915
-0.027133 -0.079808 0.846989
-0.025703 -0.079816 0.847068
-0.024276 -0.079831 0.847230
-0.022854 -0.079869 0.847633
-0.021432 -0.079909 0.848061
-0.020007 -0.079944 0.848429
-0.018581 -0.079976 0.848769
-0.017152 -0.080005 0.849079
-0.015718 -0.080013 0.849159
-0.014285 -0.080028 0.849321
-0.012852 -0.080044 0.849490
-0.011418 -0.080060 0.849658
-0.009986 -0.080097 0.850057
-0.008558 -0.080182 0.850954
-0.007128 -0.080280 0.851999
-0.005697 -0.080411 0.853383
-0.004263 -0.080570 0.855072
-0.002823 -0.080714 0.856595
-0.001377 -0.080852 0.858060
0.000074 -0.080998 0.859614
0.001530 -0.081145 0.861173
0.003002 -0.083049 0.865806
0.002991 -0.081277 0.862578
0.004482 -0.083361 0.869054
0.004456 -0.081407 0.863957
0.012382 -0.085719 0.909720
0.014003 -0.086235 0.915197
0.015566 -0.086322 0.916116
0.017144 -0.086469 0.917681
0.018689 -0.086438 0.917354
0.020233 -0.086410 0.917049
0.021775 -0.086376 0.916688
0.023322 -0.086367 0.916595
0.024869 -0.086358 0.916500
0.026413 -0.086341 0.916315
0.027957 -0.086323 0.916127
0.029499 -0.086305 0.915933
0.031041 -0.086286 0.915739
0.032582 -0.086269 0.915551
0.034127 -0.086260 0.915459
0.035671 -0.086252 0.915374
0.037226 -0.086269 0.915552
0.038782 -0.086287 0.915746
0.040339 -0.086306 0.915949
0.041900 -0.086333 0.916230
0.043462 -0.086358 0.916500
0.045020 -0.086375 0.916682
0.046589 -0.086411 0.917063
0.048170 -0.086465 0.917639
0.049749 -0.086515 0.918162
0.051329 -0.086562 0.918662
0.052905 -0.086598 0.919043
0.054468 -0.086614 0.919216
0.056028 -0.086622 0.919303
0.057593 -0.086640 0.919490
0.059179 -0.086685 0.919966
0.060762 -0.086724 0.920388
0.062352 -0.086773 0.920901
0.063937 -0.086810 0.921298
0.065534 -0.086863 0.921855
0.067128 -0.086909 0.922351
0.068754 -0.086994 0.923246
0.070385 -0.087080 0.924164
0.072025 -0.087175 0.925165
0.073652 -0.087249 0.925956
0.075281 -0.087322 0.926729
0.076889 -0.087370 0.927235
0.078492 -0.087409 0.927651
0.080078 -0.087429 0.927865
0.081663 -0.087446 0.928044
0.083240 -0.087455 0.928138
0.084854 -0.087501 0.928626
0.086509 -0.087586 0.929537
0.088234 -0.087740 0.931164
0.090051 -0.087977 0.933683
0.091904 -0.088240 0.936474
0.093750 -0.088489 0.939115
0.095559 -0.088694 0.941292
0.097364 -0.088890 0.943365
0.105276 -0.090203 0.957304
0.107324 -0.090565 0.961149
0.109229 -0.090798 0.963616
0.111079 -0.090979 0.965544
0.112691 -0.090962 0.965363
0.114235 -0.090892 0.964622
0.115722 -0.090780 0.963424
0.117151 -0.090626 0.961789
0.118502 -0.090416 0.959564
0.119843 -0.090204 0.957318
0.121162 -0.089981 0.954952
0.122438 -0.089733 0.952321
0.123668 -0.089458 0.949403
0.124912 -0.089201 0.946671
0.126086 -0.088900 0.943480
0.127225 -0.088583 0.940108
0.128325 -0.088246 0.936537
0.129413 -0.087910 0.932970
0.130479 -0.087567 0.929327
0.131567 -0.087246 0.925928
0.132703 -0.086965 0.922938
0.133943 -0.086758 0.920739
0.135215 -0.086575 0.918806
0.136567 -0.086448 0.917451
0.137946 -0.086340 0.916309
0.139346 -0.086248 0.915335
0.140717 -0.086140 0.914183
0.142095 -0.086039 0.913108
0.143440 -0.085920 0.911846
0.144837 -0.085834 0.910937
0.146253 -0.085761 0.910164
0.147716 -0.085717 0.909700
0.149225 -0.085701 0.909523
0.150762 -0.085701 0.909523
0.152300 -0.085701 0.909523
0.153838 -0.085701 0.909523
0.155375 -0.085701 0.909523
0.156851 -0.085667 0.909162
0.158350 -0.085647 0.908948
0.159864 -0.085634 0.908819
0.161372 -0.085619 0.908657
0.162850 -0.085589 0.908333
0.164382 -0.085587 0.908311
0.165876 -0.085565 0.908086
0.167371 -0.085545 0.907868
0.168955 -0.085570 0.908132
0.170650 -0.085650 0.908982
0.172376 -0.085744 0.909985
0.174176 -0.085873 0.911351
0.175975 -0.085999 0.912691
0.177779 -0.086126 0.914036
0.179519 -0.086219 0.915026
0.181259 -0.086311 0.916003
-0.081787 -0.082977 0.896747
-0.080232 -0.082937 0.896319
-0.078665 -0.082883 0.895730
-0.077054 -0.082779 0.894605
-0.075450 -0.082678 0.893515
-0.073600 -0.082299 0.889421
-0.071716 -0.081864 0.884726
-0.069830 -0.081410 0.879812
-0.067988 -0.080986 0.875236
-0.066198 -0.080609 0.871157
-0.064540 -0.080378 0.868661
-0.062960 -0.080236 0.867130
-0.061370 -0.080074 0.865379
-0.059793 -0.079922 0.863734
-0.058212 -0.079756 0.861941
-0.056652 -0.079611 0.860374
-0.055102 -0.079474 0.858896
-0.053566 -0.079349 0.857544
-0.052040 -0.079233 0.856292
-0.050522 -0.079124 0.855109
-0.049017 -0.079027 0.854063
-0.047508 -0.078918 0.852887
-0.046012 -0.078825 0.851882
-0.044519 -0.078733 0.850884
-0.043045 -0.078669 0.850191
-0.041559 -0.078577 0.849194
-0.040087 -0.078505 0.848424
-0.038622 -0.078441 0.847732
-0.037170 -0.078402 0.847304
-0.035721 -0.078366 0.846915
-0.034289 -0.078366 0.846915
-0.032857 -0.078366 0.846915
-0.031426 -0.078366 0.846915
-0.029994 -0.078366 0.846915
-0.028562 -0.078366 0.846915
-0.027130 -0.078366 0.846915
-0.025699 -0.078366 0.846915
-0.024269 -0.078373 0.846989
-0.022846 -0.078402 0.847309
-0.021422 -0.078435 0.847661
-0.019998 -0.078469 0.848031
-0.018572 -0.078501 0.848375
-0.017143 -0.078523 0.848616
-0.015708 -0.078523 0.848616
-0.014276 -0.078537 0.848764
-0.012843 -0.078552 0.848924
-0.011410 -0.078567 0.849088
-0.009980 -0.078604 0.849490
-0.008552 -0.078686 0.850376
-0.007122 -0.078768 0.851262
-0.005691 -0.078881 0.852478
-0.004257 -0.079013 0.853914
-0.002818 -0.079138 0.855261
-0.001374 -0.079257 0.856552
0.000074 -0.079399 0.858080
0.001527 -0.079551 0.859728
0.002986 -0.079697 0.861300
0.004451 -0.079848 0.862935
0.005953 -0.081908 0.869270
0.005932 -0.080157 0.866278
0.015451 -0.084142 0.909338
0.017061 -0.084502 0.913227
0.018641 -0.084668 0.915025
0.020225 -0.084821 0.916679
0.021764 -0.084780 0.916230
0.023306 -0.084753 0.915949
0.024849 -0.084735 0.915746
0.026388 -0.084708 0.915456
0.027927 -0.084682 0.915171
0.029465 -0.084654 0.914871
0.030998 -0.084618 0.914485
0.032531 -0.084582 0.914097
0.034065 -0.084556 0.913809
0.035596 -0.084523 0.913457
0.037144 -0.084532 0.913553
0.038694 -0.084543 0.913677
0.040252 -0.084572 0.913987
0.041827 -0.084633 0.914641
0.043409 -0.084702 0.915388
0.044989 -0.084763 0.916057
0.046585 -0.084849 0.916982
0.048180 -0.084928 0.917830
0.049759 -0.084976 0.918348
0.051339 -0.085021 0.918838
0.052909 -0.085047 0.919123
0.054468 -0.085056 0.919216
0.056028 -0.085064 0.919309
0.057595 -0.085083 0.919509
0.059180 -0.085128 0.919995
0.060770 -0.085176 0.920512
0.062360 -0.085222 0.921017
0.063944 -0.085258 0.921403
0.065541 -0.085309 0.921955
0.067129 -0.085347 0.922361
0.068735 -0.085404 0.922980
0.070356 -0.085478 0.923779
0.071986 -0.085560 0.924664
0.073598 -0.085616 0.925271
0.075217 -0.085679 0.925947
0.076823 -0.085724 0.926434
0.078415 -0.085752 0.926740
0.079991 -0.085762 0.926849
0.081565 -0.085770 0.926934
0.083122 -0.085760 0.926825
0.084714 -0.085785 0.927092
0.086336 -0.085840 0.927685
0.087986 -0.085919 0.928541
0.089696 -0.086054 0.930005
0.091433 -0.086209 0.931675
0.093160 -0.086350 0.933197
0.094839 -0.086442 0.934197
0.096532 -0.086544 0.935302
0.110222 -0.088653 0.958091
0.112026 -0.088799 0.959674
0.113764 -0.088890 0.960649
0.115435 -0.088926 0.961039
0.116860 -0.088774 0.959395
0.118220 -0.088577 0.957275
0.119571 -0.088380 0.955145
0.120927 -0.088191 0.953102
0.122242 -0.087978 0.950800
0.123503 -0.087732 0.948139
0.124739 -0.087475 0.945357
0.125921 -0.087186 0.942240
0.127042 -0.086864 0.938755
0.128114 -0.086516 0.935001
0.129190 -0.086179 0.931358
0.130281 -0.085861 0.927916
0.131396 -0.085566 0.924726
0.132562 -0.085310 0.921959
0.133830 -0.085125 0.919964
0.135127 -0.084963 0.918210
0.136491 -0.084846 0.916943
0.137867 -0.084739 0.915788
0.139267 -0.084649 0.914815
0.140652 -0.084551 0.913765
0.142031 -0.084453 0.912697
0.143393 -0.084346 0.911545
0.144805 -0.084271 0.910735
0.146236 -0.084209 0.910062
0.147701 -0.084167 0.909608
0.149225 -0.084159 0.909523
0.150762 -0.084159 0.909523
0.152300 -0.084159 0.909523
0.153838 -0.084159 0.909523
0.155375 -0.084159 0.909523
0.156836 -0.084118 0.909078
0.158318 -0.084089 0.908763
0.159813 -0.084067 0.908528
0.161300 -0.084041 0.908250
0.162777 -0.084011 0.907927
0.164308 -0.084009 0.907906
0.165805 -0.083990 0.907699
0.167302 -0.083971 0.907492
0.168885 -0.083996 0.907759
0.170579 -0.084074 0.908608
0.172341 -0.084184 0.909797
0.174160 -0.084321 0.911270
0.175980 -0.084455 0.912720
0.177801 -0.084587 0.914148
0.179539 -0.084678 0.915130
0.181279 -0.084768 0.916106
0.182924 -0.086366 0.916587
0.182965 -0.084831 0.916790
-0.075512 -0.081230 0.894250
-0.073620 -0.080813 0.889660
-0.071685 -0.080330 0.884340
-0.069787 -0.079869 0.879269
-0.067982 -0.079496 0.875164
-0.066238 -0.079180 0.871684
-0.064613 -0.078994 0.869639
-0.063031 -0.078855 0.868105
-0.061438 -0.078694 0.866338
-0.059853 -0.078537 0.864600
-0.058270 -0.078373 0.862797
-0.056708 -0.078230 0.861229
-0.055152 -0.078089 0.859669
-0.053603 -0.077950 0.858140
-0.052070 -0.077827 0.856793
-0.050547 -0.077712 0.855524
-0.049033 -0.077605 0.854340
-0.047522 -0.077496 0.853149
-0.046025 -0.077405 0.852140
-0.044528 -0.077306 0.851055
-0.043050 -0.077236 0.850282
-0.041563 -0.077145 0.849277
-0.040088 -0.077068 0.848430
-0.038622 -0.077004 0.847732
-0.037170 -0.076965 0.847304
-0.035721 -0.076930 0.846915
-0.034289 -0.076930 0.846915
-0.032857 -0.076930 0.846915
-0.031426 -0.076930 0.846915
-0.029994 -0.076930 0.846915
-0.028562 -0.076930 0.846915
-0.027130 -0.076930 0.846915
-0.025699 -0.076930 0.846915
-0.024267 -0.076930 0.846915
-0.022842 -0.076951 0.847150
-0.021416 -0.076975 0.847411
-0.019990 -0.077001 0.847691
-0.018563 -0.077024 0.847952
-0.017134 -0.077046 0.848187
-0.015700 -0.077046 0.848187
-0.014267 -0.077053 0.848267
-0.012836 -0.077068 0.848429
-0.011404 -0.077083 0.848601
-0.009974 -0.077120 0.849008
-0.008547 -0.077194 0.849821
-0.007117 -0.077272 0.850684
-0.005686 -0.077367 0.851729
-0.004253 -0.077482 0.852985
-0.002815 -0.077588 0.854160
-0.001372 -0.077695 0.855339
0.000074 -0.077825 0.856768
0.001525 -0.077980 0.858476
0.002982 -0.078131 0.860141
0.004445 -0.078283 0.861806
0.005912 -0.078415 0.863260
0.016973 -0.082524 0.908499
0.018593 -0.082900 0.912632
0.020218 -0.083240 0.916379
0.021754 -0.083189 0.915822
0.023288 -0.083137 0.915250
0.024821 -0.083092 0.914748
0.026354 -0.083047 0.914259
0.027883 -0.082997 0.913707
0.029409 -0.082947 0.913153
0.030931 -0.082886 0.912482
0.032448 -0.082823 0.911785
0.033968 -0.082770 0.911202
0.035484 -0.082712 0.910567
0.037019 -0.082704 0.910480
0.038560 -0.082706 0.910501
0.040109 -0.082727 0.910728
0.041672 -0.082774 0.911248
0.043239 -0.082824 0.911798
0.044845 -0.082943 0.913113
0.046470 -0.083089 0.914723
0.048098 -0.083230 0.916273
0.049714 -0.083343 0.917510
0.051339 -0.083464 0.918842
0.052909 -0.083489 0.919120
0.054468 -0.083498 0.919216
0.056028 -0.083506 0.919312
0.057595 -0.083525 0.919515
0.059176 -0.083562 0.919922
0.060758 -0.083600 0.920338
0.062342 -0.083636 0.920743
0.063918 -0.083663 0.921033
0.065514 -0.083712 0.921579
0.067101 -0.083749 0.921980
0.068698 -0.083795 0.922495
0.070310 -0.083858 0.923179
0.071930 -0.083927 0.923947
0.073512 -0.083949 0.924188
0.075114 -0.083994 0.924678
0.076708 -0.084028 0.925054
0.078283 -0.084039 0.925180
0.079840 -0.084032 0.925104
0.081418 -0.084046 0.925256
0.082954 -0.084018 0.924951
0.084516 -0.084017 0.924930
0.086106 -0.084042 0.925211
0.087692 -0.084063 0.925439
0.089293 -0.084097 0.925818
0.090926 -0.084161 0.926518
0.094085 -0.084184 0.926772
0.095661 -0.084192 0.926863
0.098275 -0.086687 0.936846
0.097325 -0.084276 0.927787
0.112821 -0.086538 0.952684
0.114696 -0.086738 0.954888
0.116322 -0.086746 0.954978
0.117888 -0.086711 0.954590
0.119265 -0.086539 0.952696
0.120660 -0.086384 0.950995
0.122003 -0.086198 0.948941
0.123289 -0.085976 0.946499
0.124535 -0.085732 0.943811
0.125715 -0.085450 0.940705
0.126845 -0.085140 0.937299
0.127942 -0.084817 0.933743
0.129030 -0.084496 0.930209
0.130138 -0.084195 0.926897
0.131291 -0.083931 0.923984
0.132473 -0.083691 0.921344
0.133746 -0.083513 0.919386
0.135057 -0.083363 0.917735
0.136432 -0.083255 0.916550
0.137806 -0.083149 0.915382
0.139206 -0.083061 0.914411
0.140602 -0.082973 0.913441
0.141984 -0.082878 0.912397
0.143361 -0.082782 0.911342
0.144775 -0.082710 0.910549
0.146222 -0.082658 0.909971
0.147687 -0.082617 0.909523
0.149225 -0.082617 0.909523
0.150762 -0.082617 0.909523
0.152300 -0.082617 0.909523
0.153838 -0.082617 0.909523
0.155375 -0.082617 0.909523
0.156851 -0.082584 0.909162
0.158318 -0.082548 0.908763
0.159795 -0.082518 0.908427
0.161262 -0.082482 0.908038
0.162733 -0.082450 0.907683
0.164251 -0.082442 0.907593
0.165767 -0.082433 0.907492
0.167267 -0.082416 0.907307
0.168867 -0.082448 0.907661
0.170562 -0.082525 0.908514
0.172341 -0.082642 0.909800
0.174165 -0.082778 0.911293
0.176021 -0.082927 0.912931
0.177841 -0.083056 0.914353
0.179579 -0.083145 0.915335
0.181318 -0.083233 0.916299
0.183023 -0.083304 0.917083
-0.069710 -0.078291 0.878290
-0.067954 -0.077981 0.874804
-0.066265 -0.077733 0.872031
-0.064672 -0.077591 0.870439
-0.063097 -0.077464 0.869012
-0.061508 -0.077314 0.867322
-0.059921 -0.077159 0.865584
-0.058336 -0.076997 0.863771
-0.056761 -0.076842 0.862034
-0.055202 -0.076701 0.860451
-0.053645 -0.076555 0.858818
-0.052106 -0.076427 0.857376
-0.050576 -0.076306 0.856016
-0.049060 -0.076199 0.854813
-0.047540 -0.076078 0.853464
-0.046037 -0.075979 0.852355
-0.044535 -0.075875 0.851188
-0.043053 -0.075800 0.850337
-0.041563 -0.075704 0.849269
-0.040087 -0.075629 0.848424
-0.038622 -0.075567 0.847732
-0.037170 -0.075529 0.847304
-0.035721 -0.075494 0.846915
-0.034289 -0.075494 0.846915
-0.032857 -0.075494 0.846915
-0.031426 -0.075494 0.846915
-0.029994 -0.075494 0.846915
-0.028562 -0.075494 0.846915
-0.027130 -0.075494 0.846915
-0.025699 -0.075494 0.846915
-0.024267 -0.075494 0.846915
-0.022839 -0.075508 0.847068
-0.021412 -0.075523 0.847236
-0.019983 -0.075539 0.847411
-0.018554 -0.075554 0.847579
-0.017125 -0.075567 0.847732
-0.015692 -0.075567 0.847732
-0.014260 -0.075575 0.847814
-0.012829 -0.075590 0.847987
-0.011399 -0.075614 0.848254
-0.009970 -0.075651 0.848674
-0.008543 -0.075717 0.849412
-0.007113 -0.075785 0.850172
-0.005682 -0.075868 0.851109
-0.004248 -0.075958 0.852117
-0.002811 -0.076048 0.853126
-0.001370 -0.076138 0.854130
0.000074 -0.076250 0.855393
0.001523 -0.076400 0.857078
0.002977 -0.076549 0.858750
0.004438 -0.076706 0.860503
0.005904 -0.076851 0.862131
0.007416 -0.078895 0.868545
0.007390 -0.077147 0.865459
0.008931 -0.079303 0.873038
0.008876 -0.077348 0.867707
0.018499 -0.080941 0.908016
0.020163 -0.081464 0.913882
0.021736 -0.081568 0.915045
0.023258 -0.081481 0.914071
0.024777 -0.081394 0.913093
0.026293 -0.081310 0.912152
0.027810 -0.081235 0.911320
0.029326 -0.081169 0.910571
0.030833 -0.081084 0.909622
0.032339 -0.081004 0.908721
0.033849 -0.080940 0.908002
0.035354 -0.080872 0.907246
0.036876 -0.080847 0.906962
0.038405 -0.080838 0.906856
0.039943 -0.080847 0.906963
0.041491 -0.080876 0.907288
0.043039 -0.080903 0.907589
0.044625 -0.080996 0.908631
0.046280 -0.081204 0.910970
0.047949 -0.081425 0.913442
0.049612 -0.081620 0.915634
0.051294 -0.081833 0.918028
0.052925 -0.081955 0.919397
0.054485 -0.081964 0.919492
0.056040 -0.081965 0.919499
0.057605 -0.081981 0.919680
0.059173 -0.081999 0.919885
