1691
0.033187 -0.168397 0.890265
0.034703 -0.168448 0.890530
0.036220 -0.168501 0.890811
0.037741 -0.168569 0.891174
0.039263 -0.168636 0.891527
0.040779 -0.168671 0.891713
0.042299 -0.168722 0.891982
0.043833 -0.168823 0.892514
0.045375 -0.168948 0.893175
0.046935 -0.169126 0.894119
0.048499 -0.169309 0.895086
0.050079 -0.169537 0.896288
0.051664 -0.169764 0.897490
0.053268 -0.170043 0.898963
0.054903 -0.170398 0.900843
0.056557 -0.170797 0.902950
0.058233 -0.171234 0.905259
0.059908 -0.171650 0.907458
0.061602 -0.172096 0.909820
0.063281 -0.172480 0.911850
0.064961 -0.172848 0.913792
0.066620 -0.173145 0.915365
0.068281 -0.173435 0.916895
0.069920 -0.173655 0.918061
0.071251 -0.173118 0.915221
0.074264 -0.166017 0.877680
0.075554 -0.165592 0.875435
0.076964 -0.165442 0.874642
0.078378 -0.165306 0.873923
0.079805 -0.165202 0.873369
0.081209 -0.165056 0.872597
0.082619 -0.164924 0.871902
0.084046 -0.164834 0.871424
0.085475 -0.164748 0.870969
0.086906 -0.164669 0.870553
0.088370 -0.164654 0.870475
0.089824 -0.164623 0.870311
0.091286 -0.164605 0.870216
0.092728 -0.164554 0.869947
0.094189 -0.164537 0.869856
0.095632 -0.164489 0.869602
0.097092 -0.164473 0.869516
0.098541 -0.164437 0.869329
0.100018 -0.164450 0.869394
0.101498 -0.164467 0.869484
0.102992 -0.164505 0.869687
0.104582 -0.166169 0.870679
0.104506 -0.164573 0.870047
0.106117 -0.166269 0.871203
0.106059 -0.164702 0.870726
0.107626 -0.166323 0.871490
0.107579 -0.164775 0.871112
-0.072441 -0.174818 0.932565
-0.070594 -0.174152 0.929013
-0.068732 -0.173415 0.925080
-0.066781 -0.172415 0.919749
-0.064898 -0.171549 0.915128
-0.063235 -0.171234 0.913447
-0.061582 -0.170933 0.911840
-0.059918 -0.170583 0.909974
-0.058261 -0.170237 0.908130
-0.056585 -0.169815 0.905877
-0.054919 -0.169400 0.903666
-0.053259 -0.168980 0.901424
-0.051639 -0.168665 0.899743
-0.050044 -0.168418 0.898424
-0.048475 -0.168244 0.897495
-0.046911 -0.168076 0.896603
-0.045349 -0.167906 0.895695
-0.043797 -0.167760 0.894915
-0.042247 -0.167611 0.894121
-0.040702 -0.167473 0.893386
-0.039168 -0.167376 0.892866
-0.037655 -0.167359 0.892775
-0.036135 -0.167309 0.892509
-0.034615 -0.167256 0.892228
-0.033096 -0.167199 0.891921
-0.031574 -0.167128 0.891542
-0.030046 -0.167010 0.890915
-0.028525 -0.166921 0.890441
-0.026994 -0.166766 0.889612
-0.025469 -0.166625 0.888863
-0.023953 -0.166533 0.888372
-0.022440 -0.166451 0.887930
-0.020929 -0.166373 0.887517
-0.019424 -0.166336 0.887321
-0.017920 -0.166298 0.887116
-0.016415 -0.166247 0.886843
-0.014922 -0.166312 0.887189
-0.013428 -0.166386 0.887585
-0.011932 -0.166448 0.887916
-0.010435 -0.166516 0.888279
-0.008936 -0.166561 0.888518
-0.007432 -0.166512 0.888259
-0.005930 -0.166511 0.888253
-0.004429 -0.166544 0.888429
-0.002927 -0.166548 0.888451
-0.001425 -0.166503 0.888211
0.000076 -0.166334 0.887310
0.001574 -0.166070 0.885900
0.003067 -0.165810 0.884515
0.004556 -0.165584 0.883309
0.006043 -0.165409 0.882371
0.007537 -0.165457 0.882632
0.009033 -0.165543 0.883087
0.010533 -0.165650 0.883660
0.012035 -0.165758 0.884235
0.013539 -0.165875 0.884861
0.015042 -0.165946 0.885237
0.016548 -0.166045 0.885768
0.018055 -0.166134 0.886240
0.019566 -0.166239 0.886802
0.021080 -0.166360 0.887444
0.022592 -0.166445 0.887902
0.024101 -0.166497 0.888177
0.025612 -0.166561 0.888520
0.027128 -0.166644 0.888963
0.028646 -0.166733 0.889435
0.030163 -0.166809 0.889843
0.031687 -0.166910 0.890383
0.033208 -0.166993 0.890824
0.034725 -0.167045 0.891098
0.036246 -0.167113 0.891465
0.037772 -0.167197 0.891913
0.039297 -0.167268 0.892290
0.040818 -0.167322 0.892578
0.042345 -0.167390 0.892942
0.043881 -0.167491 0.893481
0.045424 -0.167614 0.894138
0.046981 -0.167776 0.894998
0.048545 -0.167952 0.895941
0.050122 -0.168160 0.897047
0.051707 -0.168383 0.898239
0.053309 -0.168646 0.899643
0.054944 -0.168998 0.901516
0.056600 -0.169392 0.903621
0.058281 -0.169841 0.906013
0.059954 -0.170241 0.908152
0.061649 -0.170685 0.910516
0.063329 -0.171064 0.912540
0.065010 -0.171428 0.914481
0.066677 -0.171740 0.916148
0.068360 -0.172078 0.917949
0.070009 -0.172318 0.919228
0.071505 -0.172178 0.918484
0.074467 -0.164980 0.880085
0.075599 -0.164207 0.875961
0.077003 -0.164044 0.875090
0.078410 -0.163891 0.874277
0.079828 -0.163768 0.873621
0.081217 -0.163592 0.872682
0.082619 -0.163446 0.871902
0.084046 -0.163356 0.871424
0.085475 -0.163271 0.870969
0.086906 -0.163193 0.870553
0.088370 -0.163178 0.870475
0.089816 -0.163133 0.870230
0.091268 -0.163098 0.870045
0.092701 -0.163032 0.869695
0.094151 -0.162997 0.869509
0.095585 -0.162936 0.869179
0.097043 -0.162917 0.869080
0.098491 -0.162881 0.868887
0.099966 -0.162891 0.868942
0.101436 -0.162893 0.868951
0.102918 -0.162913 0.869060
0.104419 -0.162963 0.869327
0.105961 -0.163074 0.869915
0.107479 -0.163145 0.870299
0.109088 -0.164829 0.871401
0.109000 -0.163221 0.870702
-0.072555 -0.173510 0.934034
-0.070688 -0.172806 0.930246
-0.068805 -0.172030 0.926066
-0.066850 -0.171033 0.920699
-0.064922 -0.170061 0.915469
-0.063260 -0.169754 0.913817
-0.061607 -0.169456 0.912211
-0.059943 -0.169112 0.910360
-0.058286 -0.168772 0.908529
-0.056617 -0.168375 0.906391
-0.054945 -0.167947 0.904085
-0.053283 -0.167527 0.901827
-0.051670 -0.167241 0.900285
-0.050075 -0.166996 0.898971
-0.048510 -0.166841 0.898136
-0.046945 -0.166678 0.897256
-0.045378 -0.166492 0.896255
-0.043810 -0.166294 0.895188
-0.042255 -0.166127 0.894291
-0.040709 -0.165989 0.893549
-0.039183 -0.165926 0.893206
-0.037677 -0.165942 0.893297
-0.036164 -0.165927 0.893216
-0.034646 -0.165893 0.893030
-0.033123 -0.165824 0.892658
-0.031601 -0.165753 0.892280
-0.030071 -0.165636 0.891649
-0.028548 -0.165550 0.891183
-0.027022 -0.165430 0.890540
-0.025501 -0.165325 0.889973
-0.023983 -0.165236 0.889496
-0.022468 -0.165154 0.889050
-0.020955 -0.165072 0.888613
-0.019446 -0.165019 0.888326
-0.017939 -0.164964 0.888030
-0.016432 -0.164912 0.887749
-0.014937 -0.164976 0.888095
-0.013442 -0.165052 0.888502
-0.011945 -0.165115 0.888842
-0.010446 -0.165184 0.889215
-0.008945 -0.165229 0.889457
-0.007440 -0.165199 0.889293
-0.005937 -0.165199 0.889293
-0.004434 -0.165229 0.889457
-0.002931 -0.165232 0.889470
-0.001427 -0.165185 0.889218
0.000076 -0.165001 0.888228
0.001576 -0.164739 0.886817
0.003070 -0.164497 0.885514
0.004561 -0.164289 0.884397
0.006051 -0.164131 0.883543
0.007547 -0.164179 0.883804
0.009045 -0.164262 0.884248
0.010546 -0.164351 0.884733
0.012048 -0.164442 0.885221
0.013553 -0.164546 0.885778
0.015057 -0.164613 0.886142
0.016563 -0.164697 0.886590
0.018070 -0.164767 0.886969
0.019580 -0.164855 0.887444
0.021091 -0.164940 0.887902
0.022599 -0.164991 0.888177
0.024105 -0.165024 0.888351
0.025617 -0.165087 0.888691
0.027133 -0.165171 0.889146
0.028652 -0.165263 0.889638
0.030172 -0.165352 0.890116
0.031702 -0.165482 0.890819
0.033225 -0.165567 0.891276
0.034744 -0.165624 0.891585
0.036273 -0.165726 0.892131
0.037805 -0.165827 0.892675
0.039331 -0.165899 0.893062
0.040862 -0.165986 0.893532
0.042398 -0.166087 0.894077
0.043937 -0.166190 0.894628
0.045483 -0.166311 0.895280
0.047036 -0.166451 0.896034
0.048595 -0.166605 0.896866
0.050163 -0.166777 0.897787
0.051749 -0.166998 0.898978
0.053353 -0.167262 0.900398
0.054991 -0.167613 0.902290
0.056642 -0.167987 0.904305
0.058323 -0.168427 0.906671
0.059996 -0.168820 0.908786
0.061687 -0.169246 0.911081
0.063375 -0.169641 0.913207
0.065058 -0.170003 0.915158
0.066733 -0.170329 0.916913
0.068418 -0.170668 0.918735
0.070083 -0.170940 0.920200
0.071723 -0.171141 0.921284
0.074681 -0.163958 0.882617
0.075637 -0.162804 0.876400
0.077051 -0.162660 0.875629
0.078450 -0.162492 0.874724
0.079859 -0.162351 0.873962
0.081240 -0.162159 0.872929
0.082642 -0.162014 0.872151
0.084064 -0.161913 0.871606
0.085493 -0.161828 0.871149
0.086923 -0.161749 0.870721
0.088378 -0.161717 0.870553
0.089808 -0.161643 0.870150
0.091250 -0.161591 0.869870
0.092688 -0.161535 0.869573
0.094129 -0.161485 0.869302
0.095554 -0.161410 0.868900
0.097012 -0.161392 0.868801
0.098460 -0.161358 0.868617
0.099917 -0.161340 0.868519
0.101386 -0.161341 0.868525
0.102866 -0.161358 0.868620
0.104354 -0.161389 0.868786
0.105884 -0.161482 0.869283
0.107409 -0.161565 0.869733
0.108940 -0.161655 0.870219
0.110527 -0.163302 0.871134
0.110478 -0.161753 0.870746
-0.072548 -0.171909 0.933941
-0.070691 -0.171237 0.930285
-0.068814 -0.170481 0.926181
-0.066872 -0.169529 0.921006
-0.064951 -0.168582 0.915866
-0.063287 -0.168276 0.914203
-0.061626 -0.167962 0.912496
-0.059962 -0.167622 0.910646
-0.058305 -0.167286 0.908821
-0.056642 -0.166911 0.906783
-0.054964 -0.166472 0.904400
-0.053306 -0.166070 0.902218
-0.051697 -0.165800 0.900751
-0.050101 -0.165559 0.899439
-0.048535 -0.165406 0.898611
-0.046973 -0.165255 0.897787
-0.045404 -0.165067 0.896770
-0.043832 -0.164857 0.895625
-0.042275 -0.164692 0.894732
-0.040733 -0.164570 0.894070
-0.039210 -0.164525 0.893825
-0.037708 -0.164561 0.894019
-0.036197 -0.164565 0.894042
-0.034682 -0.164548 0.893948
-0.033154 -0.164465 0.893498
-0.031627 -0.164379 0.893032
-0.030096 -0.164264 0.892405
-0.028573 -0.164179 0.891941
-0.027048 -0.164078 0.891397
-0.025531 -0.164010 0.891023
-0.024012 -0.163926 0.890571
-0.022495 -0.163843 0.890118
-0.020979 -0.163758 0.889657
-0.019467 -0.163686 0.889267
-0.017956 -0.163617 0.888892
-0.016450 -0.163583 0.888707
-0.014953 -0.163646 0.889047
-0.013455 -0.163702 0.889354
-0.011956 -0.163761 0.889673
-0.010457 -0.163842 0.890115
-0.008955 -0.163889 0.890368
-0.007448 -0.163859 0.890207
-0.005943 -0.163859 0.890204
-0.004439 -0.163873 0.890280
-0.002933 -0.163843 0.890116
-0.001428 -0.163810 0.889939
0.000077 -0.163649 0.889063
0.001577 -0.163424 0.887841
0.003075 -0.163224 0.886753
0.004569 -0.163050 0.885811
0.006061 -0.162898 0.884981
0.007558 -0.162930 0.885157
0.009058 -0.162993 0.885501
0.010560 -0.163063 0.885880
0.012062 -0.163133 0.886262
0.013568 -0.163217 0.886718
0.015071 -0.163265 0.886979
0.016579 -0.163345 0.887410
0.018086 -0.163413 0.887780
0.019596 -0.163483 0.888160
0.021106 -0.163550 0.888523
0.022614 -0.163596 0.888779
0.024119 -0.163611 0.888859
0.025629 -0.163660 0.889124
0.027146 -0.163745 0.889583
0.028666 -0.163836 0.890078
0.030187 -0.163923 0.890554
0.031718 -0.164053 0.891261
0.033245 -0.164153 0.891803
0.034768 -0.164229 0.892213
0.036306 -0.164363 0.892944
0.037847 -0.164498 0.893677
0.039383 -0.164603 0.894249
0.040921 -0.164707 0.894813
0.042459 -0.164808 0.895358
0.043996 -0.164893 0.895822
0.045534 -0.164981 0.896299
0.047079 -0.165085 0.896865
0.048631 -0.165205 0.897515
0.050198 -0.165371 0.898419
0.051787 -0.165595 0.899635
0.053398 -0.165873 0.901148
0.055038 -0.166225 0.903060
0.056695 -0.166608 0.905138
0.058376 -0.167042 0.907497
0.060050 -0.167431 0.909612
0.061738 -0.167838 0.911821
0.063426 -0.168228 0.913939
0.065110 -0.168587 0.915889
0.066787 -0.168913 0.917659
0.068483 -0.169270 0.919602
0.070166 -0.169579 0.921283
0.071832 -0.169836 0.922678
0.072734 -0.169864 0.914408
0.072977 -0.168878 0.917471
0.074775 -0.162665 0.883719
0.075669 -0.161387 0.876776
0.077094 -0.161266 0.876117
0.078491 -0.161095 0.875188
0.079892 -0.160935 0.874321
0.081264 -0.160727 0.873187
0.082660 -0.160571 0.872339
0.084076 -0.160458 0.871726
0.085504 -0.160372 0.871258
0.086932 -0.160290 0.870816
0.088370 -0.160228 0.870481
0.089799 -0.160151 0.870060
0.091231 -0.160083 0.869691
0.092668 -0.160027 0.869386
0.094100 -0.159962 0.869034
0.095525 -0.159888 0.868631
0.096974 -0.159856 0.868459
0.098422 -0.159823 0.868279
0.099861 -0.159777 0.868028
0.101328 -0.159777 0.868028
0.102797 -0.159779 0.868040
0.104265 -0.159780 0.868045
0.105781 -0.159853 0.868441
0.107302 -0.159932 0.868873
0.108830 -0.160019 0.869341
0.110379 -0.160134 0.869968
0.112004 -0.161831 0.871164
0.111936 -0.160257 0.870638
-0.074485 -0.171149 0.938455
-0.072569 -0.170376 0.934216
-0.070698 -0.169675 0.930372
-0.068806 -0.168892 0.926075
-0.066885 -0.168001 0.921190
-0.064994 -0.167143 0.916487
-0.063316 -0.166802 0.914615
-0.061652 -0.166486 0.912881
-0.059991 -0.166158 0.911084
-0.058328 -0.165809 0.909171
-0.056664 -0.165439 0.907143
-0.054991 -0.165020 0.904847
-0.053342 -0.164653 0.902833
-0.051728 -0.164374 0.901305
-0.050132 -0.164138 0.900011
-0.048571 -0.164003 0.899269
-0.047007 -0.163850 0.898432
-0.045437 -0.163665 0.897418
-0.043867 -0.163470 0.896344
-0.042314 -0.163324 0.895546
-0.040775 -0.163223 0.894990
-0.039255 -0.163197 0.894847
-0.037752 -0.163237 0.895070
-0.036243 -0.163257 0.895180
-0.034729 -0.163254 0.895164
-0.033193 -0.163141 0.894540
-0.031660 -0.163035 0.893962
-0.030127 -0.162916 0.893306
-0.028599 -0.162815 0.892755
-0.027074 -0.162721 0.892237
-0.025560 -0.162687 0.892052
-0.024043 -0.162622 0.891696
-0.022524 -0.162539 0.891239
-0.021007 -0.162465 0.890836
-0.019491 -0.162380 0.890369
-0.017977 -0.162298 0.889922
-0.016471 -0.162280 0.889823
-0.014972 -0.162342 0.890161
-0.013470 -0.162381 0.890372
-0.011968 -0.162419 0.890582
-0.010466 -0.162480 0.890917
-0.008961 -0.162494 0.890993
-0.007453 -0.162448 0.890743
-0.005946 -0.162432 0.890657
-0.004441 -0.162445 0.890726
-0.002934 -0.162415 0.890559
-0.001429 -0.162384 0.890391
0.000077 -0.162258 0.889698
0.001579 -0.162074 0.888690
0.003078 -0.161914 0.887814
0.004575 -0.161777 0.887065
0.006070 -0.161658 0.886411
0.007570 -0.161690 0.886584
0.009072 -0.161738 0.886847
0.010574 -0.161786 0.887111
0.012076 -0.161820 0.887300
0.013581 -0.161867 0.887554
0.015084 -0.161897 0.887723
0.016592 -0.161974 0.888146
0.018100 -0.162027 0.888434
0.019610 -0.162096 0.888810
0.021121 -0.162160 0.889162
0.022628 -0.162190 0.889330
0.024132 -0.162190 0.889330
0.025645 -0.162253 0.889670
0.027163 -0.162337 0.890132
0.028684 -0.162427 0.890628
0.030206 -0.162514 0.891105
0.031740 -0.162656 0.891885
0.033271 -0.162772 0.892519
0.034803 -0.162879 0.893106
0.036347 -0.163032 0.893945
0.037894 -0.163183 0.894773
0.039432 -0.163288 0.895350
0.040971 -0.163391 0.895912
0.042508 -0.163476 0.896381
0.044042 -0.163546 0.896761
0.045577 -0.163613 0.897131
0.047117 -0.163696 0.897583
0.048660 -0.163782 0.898057
0.050224 -0.163933 0.898883
0.051819 -0.164172 0.900194
0.053437 -0.164466 0.901805
0.055078 -0.164816 0.903728
0.056737 -0.165197 0.905815
0.058420 -0.165626 0.908171
0.060095 -0.166013 0.910290
0.061778 -0.166401 0.912420
0.063468 -0.166789 0.914543
0.065158 -0.167158 0.916569
0.066843 -0.167498 0.918432
0.068542 -0.167855 0.920390
0.070241 -0.168199 0.922276
0.071925 -0.168491 0.923875
0.073273 -0.168001 0.921193
0.076062 -0.160731 0.881326
0.077289 -0.160185 0.878336
0.078518 -0.159665 0.875480
0.079911 -0.159492 0.874533
0.081275 -0.159267 0.873298
0.082669 -0.159110 0.872438
0.084077 -0.158983 0.871742
0.085506 -0.158899 0.871280
0.086933 -0.158816 0.870827
0.088362 -0.158738 0.870400
0.089781 -0.158645 0.869890
0.091204 -0.158562 0.869433
0.092624 -0.158477 0.868971
0.094038 -0.158385 0.868464
0.095462 -0.158312 0.868061
0.096909 -0.158277 0.867873
0.098355 -0.158243 0.867687
0.099801 -0.158211 0.867509
0.101277 -0.158225 0.867586
0.102745 -0.158228 0.867601
0.104213 -0.158229 0.867608
0.105717 -0.158285 0.867917
0.107236 -0.158362 0.868337
0.108762 -0.158446 0.868799
0.110312 -0.158563 0.869440
0.111882 -0.158705 0.870216
0.113443 -0.160307 0.870907
0.113413 -0.158788 0.870675
-0.074386 -0.169333 0.937205
-0.072544 -0.168735 0.933898
-0.070703 -0.168111 0.930439
-0.068826 -0.167371 0.926346
-0.066942 -0.166581 0.921975
-0.065090 -0.165832 0.917830
-0.063389 -0.165442 0.915673
-0.061710 -0.165092 0.913736
-0.060033 -0.164729 0.911723
-0.058351 -0.164333 0.909532
-0.056681 -0.163949 0.907406
-0.055007 -0.163535 0.905118
-0.053369 -0.163205 0.903289
-0.051761 -0.162948 0.901868
-0.050170 -0.162734 0.900683
-0.048603 -0.162585 0.899859
-0.047042 -0.162448 0.899100
-0.045474 -0.162279 0.898162
-0.043910 -0.162108 0.897217
-0.042365 -0.161999 0.896615
-0.040835 -0.161947 0.896327
-0.039318 -0.161938 0.896276
-0.037809 -0.161964 0.896419
-0.036294 -0.161967 0.896435
-0.034774 -0.161946 0.896321
-0.033231 -0.161811 0.895576
-0.031693 -0.161689 0.894899
-0.030155 -0.161550 0.894131
-0.028622 -0.161432 0.893478
-0.027095 -0.161336 0.892946
-0.025581 -0.161304 0.892770
-0.024062 -0.161243 0.892428
-0.022544 -0.161176 0.892058
-0.021029 -0.161119 0.891743
-0.019511 -0.161035 0.891278
-0.017995 -0.160954 0.890832
-0.016486 -0.160922 0.890655
-0.014983 -0.160953 0.890827
-0.013479 -0.160974 0.890941
-0.011974 -0.160996 0.891061
-0.010470 -0.161024 0.891218
-0.008963 -0.161020 0.891194
-0.007455 -0.160987 0.891014
-0.005947 -0.160954 0.890831
-0.004441 -0.160952 0.890818
-0.002935 -0.160935 0.890728
-0.001429 -0.160921 0.890647
0.000077 -0.160843 0.890214
0.001580 -0.160712 0.889492
0.003082 -0.160604 0.888892
0.004582 -0.160502 0.888331
0.006081 -0.160426 0.887906
0.007583 -0.160444 0.888009
0.009086 -0.160492 0.888273
0.010589 -0.160509 0.888368
0.012091 -0.160509 0.888369
0.013594 -0.160521 0.888434
0.015097 -0.160535 0.888512
0.016604 -0.160585 0.888789
0.018113 -0.160639 0.889089
0.019625 -0.160708 0.889470
0.021135 -0.160757 0.889740
0.022643 -0.160788 0.889912
0.024150 -0.160804 0.889999
0.025665 -0.160867 0.890346
0.027186 -0.160964 0.890889
0.028711 -0.161067 0.891456
0.030234 -0.161155 0.891945
0.031767 -0.161283 0.892650
0.033303 -0.161412 0.893368
0.034836 -0.161518 0.893954
0.036382 -0.161673 0.894811
0.037931 -0.161825 0.895649
0.039470 -0.161928 0.896223
0.041010 -0.162028 0.896774
0.042548 -0.162111 0.897233
0.044075 -0.162147 0.897433
0.045605 -0.162195 0.897698
0.047146 -0.162273 0.898130
0.048684 -0.162341 0.898507
0.050246 -0.162479 0.899272
0.051846 -0.162730 0.900661
0.053465 -0.163024 0.902288
0.055108 -0.163371 0.904208
0.056774 -0.163767 0.906402
0.058459 -0.164196 0.908773
0.060136 -0.164583 0.910913
0.061815 -0.164952 0.912958
0.063498 -0.165317 0.914981
0.065188 -0.165680 0.916988
0.066880 -0.166033 0.918944
0.068588 -0.166408 0.921015
0.070311 -0.166800 0.923187
0.072011 -0.167124 0.924980
0.073540 -0.167046 0.924545
0.076338 -0.159814 0.884523
0.077327 -0.158775 0.878770
0.078529 -0.158204 0.875609
0.079927 -0.158041 0.874709
0.081283 -0.157803 0.873388
0.082684 -0.157658 0.872589
0.084084 -0.157517 0.871810
0.085512 -0.157433 0.871345
0.086941 -0.157353 0.870900
0.088361 -0.157261 0.870389
0.089771 -0.157153 0.869792
0.091184 -0.157054 0.869245
0.092596 -0.156956 0.868705
0.094000 -0.156849 0.868112
0.095421 -0.156773 0.867690
0.096858 -0.156724 0.867419
0.098302 -0.156687 0.867217
0.099747 -0.156655 0.867036
0.101222 -0.156670 0.867119
0.102691 -0.156674 0.867140
0.104159 -0.156677 0.867157
0.105652 -0.156718 0.867386
0.107170 -0.156793 0.867799
0.108705 -0.156892 0.868346
0.110266 -0.157023 0.869076
0.111849 -0.157184 0.869963
0.113401 -0.157297 0.870589
-0.076025 -0.167864 0.937876
-0.074319 -0.167595 0.936370
-0.072540 -0.167143 0.933847
-0.070713 -0.166558 0.930577
-0.068843 -0.165843 0.926585
-0.067000 -0.165159 0.922762
-0.065187 -0.164522 0.919201
-0.063471 -0.164103 0.916863
-0.061777 -0.163722 0.914731
-0.060084 -0.163323 0.912506
-0.058393 -0.162909 0.910193
-0.056715 -0.162510 0.907963
-0.055041 -0.162100 0.905673
-0.053413 -0.161806 0.904030
-0.051814 -0.161586 0.902798
-0.050232 -0.161408 0.901804
-0.048672 -0.161289 0.901140
-0.047114 -0.161170 0.900476
-0.045549 -0.161019 0.899633
-0.043983 -0.160855 0.898713
-0.042436 -0.160752 0.898139
-0.040906 -0.160703 0.897866
-0.039385 -0.160692 0.897804
-0.037869 -0.160699 0.897840
-0.036347 -0.160681 0.897743
-0.034821 -0.160643 0.897527
-0.033270 -0.160478 0.896611
-0.031723 -0.160325 0.895751
-0.030180 -0.160167 0.894870
-0.028642 -0.160032 0.894117
-0.027112 -0.159919 0.893483
-0.025596 -0.159885 0.893294
-0.024076 -0.159823 0.892948
-0.022558 -0.159759 0.892590
-0.021044 -0.159722 0.892385
-0.019527 -0.159655 0.892008
-0.018012 -0.159591 0.891652
-0.016501 -0.159556 0.891454
-0.014994 -0.159554 0.891447
-0.013487 -0.159559 0.891474
-0.011979 -0.159549 0.891419
-0.010473 -0.159563 0.891497
-0.008965 -0.159542 0.891379
-0.007457 -0.159521 0.891263
-0.005948 -0.159474 0.891001
-0.004442 -0.159472 0.890988
-0.002935 -0.159441 0.890816
-0.001429 -0.159440 0.890810
0.000077 -0.159379 0.890469
0.001581 -0.159298 0.890015
0.003084 -0.159224 0.889604
0.004586 -0.159154 0.889213
0.006088 -0.159107 0.888947
0.007591 -0.159126 0.889053
0.009096 -0.159161 0.889248
0.010600 -0.159165 0.889271
0.012103 -0.159161 0.889248
0.013606 -0.159156 0.889221
0.015109 -0.159156 0.889221
0.016616 -0.159192 0.889425
0.018126 -0.159248 0.889735
0.019637 -0.159300 0.890026
0.021148 -0.159348 0.890295
0.022660 -0.159395 0.890558
0.024170 -0.159429 0.890746
0.025689 -0.159508 0.891190
0.027215 -0.159622 0.891824
0.028741 -0.159726 0.892404
0.030266 -0.159812 0.892888
0.031801 -0.159938 0.893592
0.033338 -0.160068 0.894317
0.034874 -0.160175 0.894915
0.036418 -0.160314 0.895690
0.037964 -0.160446 0.896432
0.039503 -0.160544 0.896978
0.041044 -0.160641 0.897518
0.042583 -0.160724 0.897980
0.044112 -0.160761 0.898190
0.045643 -0.160805 0.898437
0.047179 -0.160865 0.898772
0.048710 -0.160901 0.898971
0.050267 -0.161022 0.899647
0.051863 -0.161255 0.900948
0.053482 -0.161546 0.902573
0.055125 -0.161890 0.904498
0.056803 -0.162316 0.906876
0.058490 -0.162743 0.909266
0.060181 -0.163159 0.911587
0.061866 -0.163540 0.913717
0.063551 -0.163901 0.915734
0.065242 -0.164261 0.917746
0.066942 -0.164628 0.919792
0.068653 -0.165001 0.921880
0.070378 -0.165394 0.924073
0.072088 -0.165733 0.925966
0.073777 -0.166012 0.927530
0.074648 -0.166034 0.918945
0.075073 -0.165411 0.924172
0.075836 -0.163687 0.914537
0.076623 -0.158907 0.887832
0.077353 -0.157339 0.879070
0.078542 -0.156744 0.875746
0.079934 -0.156571 0.874782
0.081290 -0.156335 0.873461
0.082690 -0.156190 0.872653
0.084081 -0.156035 0.871785
0.085511 -0.155954 0.871331
0.086940 -0.155875 0.870892
0.088353 -0.155770 0.870306
0.089761 -0.155662 0.869700
0.091165 -0.155548 0.869064
0.092566 -0.155434 0.868428
0.093952 -0.155297 0.867663
0.095369 -0.155217 0.867214
0.096795 -0.155153 0.866859
0.098240 -0.155120 0.866673
0.099686 -0.155091 0.866509
0.101170 -0.155120 0.866671
0.102638 -0.155123 0.866692
0.104105 -0.155127 0.866710
0.105599 -0.155169 0.866944
0.107106 -0.155229 0.867282
0.108641 -0.155328 0.867832
0.110201 -0.155459 0.868565
0.111794 -0.155632 0.869532
0.113356 -0.155758 0.870236
0.114933 -0.157379 0.871045
0.114906 -0.155865 0.870837
-0.074242 -0.165834 0.935390
-0.072493 -0.165451 0.933229
-0.070672 -0.164883 0.930029
-0.068831 -0.164242 0.926411
-0.067032 -0.163675 0.923214
-0.065266 -0.163162 0.920322
-0.063556 -0.162765 0.918083
-0.061859 -0.162385 0.915937
-0.060162 -0.161986 0.913686
-0.058456 -0.161539 0.911167
-0.056770 -0.161126 0.908836
-0.055093 -0.160717 0.906529
-0.053464 -0.160428 0.904900
-0.051860 -0.160196 0.903593
-0.050286 -0.160051 0.902770
-0.048725 -0.159936 0.902124
-0.047170 -0.159834 0.901550
-0.045616 -0.159730 0.900965
-0.044061 -0.159616 0.900318
-0.042517 -0.159533 0.899848
-0.040987 -0.159498 0.899651
-0.039458 -0.159467 0.899478
-0.037927 -0.159421 0.899219
-0.036395 -0.159371 0.898935
-0.034860 -0.159299 0.898529
-0.033304 -0.159121 0.897528
-0.031756 -0.158969 0.896670
-0.030208 -0.158800 0.895717
-0.028667 -0.158650 0.894868
-0.027129 -0.158503 0.894040
-0.025606 -0.158435 0.893656
-0.024083 -0.158356 0.893212
-0.022565 -0.158294 0.892860
-0.021051 -0.158261 0.892678
-0.019536 -0.158213 0.892407
-0.018021 -0.158164 0.892130
-0.016509 -0.158127 0.891921
-0.015000 -0.158107 0.891809
-0.013492 -0.158107 0.891809
-0.011983 -0.158096 0.891743
-0.010477 -0.158112 0.891833
-0.008968 -0.158093 0.891728
-0.007461 -0.158089 0.891705
-0.005951 -0.158042 0.891440
-0.004444 -0.158040 0.891429
-0.002937 -0.158009 0.891255
-0.001430 -0.158007 0.891245
0.000077 -0.157947 0.890907
0.001582 -0.157883 0.890545
0.003086 -0.157815 0.890160
0.004589 -0.157746 0.889772
0.006092 -0.157700 0.889510
0.007596 -0.157717 0.889610
0.009101 -0.157740 0.889735
0.010606 -0.157743 0.889752
0.012110 -0.157740 0.889735
0.013613 -0.157733 0.889700
0.015117 -0.157733 0.889700
0.016625 -0.157769 0.889903
0.018137 -0.157836 0.890276
0.019650 -0.157900 0.890641
0.021164 -0.157963 0.890995
0.022682 -0.158041 0.891434
0.024199 -0.158107 0.891809
0.025721 -0.158192 0.892290
0.027249 -0.158307 0.892936
0.028777 -0.158408 0.893505
0.030301 -0.158479 0.893908
0.031834 -0.158591 0.894535
0.033373 -0.158718 0.895255
0.034910 -0.158823 0.895843
0.036452 -0.158943 0.896523
0.037998 -0.159071 0.897245
0.039538 -0.159165 0.897777
0.041077 -0.159247 0.898237
0.042614 -0.159316 0.898627
0.044144 -0.159354 0.898840
0.045672 -0.159385 0.899016
0.047205 -0.159428 0.899256
0.048736 -0.159462 0.899452
0.050297 -0.159593 0.900189
0.051894 -0.159823 0.901486
0.053519 -0.160125 0.903190
0.055163 -0.160467 0.905121
0.056848 -0.160905 0.907589
0.058531 -0.161315 0.909904
0.060223 -0.161727 0.912226
0.061904 -0.162090 0.914275
0.063589 -0.162447 0.916289
0.065282 -0.162806 0.918310
0.066991 -0.163187 0.920462
0.068711 -0.163578 0.922669
0.070445 -0.163983 0.924954
0.072171 -0.164353 0.927037
0.073879 -0.164667 0.928807
0.075359 -0.164470 0.927698
0.077381 -0.155905 0.879387
0.078564 -0.155305 0.876001
0.079949 -0.155118 0.874945
0.081304 -0.154882 0.873619
0.082698 -0.154726 0.872734
0.084089 -0.154572 0.871868
0.085520 -0.154494 0.871428
0.086949 -0.154415 0.870983
0.088353 -0.154297 0.870315
0.089761 -0.154187 0.869694
0.091147 -0.154044 0.868892
0.092522 -0.153888 0.868010
0.093885 -0.153718 0.867051
0.095292 -0.153622 0.866510
0.096700 -0.153532 0.866001
0.098136 -0.153489 0.865760
0.099600 -0.153490 0.865763
0.101093 -0.153534 0.866012
0.102569 -0.153551 0.866112
0.104044 -0.153567 0.866202
0.105547 -0.153623 0.866518
0.107043 -0.153669 0.866775
0.108576 -0.153765 0.867315
0.110134 -0.153893 0.868036
0.111715 -0.154050 0.868921
0.113276 -0.154174 0.869624
0.114835 -0.154294 0.870300
0.116413 -0.155912 0.871098
0.116341 -0.154341 0.870562
-0.075925 -0.164469 0.936650
-0.074181 -0.164115 0.934629
-0.072449 -0.163770 0.932670
-0.070648 -0.163253 0.929724
-0.068839 -0.162690 0.926518
-0.067078 -0.162221 0.923848
-0.065350 -0.161809 0.921502
-0.063644 -0.161434 0.919362
-0.061945 -0.161056 0.917211
-0.060240 -0.160646 0.914878
-0.058526 -0.160186 0.912257
-0.056837 -0.159773 0.909907
-0.055163 -0.159383 0.907683
-0.053537 -0.159110 0.906131
-0.051936 -0.158898 0.904919
-0.050370 -0.158783 0.904268
-0.048806 -0.158671 0.903631
-0.047249 -0.158571 0.903060
-0.045698 -0.158486 0.902574
-0.044140 -0.158372 0.901928
-0.042589 -0.158275 0.901375
-0.041048 -0.158207 0.900985
-0.039508 -0.158140 0.900607
-0.037963 -0.158045 0.900063
-0.036425 -0.157977 0.899675
-0.034885 -0.157891 0.899188
-0.033334 -0.157745 0.898355
-0.031789 -0.157612 0.897596
-0.030242 -0.157461 0.896735
-0.028697 -0.157297 0.895805
-0.027154 -0.157136 0.894884
-0.025625 -0.157033 0.894299
-0.024100 -0.156950 0.893827
-0.022578 -0.156873 0.893392
-0.021065 -0.156856 0.893291
-0.019550 -0.156811 0.893034
-0.018034 -0.156764 0.892766
-0.016520 -0.156714 0.892485
-0.015008 -0.156677 0.892273
-0.013497 -0.156658 0.892165
-0.011988 -0.156644 0.892085
-0.010480 -0.156647 0.892102
-0.008971 -0.156632 0.892015
-0.007464 -0.156646 0.892097
-0.005954 -0.156600 0.891836
-0.004446 -0.156600 0.891837
-0.002938 -0.156582 0.891733
-0.001431 -0.156580 0.891721
0.000077 -0.156535 0.891461
0.001583 -0.156487 0.891189
0.003089 -0.156422 0.890818
0.004593 -0.156356 0.890443
0.006097 -0.156323 0.890256
0.007603 -0.156339 0.890347
0.009109 -0.156359 0.890464
0.010615 -0.156363 0.890482
0.012120 -0.156359 0.890464
0.013623 -0.156340 0.890352
0.015128 -0.156339 0.890346
0.016636 -0.156358 0.890454
0.018148 -0.156422 0.890820
0.019662 -0.156485 0.891180
0.021179 -0.156562 0.891618
0.022698 -0.156644 0.892082
0.024220 -0.156730 0.892573
0.025745 -0.156830 0.893142
0.027277 -0.156958 0.893872
0.028807 -0.157058 0.894442
0.030332 -0.157126 0.894827
0.031867 -0.157235 0.895449
0.033404 -0.157346 0.896081
0.034939 -0.157433 0.896581
0.036474 -0.157519 0.897066
0.038017 -0.157628 0.897687
0.039554 -0.157707 0.898139
0.041094 -0.157790 0.898611
0.042633 -0.157862 0.899022
0.044171 -0.157928 0.899399
0.045705 -0.157975 0.899668
0.047240 -0.158020 0.899920
0.048776 -0.158068 0.900195
0.050343 -0.158211 0.901009
0.051936 -0.158425 0.902227
0.053558 -0.158710 0.903853
0.055203 -0.159048 0.905777
0.056884 -0.159466 0.908156
0.058562 -0.159857 0.910384
0.060255 -0.160266 0.912709
0.061936 -0.160624 0.914752
0.063629 -0.160995 0.916861
0.065330 -0.161368 0.918991
0.067042 -0.161749 0.921159
0.068764 -0.162139 0.923377
0.070506 -0.162556 0.925753
0.072248 -0.162955 0.928027
0.073975 -0.163304 0.930016
0.075669 -0.163568 0.931519
0.077620 -0.154890 0.882099
0.078565 -0.153821 0.876006
0.079952 -0.153641 0.874983
0.081314 -0.153421 0.873728
0.082715 -0.153278 0.872915
0.084108 -0.153129 0.872065
0.085539 -0.153050 0.871620
0.086968 -0.152973 0.871178
0.088371 -0.152852 0.870489
0.089769 -0.152727 0.869778
0.091138 -0.152557 0.868809
0.092503 -0.152386 0.867835
0.093847 -0.152186 0.866699
0.095242 -0.152074 0.866058
0.096639 -0.151968 0.865456
0.098076 -0.151928 0.865226
0.099549 -0.151944 0.865321
0.101052 -0.152004 0.865657
0.102537 -0.152036 0.865845
0.104022 -0.152068 0.866022
0.105525 -0.152123 0.866340
0.107011 -0.152153 0.866509
0.108540 -0.152243 0.867022
0.110085 -0.152353 0.867646
0.111644 -0.152480 0.868369
0.113204 -0.152604 0.869076
0.114765 -0.152726 0.869770
0.116273 -0.152775 0.870051
-0.075839 -0.162697 0.935590
-0.074104 -0.162360 0.933651
-0.072387 -0.162050 0.931866
-0.070628 -0.161631 0.929458
-0.068860 -0.161170 0.926808
-0.067128 -0.160774 0.924529
-0.065412 -0.160399 0.922377
-0.063718 -0.160060 0.920425
-0.062023 -0.159703 0.918372
-0.060323 -0.159312 0.916126
-0.058612 -0.158874 0.913607
-0.056927 -0.158481 0.911344
-0.055250 -0.158093 0.909114
-0.053622 -0.157824 0.907564
-0.052022 -0.157626 0.906428
-0.050458 -0.157528 0.905865
-0.048893 -0.157419 0.905239
-0.047338 -0.157336 0.904759
-0.045788 -0.157266 0.904355
-0.044227 -0.157151 0.903697
-0.042665 -0.157026 0.902980
-0.041112 -0.156924 0.902393
-0.039557 -0.156807 0.901720
-0.037997 -0.156662 0.900885
-0.036451 -0.156562 0.900311
-0.034907 -0.156465 0.899751
-0.033362 -0.156353 0.899109
-0.031822 -0.156253 0.898530
-0.030278 -0.156122 0.897780
-0.028730 -0.155961 0.896855
-0.027188 -0.155812 0.895998
-0.025651 -0.155680 0.895235
-0.024120 -0.155565 0.894577
-0.022596 -0.155485 0.894117
-0.021080 -0.155452 0.893927
-0.019563 -0.155407 0.893670
-0.018049 -0.155376 0.893489
-0.016533 -0.155329 0.893217
-0.015019 -0.155279 0.892932
-0.013507 -0.155259 0.892817
-0.011996 -0.155228 0.892640
-0.010486 -0.155217 0.892573
-0.008976 -0.155203 0.892495
-0.007468 -0.155217 0.892575
-0.005957 -0.155174 0.892328
-0.004449 -0.155173 0.892323
-0.002940 -0.155157 0.892230
-0.001432 -0.155170 0.892303
0.000077 -0.155140 0.892131
0.001585 -0.155108 0.891950
0.003091 -0.155057 0.891655
0.004597 -0.155006 0.891359
0.006103 -0.154972 0.891166
0.007610 -0.154973 0.891172
0.009117 -0.154991 0.891277
0.010624 -0.154994 0.891292
0.012131 -0.154991 0.891277
0.013636 -0.154972 0.891165
0.015142 -0.154970 0.891156
0.016649 -0.154973 0.891174
0.018163 -0.155036 0.891537
0.019678 -0.155101 0.891906
0.021197 -0.155183 0.892377
0.022722 -0.155294 0.893019
0.024250 -0.155409 0.893677
0.025777 -0.155510 0.894259
0.027311 -0.155636 0.894984
0.028842 -0.155731 0.895529
0.030366 -0.155782 0.895821
0.031896 -0.155861 0.896277
0.033432 -0.155954 0.896815
0.034960 -0.156009 0.897131
0.036489 -0.156061 0.897427
0.038028 -0.156153 0.897957
0.039566 -0.156233 0.898415
0.041104 -0.156304 0.898828
0.042651 -0.156403 0.899397
0.044198 -0.156499 0.899948
0.045738 -0.156562 0.900312
0.047283 -0.156639 0.900754
0.048836 -0.156735 0.901303
0.050407 -0.156881 0.902146
0.052003 -0.157096 0.903380
0.053626 -0.157379 0.905006
0.055263 -0.157682 0.906752
0.056938 -0.158079 0.909031
0.058617 -0.158463 0.911240
0.060311 -0.158868 0.913568
0.061995 -0.159224 0.915618
0.063696 -0.159608 0.917826
0.065400 -0.159980 0.919966
0.067114 -0.160360 0.922150
0.068837 -0.160744 0.924361
0.070581 -0.161158 0.926738
0.072340 -0.161587 0.929206
0.074081 -0.161958 0.931342
0.075783 -0.162232 0.932917
0.076698 -0.162411 0.924927
0.076979 -0.161433 0.928320
0.077484 -0.153126 0.880553
0.078555 -0.152317 0.875898
0.079940 -0.152136 0.874855
0.081313 -0.151937 0.873711
0.082726 -0.151818 0.873031
0.084135 -0.151698 0.872339
0.085567 -0.151624 0.871911
0.086997 -0.151545 0.871462
0.088389 -0.151407 0.870668
0.089770 -0.151254 0.869787
0.091121 -0.151056 0.868649
0.092477 -0.150872 0.867586
0.093810 -0.150658 0.866360
0.095194 -0.150530 0.865623
0.096589 -0.150424 0.865013
0.098023 -0.150381 0.864764
0.099496 -0.150397 0.864858
0.100990 -0.150444 0.865129
0.102477 -0.150480 0.865335
0.103962 -0.150513 0.865524
0.105465 -0.150569 0.865846
0.106949 -0.150598 0.866012
0.108476 -0.150685 0.866512
0.110018 -0.150790 0.867120
0.111575 -0.150914 0.867831
0.113135 -0.151038 0.868544
0.114696 -0.151160 0.869245
0.116216 -0.151226 0.869623
0.117746 -0.152778 0.870066
0.117712 -0.151259 0.869813
-0.074090 -0.160747 0.933475
-0.072380 -0.160456 0.931784
-0.070628 -0.160053 0.929447
-0.068882 -0.159650 0.927103
-0.067163 -0.159290 0.925012
-0.065454 -0.158937 0.922967
-0.063765 -0.158617 0.921107
-0.062082 -0.158296 0.919243
-0.060392 -0.157942 0.917185
-0.058698 -0.157556 0.914943
-0.057017 -0.157185 0.912788
-0.055344 -0.156819 0.910662
-0.053713 -0.156551 0.909109
-0.052111 -0.156354 0.907965
-0.050540 -0.156243 0.907322
-0.048976 -0.156150 0.906778
-0.047419 -0.156068 0.906303
-0.045865 -0.155996 0.905886
-0.044302 -0.155883 0.905230
-0.042736 -0.155755 0.904485
-0.041168 -0.155608 0.903632
-0.039602 -0.155456 0.902752
-0.038032 -0.155275 0.901699
-0.036477 -0.155144 0.900940
-0.034925 -0.155020 0.900220
-0.033384 -0.154928 0.899683
-0.031846 -0.154848 0.899220
-0.030307 -0.154751 0.898655
-0.028764 -0.154621 0.897899
-0.027223 -0.154490 0.897141
-0.025684 -0.154357 0.896368
-0.024151 -0.154243 0.895704
-0.022620 -0.154133 0.895067
-0.021100 -0.154083 0.894779
-0.019582 -0.154035 0.894500
-0.018067 -0.154019 0.894407
-0.016551 -0.153974 0.894142
-0.015036 -0.153941 0.893950
-0.013521 -0.153907 0.893756
-0.012007 -0.153862 0.893492
-0.010494 -0.153817 0.893231
-0.008982 -0.153786 0.893050
-0.007472 -0.153796 0.893112
-0.005961 -0.153755 0.892870
-0.004452 -0.153769 0.892951
-0.002942 -0.153769 0.892953
-0.001433 -0.153784 0.893037
0.000077 -0.153756 0.892877
0.001586 -0.153754 0.892865
0.003095 -0.153706 0.892587
0.004602 -0.153656 0.892295
0.006110 -0.153634 0.892166
0.007617 -0.153619 0.892084
0.009125 -0.153610 0.892031
0.010633 -0.153612 0.892040
0.012141 -0.153609 0.892022
0.013646 -0.153575 0.891824
0.015155 -0.153587 0.891894
0.016664 -0.153604 0.891994
0.018180 -0.153670 0.892377
0.019697 -0.153736 0.892764
0.021221 -0.153845 0.893397
0.022748 -0.153958 0.894049
0.024278 -0.154073 0.894720
0.025807 -0.154171 0.895289
0.027340 -0.154280 0.895920
0.028866 -0.154344 0.896292
0.030389 -0.154379 0.896498
0.031917 -0.154441 0.896855
0.033450 -0.154518 0.897305
0.034978 -0.154569 0.897599
0.036507 -0.154618 0.897883
0.038047 -0.154709 0.898409
0.039586 -0.154787 0.898867
0.041125 -0.154858 0.899277
0.042672 -0.154957 0.899850
0.044225 -0.155068 0.900493
0.045771 -0.155148 0.900959
0.047329 -0.155261 0.901615
0.048894 -0.155392 0.902376
0.050478 -0.155571 0.903419
0.052082 -0.155801 0.904754
0.053708 -0.156081 0.906379
0.055340 -0.156362 0.908011
0.057011 -0.156736 0.910182
0.058692 -0.157117 0.912394
0.060383 -0.157505 0.914646
0.062075 -0.157875 0.916799
0.063779 -0.158258 0.919022
0.065478 -0.158610 0.921066
0.067187 -0.158970 0.923156
0.068911 -0.159348 0.925350
0.070650 -0.159742 0.927639
0.072425 -0.160201 0.930306
0.074186 -0.160607 0.932663
0.075911 -0.160923 0.934497
0.077152 -0.160218 0.930405
0.077889 -0.158517 0.920523
0.077902 -0.152451 0.885300
0.078564 -0.150849 0.875998
0.079938 -0.150648 0.874827
0.081320 -0.150469 0.873787
0.082728 -0.150343 0.873058
0.084144 -0.150236 0.872435
0.085569 -0.150149 0.871929
0.086998 -0.150071 0.871476
0.088375 -0.149907 0.870528
0.089754 -0.149752 0.869627
0.091103 -0.149553 0.868471
0.092457 -0.149369 0.867403
0.093783 -0.149147 0.866110
0.095167 -0.149020 0.865376
0.096560 -0.148912 0.864749
0.097983 -0.148853 0.864407
0.099446 -0.148855 0.864419
0.100938 -0.148901 0.864684
0.102424 -0.148936 0.864890
0.103909 -0.148969 0.865078
0.105402 -0.149012 0.865329
0.106886 -0.149041 0.865497
0.108402 -0.149114 0.865923
0.109933 -0.149206 0.866455
0.111479 -0.149314 0.867083
0.113046 -0.149448 0.867860
0.114605 -0.149568 0.868558
0.116135 -0.149647 0.869018
0.117663 -0.149722 0.869453
-0.072337 -0.158781 0.931222
-0.070621 -0.158463 0.929361
-0.068912 -0.158147 0.927508
-0.067198 -0.157805 0.925501
-0.065495 -0.157471 0.923539
-0.063811 -0.157170 0.921774
-0.062140 -0.156885 0.920104
-0.060463 -0.156569 0.918253
-0.058785 -0.156237 0.916302
-0.057114 -0.155902 0.914343
-0.055445 -0.155557 0.912315
-0.053810 -0.155290 0.910753
-0.052205 -0.155094 0.909602
-0.050625 -0.154968 0.908859
-0.049055 -0.154860 0.908231
-0.047495 -0.154779 0.907755
-0.045938 -0.154707 0.907330
-0.044376 -0.154609 0.906755
-0.042808 -0.154482 0.906012
-0.041230 -0.154308 0.904989
-0.039652 -0.154121 0.903893
-0.038071 -0.153906 0.902632
-0.036506 -0.153740 0.901662
-0.034950 -0.153603 0.900854
-0.033414 -0.153543 0.900504
-0.031879 -0.153480 0.900136
-0.030341 -0.153401 0.899672
-0.028800 -0.153290 0.899018
-0.027259 -0.153176 0.898350
-0.025719 -0.153048 0.897603
-0.024186 -0.152951 0.897031
-0.022653 -0.152839 0.896378
-0.021129 -0.152774 0.895995
-0.019606 -0.152711 0.895624
-0.018088 -0.152679 0.895437
-0.016570 -0.152634 0.895177
-0.015055 -0.152618 0.895081
-0.013539 -0.152586 0.894892
-0.012022 -0.152539 0.894618
-0.010505 -0.152475 0.894242
-0.008991 -0.152423 0.893937
-0.007478 -0.152403 0.893817
-0.005966 -0.152360 0.893565
-0.004455 -0.152376 0.893659
-0.002945 -0.152406 0.893834
-0.001434 -0.152437 0.894019
0.000077 -0.152427 0.893958
0.001588 -0.152428 0.893967
0.003099 -0.152380 0.893683
0.004607 -0.152316 0.893309
0.006116 -0.152283 0.893112
0.007625 -0.152267 0.893024
0.009134 -0.152256 0.892956
0.010644 -0.152257 0.892960
0.012153 -0.152253 0.892941
0.013660 -0.152221 0.892750
0.015170 -0.152234 0.892829
0.016682 -0.152252 0.892936
0.018199 -0.152317 0.893314
0.019718 -0.152383 0.893701
0.021244 -0.152493 0.894344
0.022773 -0.152603 0.894993
0.024303 -0.152716 0.895656
0.025832 -0.152800 0.896150
0.027363 -0.152893 0.896690
0.028888 -0.152939 0.896962
0.030411 -0.152971 0.897148
0.031937 -0.153017 0.897418
0.033471 -0.153094 0.897869
0.035000 -0.153143 0.898161
0.036530 -0.153193 0.898450
0.038067 -0.153266 0.898882
0.039603 -0.153329 0.899251
0.041142 -0.153397 0.899646
0.042690 -0.153494 0.900220
0.044248 -0.153620 0.900959
0.045805 -0.153735 0.901631
0.047379 -0.153896 0.902573
0.048962 -0.154075 0.903623
0.050559 -0.154289 0.904878
0.052171 -0.154531 0.906301
0.053798 -0.154805 0.907909
0.055427 -0.155068 0.909448
0.057084 -0.155393 0.911354
0.058772 -0.155784 0.913645
0.060467 -0.156172 0.915922
0.062158 -0.156530 0.918024
0.063870 -0.156924 0.920336
0.065576 -0.157285 0.922449
0.067266 -0.157591 0.924247
0.068978 -0.157933 0.926249
0.070725 -0.158337 0.928621
0.072504 -0.158796 0.931315
0.074283 -0.159234 0.933880
0.076043 -0.159615 0.936114
0.077574 -0.159509 0.935495
0.078982 -0.150159 0.880659
0.081312 -0.148973 0.873705
0.082730 -0.148866 0.873076
0.084151 -0.148769 0.872503
0.085576 -0.148682 0.871995
0.087004 -0.148604 0.871540
0.088381 -0.148441 0.870585
0.089751 -0.148274 0.869604
0.091108 -0.148090 0.868523
0.092463 -0.147908 0.867456
0.093799 -0.147703 0.866257
0.095184 -0.147580 0.865532
0.096570 -0.147462 0.864839
0.097975 -0.147375 0.864333
0.099425 -0.147360 0.864242
0.100897 -0.147376 0.864334
0.102371 -0.147393 0.864439
0.103853 -0.147423 0.864613
0.105345 -0.147465 0.864858
0.106829 -0.147496 0.865038
0.108346 -0.147570 0.865476
0.109877 -0.147662 0.866013
0.111411 -0.147754 0.866555
0.112967 -0.147873 0.867250
0.114522 -0.147989 0.867930
0.116050 -0.148065 0.868380
0.117599 -0.148168 0.868981
0.119179 -0.149781 0.869792
0.119151 -0.148270 0.869582
0.120618 -0.149741 0.869560
0.120639 -0.148293 0.869715
-0.072277 -0.157072 0.930455
-0.070609 -0.156861 0.929202
-0.068937 -0.156631 0.927842
-0.067222 -0.156291 0.925826
-0.065523 -0.155972 0.923935
-0.063845 -0.155689 0.922258
-0.062181 -0.155427 0.920707
-0.060516 -0.155149 0.919059
-0.058861 -0.154884 0.917488
-0.057206 -0.154602 0.915820
-0.055541 -0.154277 0.913893
-0.053908 -0.154026 0.912407
-0.052298 -0.153826 0.911224
-0.050710 -0.153682 0.910369
-0.049127 -0.153546 0.909565
-0.047564 -0.153464 0.909081
-0.046002 -0.153380 0.908579
-0.044438 -0.153282 0.908001
-0.042868 -0.153159 0.907272
-0.041284 -0.152972 0.906165
-0.039700 -0.152773 0.904985
-0.038112 -0.152538 0.903595
-0.036537 -0.152342 0.902431
-0.034975 -0.152186 0.901511
-0.033441 -0.152139 0.901231
-0.031905 -0.152079 0.900878
-0.030372 -0.152031 0.900590
-0.028835 -0.151952 0.900122
-0.027296 -0.151858 0.899566
-0.025757 -0.151749 0.898920
-0.024224 -0.151667 0.898433
-0.022689 -0.151558 0.897791
-0.021162 -0.151492 0.897400
-0.019637 -0.151428 0.897017
-0.018115 -0.151383 0.896751
-0.016592 -0.151323 0.896395
-0.015075 -0.151306 0.896298
-0.013556 -0.151260 0.896022
-0.012035 -0.151185 0.895576
-0.010516 -0.151117 0.895179
-0.009000 -0.151062 0.894853
-0.007485 -0.151028 0.894647
-0.005971 -0.150986 0.894397
-0.004460 -0.151017 0.894585
-0.002948 -0.151047 0.894763
-0.001436 -0.151095 0.895046
0.000077 -0.151100 0.895077
0.001590 -0.151115 0.895162
0.003103 -0.151070 0.894898
0.004614 -0.151006 0.894516
0.006124 -0.150956 0.894221
0.007634 -0.150925 0.894041
0.009144 -0.150900 0.893890
0.010655 -0.150899 0.893883
0.012166 -0.150896 0.893864
0.013674 -0.150865 0.893683
0.015188 -0.150893 0.893850
0.016703 -0.150927 0.894048
0.018222 -0.150992 0.894435
0.019743 -0.151056 0.894813
0.021270 -0.151160 0.895433
0.022796 -0.151241 0.895911
0.024324 -0.151325 0.896409
0.025851 -0.151392 0.896803
0.027383 -0.151480 0.897329
0.028906 -0.151511 0.897513
0.030432 -0.151556 0.897779
0.031960 -0.151603 0.898054
0.033495 -0.151679 0.898507
0.035022 -0.151716 0.898726
0.036553 -0.151766 0.899021
0.038085 -0.151812 0.899292
0.039621 -0.151871 0.899646
0.041163 -0.151950 0.900108
0.042716 -0.152062 0.900772
0.044285 -0.152220 0.901707
0.045857 -0.152379 0.902653
0.047447 -0.152585 0.903874
0.049038 -0.152782 0.905041
0.050643 -0.153009 0.906383
0.052253 -0.153236 0.907728
0.053878 -0.153493 0.909249
0.055503 -0.153737 0.910699
0.057162 -0.154058 0.912597
0.058859 -0.154464 0.915004
0.060563 -0.154865 0.917379
0.062264 -0.155239 0.919594
0.063973 -0.155614 0.921815
0.065668 -0.155939 0.923743
0.067338 -0.156191 0.925236
0.069037 -0.156496 0.927037
0.070784 -0.156896 0.929407
0.072574 -0.157369 0.932214
0.074371 -0.157837 0.934985
0.076163 -0.158277 0.937593
0.077946 -0.158679 0.939974
0.079379 -0.158369 0.938133
0.081281 -0.147436 0.873368
0.082713 -0.147356 0.872900
0.084149 -0.147286 0.872484
0.085573 -0.147199 0.871967
0.087002 -0.147122 0.871510
0.088379 -0.146962 0.870566
0.089750 -0.146798 0.869590
0.091115 -0.146629 0.868593
0.092481 -0.146466 0.867623
0.093828 -0.146280 0.866522
0.095216 -0.146161 0.865820
0.096601 -0.146042 0.865115
0.097995 -0.145941 0.864516
0.099426 -0.145896 0.864251
0.100886 -0.145895 0.864242
0.102348 -0.145896 0.864251
0.103820 -0.145911 0.864336
0.105300 -0.145937 0.864493
0.106792 -0.145979 0.864741
0.108299 -0.146040 0.865100
0.109831 -0.146132 0.865644
0.111363 -0.146222 0.866181
0.112905 -0.146323 0.866778
0.114439 -0.146410 0.867294
0.115954 -0.146473 0.867666
0.117514 -0.146589 0.868351
0.119079 -0.146708 0.869056
0.120615 -0.146789 0.869539
-0.072265 -0.155470 0.930304
-0.070611 -0.155291 0.929230
-0.068953 -0.155095 0.928063
-0.067239 -0.154760 0.926056
-0.065544 -0.154455 0.924233
-0.063871 -0.154189 0.922642
-0.062220 -0.153963 0.921287
-0.060574 -0.153739 0.919948
-0.058937 -0.153525 0.918669
-0.057292 -0.153278 0.917189
-0.055630 -0.152972 0.915359
-0.053989 -0.152709 0.913785
-0.052370 -0.152494 0.912495
-0.050774 -0.152332 0.911527
-0.049188 -0.152193 0.910695
-0.047623 -0.152111 0.910205
-0.046059 -0.152029 0.909711
-0.044498 -0.151948 0.909227
-0.042930 -0.151842 0.908593
-0.041344 -0.151657 0.907490
-0.039758 -0.151460 0.906312
-0.038171 -0.151241 0.904999
-0.036593 -0.151045 0.903825
-0.035026 -0.150876 0.902815
-0.033483 -0.150800 0.902361
-0.031941 -0.150724 0.901902
-0.030404 -0.150660 0.901525
-0.028865 -0.150583 0.901059
-0.027328 -0.150506 0.900600
-0.025789 -0.150415 0.900055
-0.024255 -0.150336 0.899584
-0.022720 -0.150242 0.899022
-0.021189 -0.150163 0.898551
-0.019662 -0.150100 0.898173
-0.018138 -0.150053 0.897892
-0.016613 -0.149992 0.897528
-0.015093 -0.149959 0.897327
-0.013571 -0.149912 0.897045
-0.012048 -0.149823 0.896513
-0.010527 -0.149758 0.896125
-0.009009 -0.149705 0.895808
-0.007493 -0.149672 0.895612
-0.005978 -0.149632 0.895369
-0.004465 -0.149662 0.895551
-0.002952 -0.149707 0.895818
-0.001438 -0.149769 0.896188
0.000077 -0.149777 0.896239
0.001592 -0.149792 0.896330
0.003107 -0.149756 0.896115
0.004619 -0.149676 0.895637
0.006131 -0.149613 0.895255
0.007643 -0.149581 0.895065
0.009153 -0.149539 0.894814
0.010666 -0.149538 0.894809
0.012180 -0.149550 0.894879
0.013691 -0.149535 0.894793
0.015207 -0.149566 0.894976
0.016725 -0.149613 0.895255
0.018245 -0.149661 0.895544
0.019765 -0.149709 0.895829
0.021290 -0.149783 0.896277
0.022815 -0.149846 0.896650
0.024343 -0.149925 0.897125
0.025871 -0.149989 0.897507
0.027402 -0.150064 0.897957
0.028926 -0.150095 0.898139
0.030453 -0.150140 0.898408
0.031979 -0.150173 0.898606
0.033516 -0.150251 0.899073
0.035048 -0.150302 0.899382
0.036580 -0.150352 0.899679
0.038112 -0.150396 0.899942
0.039649 -0.150453 0.900284
0.041192 -0.150531 0.900751
0.042747 -0.150644 0.901429
0.044322 -0.150819 0.902473
0.045902 -0.150995 0.903529
0.047503 -0.151230 0.904933
0.049096 -0.151426 0.906104
0.050703 -0.151650 0.907444
0.052319 -0.151888 0.908871
0.053950 -0.152155 0.910468
0.055574 -0.152386 0.911851
0.057246 -0.152735 0.913939
0.058957 -0.153168 0.916530
0.060665 -0.153569 0.918931
0.062371 -0.153944 0.921171
0.064075 -0.154298 0.923293
0.065752 -0.154571 0.924922
0.067409 -0.154786 0.926212
0.069101 -0.155069 0.927904
0.070844 -0.155451 0.930188
0.072650 -0.155952 0.933191
0.074466 -0.156453 0.936187
0.076275 -0.156920 0.938979
0.078089 -0.157376 0.941712
0.079821 -0.157652 0.943358
0.081092 -0.157025 0.939609
0.082694 -0.145843 0.872695
0.084147 -0.145805 0.872469
0.085572 -0.145719 0.871955
0.087002 -0.145645 0.871515
0.088387 -0.145500 0.870648
0.089760 -0.145340 0.869687
0.091136 -0.145190 0.868792
0.092504 -0.145031 0.867839
0.093860 -0.144861 0.866820
0.095248 -0.144742 0.866112
0.096633 -0.144625 0.865407
0.098018 -0.144509 0.864716
0.099446 -0.144460 0.864424
0.100896 -0.144444 0.864327
0.102340 -0.144420 0.864183
0.103802 -0.144421 0.864188
0.105271 -0.144431 0.864251
0.106751 -0.144458 0.864408
0.108237 -0.144490 0.864602
0.109755 -0.144565 0.865052
0.111276 -0.144641 0.865505
0.112795 -0.144713 0.865936
0.114315 -0.144784 0.866359
0.115827 -0.144843 0.866713
0.117398 -0.144973 0.867492
0.118985 -0.145120 0.868374
0.120567 -0.145258 0.869194
0.122147 -0.146864 0.869983
0.122124 -0.145362 0.869822
0.123687 -0.146947 0.870473
0.123712 -0.145500 0.870646
-0.072291 -0.153947 0.930629
-0.070648 -0.153795 0.929715
-0.068981 -0.153583 0.928432
-0.067273 -0.153269 0.926532
-0.065590 -0.152997 0.924887
-0.063917 -0.152734 0.923297
-0.062265 -0.152511 0.921952
-0.060625 -0.152308 0.920720
-0.058993 -0.152113 0.919543
-0.057353 -0.151886 0.918174
-0.055695 -0.151599 0.916435
-0.054053 -0.151339 0.914866
-0.052427 -0.151109 0.913474
-0.050823 -0.150931 0.912401
-0.049229 -0.150776 0.911462
-0.047663 -0.150696 0.910980
-0.046094 -0.150601 0.910404
