1704
0.008286 -0.139147 0.970441
0.009915 -0.138974 0.969238
0.011534 -0.138745 0.967634
0.013141 -0.138444 0.965536
0.014746 -0.138183 0.963721
0.016350 -0.137974 0.962257
0.017953 -0.137793 0.960998
0.019550 -0.137593 0.959604
0.021130 -0.137318 0.957688
0.022702 -0.137039 0.955740
0.024267 -0.136748 0.953713
0.025822 -0.136450 0.951635
0.027375 -0.136168 0.949668
0.028923 -0.135899 0.947791
0.030456 -0.135590 0.945635
0.031987 -0.135305 0.943648
0.033516 -0.135038 0.941781
0.035043 -0.134788 0.940044
0.036577 -0.134585 0.938622
0.038117 -0.134422 0.937487
0.039656 -0.134263 0.936382
0.041198 -0.134132 0.935466
0.042746 -0.134028 0.934741
0.044303 -0.133956 0.934236
0.045854 -0.133872 0.933654
0.047412 -0.133815 0.933253
0.048967 -0.133754 0.932832
0.050512 -0.133670 0.932241
0.052081 -0.133651 0.932108
0.053662 -0.133665 0.932207
0.055257 -0.133710 0.932524
0.056842 -0.133730 0.932661
-0.011681 -0.140884 0.994313
-0.009995 -0.140816 0.993832
-0.008308 -0.140694 0.992972
-0.006619 -0.140468 0.991374
-0.004931 -0.140124 0.988949
-0.003248 -0.139660 0.985668
-0.001576 -0.139210 0.982495
0.000084 -0.138767 0.979370
0.001735 -0.138345 0.976388
0.003377 -0.137998 0.973945
0.005016 -0.137789 0.972465
0.006652 -0.137625 0.971313
0.008283 -0.137443 0.970025
0.009910 -0.137261 0.968738
0.011529 -0.137048 0.967239
0.013136 -0.136755 0.965168
0.014742 -0.136512 0.963453
0.016349 -0.136333 0.962189
0.017956 -0.136183 0.961131
0.019555 -0.136002 0.959854
0.021140 -0.135760 0.958148
0.022713 -0.135484 0.956197
0.024275 -0.135180 0.954052
0.025826 -0.134854 0.951750
0.027371 -0.134543 0.949556
0.028913 -0.134246 0.947460
0.030441 -0.133923 0.945183
0.031965 -0.133616 0.943015
0.033494 -0.133353 0.941159
0.035017 -0.133094 0.939333
0.036542 -0.132866 0.937723
0.038073 -0.132676 0.936382
0.039607 -0.132513 0.935233
0.041143 -0.132369 0.934213
0.042686 -0.132255 0.933410
0.044239 -0.132182 0.932898
0.045788 -0.132099 0.932310
0.047343 -0.132041 0.931903
0.048898 -0.131985 0.931504
0.050451 -0.131929 0.931107
0.052018 -0.131912 0.930991
0.053597 -0.131923 0.931070
0.055184 -0.131955 0.931289
0.056761 -0.131961 0.931336
-0.011676 -0.139137 0.993874
-0.009990 -0.139062 0.993335
-0.008303 -0.138922 0.992336
-0.006614 -0.138698 0.990732
-0.004928 -0.138376 0.988432
-0.003247 -0.137936 0.985293
-0.001576 -0.137512 0.982267
0.000084 -0.137119 0.979457
0.001735 -0.136704 0.976493
0.003377 -0.136348 0.973947
0.005016 -0.136136 0.972438
0.006651 -0.135956 0.971152
0.008281 -0.135761 0.969754
0.009907 -0.135582 0.968481
0.011529 -0.135402 0.967192
0.013136 -0.135113 0.965129
0.014743 -0.134887 0.963510
0.016350 -0.134710 0.962247
0.017959 -0.134576 0.961294
0.019559 -0.134402 0.960049
0.021147 -0.134182 0.958474
0.022721 -0.133911 0.956543
0.024286 -0.133624 0.954490
0.025834 -0.133285 0.952068
0.027374 -0.132948 0.949664
0.028909 -0.132625 0.947352
0.030434 -0.132288 0.944951
0.031951 -0.131957 0.942581
0.033471 -0.131669 0.940526
0.034990 -0.131401 0.938609
0.036509 -0.131159 0.936886
0.038034 -0.130957 0.935439
0.039560 -0.130772 0.934116
0.041090 -0.130615 0.932998
0.042630 -0.130503 0.932199
0.044174 -0.130407 0.931510
0.045715 -0.130311 0.930828
0.047267 -0.130252 0.930403
0.048819 -0.130196 0.930002
0.050375 -0.130155 0.929712
0.051947 -0.130154 0.929707
0.053524 -0.130167 0.929800
0.055113 -0.130208 0.930088
0.056698 -0.130238 0.930305
0.058324 -0.131936 0.931157
0.058267 -0.130230 0.930247
-0.011665 -0.137330 0.992989
-0.009982 -0.137262 0.992494
-0.008296 -0.137129 0.991533
-0.006609 -0.136906 0.989925
-0.004924 -0.136605 0.987742
-0.003245 -0.136216 0.984929
-0.001576 -0.135815 0.982033
0.000084 -0.135458 0.979454
0.001735 -0.135078 0.976706
0.003378 -0.134727 0.974165
0.005016 -0.134503 0.972546
0.006651 -0.134320 0.971221
0.008279 -0.134096 0.969602
0.009903 -0.133890 0.968113
0.011523 -0.133699 0.966734
0.013129 -0.133413 0.964667
0.014734 -0.133178 0.962962
0.016342 -0.133015 0.961786
0.017954 -0.132912 0.961040
0.019558 -0.132771 0.960020
0.021154 -0.132597 0.958768
0.022734 -0.132360 0.957053
0.024304 -0.132104 0.955198
0.025856 -0.131783 0.952878
0.027395 -0.131438 0.950387
0.028925 -0.131091 0.947874
0.030443 -0.130729 0.945256
0.031950 -0.130357 0.942565
0.033456 -0.130016 0.940106
0.034966 -0.129721 0.937972
0.036477 -0.129457 0.936058
0.037993 -0.129232 0.934430
0.039513 -0.129035 0.933010
0.041042 -0.128883 0.931908
0.042577 -0.128761 0.931025
0.044113 -0.128652 0.930241
0.045656 -0.128567 0.929621
0.047201 -0.128495 0.929105
0.048750 -0.128439 0.928701
0.050310 -0.128413 0.928514
0.051890 -0.128440 0.928703
0.053473 -0.128469 0.928913
0.055066 -0.128522 0.929302
0.056656 -0.128564 0.929605
0.058234 -0.128579 0.929709
-0.011661 -0.135601 0.992656
-0.009978 -0.135527 0.992110
-0.008292 -0.135387 0.991089
-0.006605 -0.135153 0.989374
-0.004922 -0.134855 0.987190
-0.003244 -0.134502 0.984604
-0.001575 -0.134135 0.981920
0.000084 -0.133814 0.979568
0.001736 -0.133468 0.977040
0.003379 -0.133126 0.974532
0.005017 -0.132889 0.972802
0.006652 -0.132692 0.971354
0.008279 -0.132452 0.969603
0.009901 -0.132220 0.967903
0.011521 -0.132030 0.966510
0.013126 -0.131746 0.964434
0.014729 -0.131499 0.962627
0.016338 -0.131352 0.961546
0.017952 -0.131265 0.960910
0.019558 -0.131141 0.960004
0.021160 -0.131013 0.959063
0.022748 -0.130821 0.957658
0.024325 -0.130598 0.956028
0.025885 -0.130312 0.953935
0.027426 -0.129975 0.951470
0.028955 -0.129617 0.948851
0.030465 -0.129216 0.945911
0.031955 -0.128778 0.942706
0.033443 -0.128372 0.939730
0.034940 -0.128035 0.937269
0.036438 -0.127732 0.935049
0.037949 -0.127499 0.933340
0.039471 -0.127318 0.932018
0.041002 -0.127181 0.931012
0.042535 -0.127058 0.930115
0.044070 -0.126950 0.929323
0.045610 -0.126865 0.928701
0.047144 -0.126769 0.927996
0.048687 -0.126700 0.927494
0.050249 -0.126686 0.927391
0.051834 -0.126727 0.927690
0.053422 -0.126774 0.928036
0.055026 -0.126856 0.928633
0.056626 -0.126921 0.929115
0.058208 -0.126948 0.929308
-0.011660 -0.133897 0.992492
-0.009977 -0.133827 0.991973
-0.008291 -0.133690 0.990961
-0.006604 -0.133461 0.989262
-0.004921 -0.133169 0.987095
-0.003245 -0.132847 0.984708
-0.001576 -0.132499 0.982135
0.000084 -0.132198 0.979898
0.001737 -0.131873 0.977492
0.003381 -0.131550 0.975097
0.005020 -0.131318 0.973378
0.006655 -0.131109 0.971832
0.008282 -0.130856 0.969956
0.009903 -0.130599 0.968049
0.011521 -0.130393 0.966521
0.013124 -0.130086 0.964245
0.014725 -0.129827 0.962328
0.016335 -0.129695 0.961346
0.017950 -0.129623 0.960816
0.019558 -0.129517 0.960028
0.021167 -0.129431 0.959391
0.022766 -0.129297 0.958395
0.024353 -0.129123 0.957106
0.025923 -0.128885 0.955345
0.027473 -0.128580 0.953080
0.029001 -0.128212 0.950355
0.030502 -0.127771 0.947085
0.031974 -0.127254 0.943258
0.033443 -0.126779 0.939734
0.034924 -0.126389 0.936845
0.036409 -0.126049 0.934324
0.037915 -0.125805 0.932513
0.039436 -0.125629 0.931208
0.040966 -0.125492 0.930194
0.042494 -0.125360 0.929212
0.044027 -0.125252 0.928413
0.045561 -0.125156 0.927700
0.047094 -0.125061 0.926999
0.048635 -0.124993 0.926495
0.050190 -0.124965 0.926289
0.051778 -0.125018 0.926683
0.053375 -0.125091 0.927219
0.054986 -0.125190 0.927958
0.056592 -0.125272 0.928563
0.058191 -0.125334 0.929025
-0.011666 -0.132285 0.993020
-0.009980 -0.132198 0.992367
-0.008295 -0.132065 0.991372
-0.006607 -0.131825 0.989571
-0.004922 -0.131524 0.987312
-0.003246 -0.131222 0.985040
-0.001577 -0.130894 0.982578
0.000084 -0.130610 0.980446
0.001738 -0.130318 0.978259
0.003384 -0.130012 0.975963
0.005025 -0.129784 0.974249
0.006661 -0.129564 0.972598
0.008287 -0.129287 0.970516
0.009906 -0.129003 0.968390
0.011522 -0.128772 0.966651
0.013124 -0.128454 0.964263
0.014725 -0.128197 0.962335
0.016335 -0.128067 0.961356
0.017950 -0.127997 0.960833
0.019561 -0.127907 0.960162
0.021175 -0.127850 0.959728
0.022782 -0.127762 0.959068
0.024381 -0.127646 0.958198
0.025965 -0.127469 0.956867
0.027526 -0.127207 0.954906
0.029056 -0.126841 0.952159
0.030550 -0.126362 0.948562
0.032005 -0.125780 0.944189
0.033453 -0.125226 0.940031
0.034915 -0.124769 0.936603
0.036388 -0.124393 0.933780
0.037890 -0.124141 0.931887
0.039410 -0.123967 0.930586
0.040939 -0.123834 0.929583
0.042466 -0.123702 0.928595
0.043993 -0.123583 0.927700
0.045522 -0.123477 0.926905
0.047049 -0.123372 0.926117
0.048588 -0.123304 0.925607
0.050136 -0.123263 0.925297
0.051721 -0.123313 0.925675
0.053323 -0.123398 0.926309
0.054944 -0.123523 0.927249
0.056562 -0.123632 0.928069
0.058173 -0.123723 0.928748
0.059786 -0.125385 0.929403
0.059779 -0.123797 0.929308
0.061372 -0.125416 0.929631
0.061371 -0.123838 0.929611
0.063594 -0.126711 0.939232
0.062964 -0.123881 0.929934
-0.011675 -0.130703 0.993791
-0.009988 -0.130609 0.993078
-0.008301 -0.130486 0.992146
-0.006611 -0.130235 0.990238
-0.004926 -0.129938 0.987978
-0.003248 -0.129652 0.985803
-0.001578 -0.129343 0.983450
0.000084 -0.129052 0.981241
0.001740 -0.128777 0.979146
0.003387 -0.128486 0.976936
0.005029 -0.128235 0.975028
0.006664 -0.127989 0.973161
0.008292 -0.127712 0.971054
0.009910 -0.127415 0.968797
0.011525 -0.127163 0.966874
0.013128 -0.126859 0.964565
0.014729 -0.126605 0.962638
0.016338 -0.126463 0.961556
0.017952 -0.126381 0.960935
0.019565 -0.126306 0.960358
0.021181 -0.126264 0.960039
0.022797 -0.126219 0.959703
0.024406 -0.126150 0.959176
0.026002 -0.126030 0.958263
0.027575 -0.125813 0.956615
0.029117 -0.125490 0.954153
0.030608 -0.124992 0.950368
0.032054 -0.124369 0.945636
0.033485 -0.123750 0.940927
0.034928 -0.123228 0.936959
0.036383 -0.122792 0.933646
0.037877 -0.122520 0.931575
0.039397 -0.122350 0.930282
0.040926 -0.122219 0.929284
0.042451 -0.122087 0.928285
0.043974 -0.121958 0.927302
0.045502 -0.121851 0.926492
0.047019 -0.121723 0.925516
0.048551 -0.121644 0.924913
0.050088 -0.121579 0.924422
0.051666 -0.121614 0.924685
0.053259 -0.121682 0.925203
0.054885 -0.121818 0.926239
0.056513 -0.121954 0.927274
0.058143 -0.122084 0.928258
0.059755 -0.122172 0.928932
0.061351 -0.122223 0.929315
0.062942 -0.122261 0.929603
0.064552 -0.123911 0.930161
0.064524 -0.122281 0.929757
-0.011689 -0.129173 0.994988
-0.009998 -0.129063 0.994135
-0.008309 -0.128929 0.993105
-0.006616 -0.128663 0.991058
-0.004930 -0.128369 0.988789
-0.003251 -0.128085 0.986606
-0.001579 -0.127795 0.984370
0.000085 -0.127521 0.982257
0.001741 -0.127261 0.980256
0.003391 -0.126975 0.978051
0.005034 -0.126712 0.976031
0.006670 -0.126440 0.973935
0.008298 -0.126159 0.971772
0.009916 -0.125850 0.969390
0.011530 -0.125576 0.967278
0.013134 -0.125279 0.964988
0.014736 -0.125029 0.963061
0.016342 -0.124861 0.961767
0.017954 -0.124765 0.961031
0.019568 -0.124699 0.960524
0.021186 -0.124660 0.960224
0.022806 -0.124645 0.960105
0.024422 -0.124606 0.959804
0.026028 -0.124529 0.959210
0.027614 -0.124369 0.957982
0.029175 -0.124119 0.956057
0.030680 -0.123669 0.952589
0.032120 -0.123020 0.947589
0.033541 -0.122359 0.942501
0.034966 -0.121770 0.937964
0.036398 -0.121260 0.934031
0.037874 -0.120932 0.931503
0.039398 -0.120775 0.930298
0.040923 -0.120634 0.929212
0.042448 -0.120504 0.928211
0.043965 -0.120362 0.927115
0.045488 -0.120243 0.926200
0.046998 -0.120103 0.925119
0.048525 -0.120011 0.924412
0.050051 -0.119922 0.923728
0.051621 -0.119942 0.923884
0.053207 -0.119996 0.924297
0.054829 -0.120127 0.925307
0.056463 -0.120275 0.926444
0.058099 -0.120419 0.927556
0.059712 -0.120510 0.928258
0.061307 -0.120561 0.928650
0.062890 -0.120585 0.928836
0.064466 -0.120596 0.928921
0.066105 -0.122298 0.929888
0.066035 -0.120593 0.928898
0.067647 -0.122243 0.929471
-0.011707 -0.127686 0.996542
-0.010012 -0.127548 0.995468
-0.008320 -0.127411 0.994397
-0.006624 -0.127132 0.992216
-0.004935 -0.126824 0.989813
-0.003254 -0.126531 0.987531
-0.001581 -0.126244 0.985291
0.000085 -0.125975 0.983188
0.001743 -0.125731 0.981284
0.003395 -0.125447 0.979071
0.005039 -0.125187 0.977041
0.006676 -0.124916 0.974922
0.008306 -0.124633 0.972719
0.009926 -0.124328 0.970333
0.011541 -0.124058 0.968229
0.013147 -0.123767 0.965955
0.014750 -0.123518 0.964013
0.016354 -0.123325 0.962509
0.017964 -0.123201 0.961537
0.019574 -0.123108 0.960812
0.021189 -0.123055 0.960402
0.022811 -0.123041 0.960293
0.024429 -0.123017 0.960104
0.026044 -0.122980 0.959815
0.027641 -0.122864 0.958911
0.029212 -0.122654 0.957267
0.030733 -0.122266 0.954239
0.032197 -0.121703 0.949847
0.033611 -0.121014 0.944469
0.035026 -0.120387 0.939577
0.036449 -0.119843 0.935331
0.037905 -0.119450 0.932265
0.039404 -0.119216 0.930438
0.040928 -0.119075 0.929334
0.042449 -0.118934 0.928235
0.043957 -0.118768 0.926944
0.045474 -0.118638 0.925927
0.046979 -0.118485 0.924736
0.048500 -0.118382 0.923926
0.050019 -0.118280 0.923134
0.051577 -0.118276 0.923098
0.053155 -0.118314 0.923396
0.054775 -0.118442 0.924398
0.056407 -0.118587 0.925531
0.058048 -0.118743 0.926744
0.059667 -0.118847 0.927555
0.061267 -0.118909 0.928040
0.062842 -0.118921 0.928138
0.064409 -0.118916 0.928099
0.065972 -0.118905 0.928010
0.067473 -0.118786 0.927079
-0.011728 -0.126218 0.998289
-0.010027 -0.126054 0.996998
-0.008329 -0.125871 0.995550
-0.006630 -0.125566 0.993134
-0.004939 -0.125246 0.990604
-0.003256 -0.124945 0.988222
-0.001582 -0.124663 0.985993
0.000085 -0.124408 0.983975
0.001745 -0.124179 0.982169
0.003398 -0.123902 0.979975
0.005044 -0.123647 0.977957
0.006683 -0.123379 0.975839
0.008313 -0.123088 0.973536
0.009935 -0.122798 0.971245
0.011552 -0.122534 0.969157
0.013161 -0.122259 0.966980
0.014767 -0.122024 0.965121
0.016371 -0.121819 0.963499
0.017978 -0.121667 0.962298
0.019587 -0.121559 0.961442
0.021199 -0.121480 0.960817
0.022816 -0.121441 0.960507
0.024434 -0.121414 0.960300
0.026050 -0.121378 0.960010
0.027647 -0.121265 0.959122
0.029231 -0.121109 0.957886
0.030774 -0.120809 0.955514
0.032266 -0.120349 0.951871
0.033679 -0.119653 0.946365
0.035085 -0.118997 0.941182
0.036490 -0.118391 0.936388
0.037921 -0.117919 0.932654
0.039424 -0.117700 0.930921
0.040945 -0.117548 0.929722
0.042458 -0.117385 0.928429
0.043961 -0.117207 0.927023
0.045469 -0.117055 0.925818
0.046964 -0.116881 0.924443
0.048479 -0.116766 0.923537
0.050002 -0.116676 0.922820
0.051550 -0.116649 0.922605
0.053121 -0.116674 0.922804
0.054734 -0.116788 0.923705
0.056359 -0.116917 0.924732
0.057987 -0.117048 0.925764
0.059603 -0.117148 0.926558
0.061201 -0.117209 0.927038
0.062774 -0.117221 0.927133
0.064337 -0.117212 0.927060
0.065898 -0.117201 0.926976
0.067396 -0.117082 0.926033
0.068947 -0.118627 0.925839
0.068878 -0.116940 0.924909
-0.011737 -0.124621 0.999057
-0.010034 -0.124455 0.997727
-0.008335 -0.124270 0.996242
-0.006635 -0.123965 0.993795
-0.004943 -0.123662 0.991367
-0.003259 -0.123364 0.988983
-0.001583 -0.123086 0.986752
0.000085 -0.122833 0.984722
0.001746 -0.122595 0.982814
0.003400 -0.122309 0.980525
0.005047 -0.122060 0.978527
0.006688 -0.121811 0.976528
0.008321 -0.121551 0.974442
0.009947 -0.121292 0.972369
0.011568 -0.121057 0.970488
0.013182 -0.120811 0.968514
0.014792 -0.120592 0.966760
0.016397 -0.120376 0.965029
0.018002 -0.120200 0.963614
0.019609 -0.120064 0.962528
0.021215 -0.119945 0.961573
0.022826 -0.119866 0.960938
0.024440 -0.119813 0.960515
0.026052 -0.119762 0.960105
0.027649 -0.119649 0.959198
0.029241 -0.119528 0.958229
0.030804 -0.119305 0.956443
0.032327 -0.118961 0.953682
0.033741 -0.118265 0.948102
0.035140 -0.117583 0.942637
0.036524 -0.116913 0.937267
0.037924 -0.116348 0.932737
0.039426 -0.116126 0.930956
0.040946 -0.115975 0.929742
0.042454 -0.115799 0.928333
0.043951 -0.115611 0.926824
0.045454 -0.115447 0.925511
0.046949 -0.115276 0.924142
0.048459 -0.115152 0.923149
0.049981 -0.115064 0.922438
0.051523 -0.115025 0.922130
0.053089 -0.115039 0.922241
0.054694 -0.115137 0.923028
0.056311 -0.115252 0.923952
0.057931 -0.115367 0.924871
0.059539 -0.115454 0.925563
0.061134 -0.115511 0.926025
0.062705 -0.115522 0.926113
0.064271 -0.115522 0.926113
0.065837 -0.115522 0.926113
0.067342 -0.115419 0.925286
0.068838 -0.115305 0.924376
0.070360 -0.116804 0.923833
0.071092 -0.116437 0.933444
-0.013453 -0.123175 1.001070
-0.011747 -0.123038 0.999951
-0.010041 -0.122846 0.998399
-0.008340 -0.122647 0.996778
-0.006638 -0.122332 0.994215
-0.004945 -0.122033 0.991790
-0.003260 -0.121744 0.989440
-0.001584 -0.121483 0.987318
0.000085 -0.121244 0.985371
0.001747 -0.121006 0.983442
0.003401 -0.120711 0.981042
0.005050 -0.120478 0.979146
0.006693 -0.120245 0.977259
0.008328 -0.120003 0.975293
0.009957 -0.119764 0.973343
0.011582 -0.119559 0.971681
0.013199 -0.119320 0.969738
0.014813 -0.119118 0.968094
0.016420 -0.118906 0.966371
0.018026 -0.118719 0.964856
0.019630 -0.118558 0.963542
0.021235 -0.118424 0.962457
0.022841 -0.118318 0.961593
0.024451 -0.118238 0.960945
0.026060 -0.118172 0.960406
0.027660 -0.118067 0.959558
0.029254 -0.117957 0.958662
0.030837 -0.117810 0.957464
0.032394 -0.117587 0.955651
0.033833 -0.116977 0.950694
0.036566 -0.115455 0.938330
0.037919 -0.114751 0.932608
0.039425 -0.114545 0.930932
0.040950 -0.114411 0.929838
0.042457 -0.114235 0.928414
0.043955 -0.114050 0.926904
0.045457 -0.113886 0.925577
0.046952 -0.113717 0.924204
0.048457 -0.113583 0.923115
0.049980 -0.113498 0.922422
0.051518 -0.113449 0.922026
0.053077 -0.113451 0.922043
0.054671 -0.113524 0.922629
0.056274 -0.113612 0.923348
0.057874 -0.113689 0.923973
0.059468 -0.113750 0.924470
0.061055 -0.113794 0.924831
0.062624 -0.113805 0.924918
0.064189 -0.113806 0.924927
0.065759 -0.113818 0.925021
0.067289 -0.113760 0.924554
0.068800 -0.113674 0.923856
0.071107 -0.114879 0.933644
-0.011758 -0.121455 1.000880
-0.010049 -0.121246 0.999154
-0.008344 -0.121022 0.997312
-0.006640 -0.120698 0.994638
-0.004947 -0.120407 0.992241
-0.003262 -0.120125 0.989918
-0.001585 -0.119869 0.987808
0.000085 -0.119618 0.985744
0.001748 -0.119369 0.983686
0.003402 -0.119062 0.981161
0.005051 -0.118830 0.979251
0.006694 -0.118613 0.977461
0.008331 -0.118389 0.975612
0.009962 -0.118178 0.973875
0.011592 -0.118016 0.972535
0.013213 -0.117806 0.970807
0.014833 -0.117635 0.969397
0.016444 -0.117439 0.967781
0.018052 -0.117254 0.966259
0.019656 -0.117080 0.964827
0.021258 -0.116922 0.963523
0.022862 -0.116791 0.962447
0.024469 -0.116699 0.961684
0.026077 -0.116620 0.961031
0.027675 -0.116506 0.960092
0.029271 -0.116399 0.959216
0.030862 -0.116282 0.958246
0.032456 -0.116191 0.957497
0.033932 -0.115702 0.953473
0.036626 -0.114054 0.939890
0.037949 -0.113260 0.933346
0.039410 -0.112924 0.930580
0.040945 -0.112821 0.929726
0.042457 -0.112662 0.928417
0.043961 -0.112492 0.927017
0.045463 -0.112331 0.925692
0.046962 -0.112174 0.924397
0.048462 -0.112031 0.923215
0.049990 -0.111957 0.922606
0.051523 -0.111899 0.922127
0.053077 -0.111888 0.922036
0.054653 -0.111923 0.922328
0.056248 -0.111994 0.922914
0.057835 -0.112047 0.923350
0.059422 -0.112096 0.923751
0.061007 -0.112139 0.924111
0.062582 -0.112161 0.924289
0.064146 -0.112163 0.924308
0.065716 -0.112177 0.924419
0.067266 -0.112154 0.924234
0.068791 -0.112094 0.923738
-0.011759 -0.119770 1.000980
-0.010049 -0.119560 0.999220
-0.008344 -0.119325 0.997258
-0.006640 -0.119002 0.994562
-0.004948 -0.118740 0.992366
-0.003262 -0.118465 0.990071
-0.001585 -0.118215 0.987978
0.000085 -0.117979 0.986009
0.001748 -0.117718 0.983828
0.003402 -0.117401 0.981178
0.005051 -0.117171 0.979254
0.006694 -0.116956 0.977461
0.008331 -0.116748 0.975716
0.009964 -0.116553 0.974087
0.011596 -0.116406 0.972863
0.013221 -0.116225 0.971350
0.014846 -0.116093 0.970248
0.016461 -0.115914 0.968751
0.018074 -0.115756 0.967433
0.019682 -0.115596 0.966095
0.021286 -0.115439 0.964780
0.022887 -0.115288 0.963514
0.024494 -0.115184 0.962653
0.026099 -0.115084 0.961809
0.027700 -0.114983 0.960966
0.029305 -0.114906 0.960328
0.030908 -0.114830 0.959692
0.032524 -0.114806 0.959486
0.034049 -0.114480 0.956768
0.038068 -0.112027 0.936268
0.039473 -0.111526 0.932080
0.041003 -0.111402 0.931043
0.042461 -0.111097 0.928488
0.043968 -0.110940 0.927183
0.045475 -0.110792 0.925940
0.046978 -0.110645 0.924714
0.048475 -0.110493 0.923444
0.049997 -0.110409 0.922738
0.051530 -0.110350 0.922251
0.053078 -0.110326 0.922049
0.054642 -0.110337 0.922137
0.056229 -0.110394 0.922613
0.057809 -0.110432 0.922936
0.059390 -0.110470 0.923252
0.060974 -0.110513 0.923609
0.062548 -0.110535 0.923795
0.064112 -0.110539 0.923828
0.065683 -0.110553 0.923948
0.067245 -0.110554 0.923957
0.068792 -0.110530 0.923750
-0.013468 -0.118222 1.002230
-0.011760 -0.118076 1.001000
-0.010049 -0.117867 0.999229
-0.008343 -0.117623 0.997158
-0.006640 -0.117317 0.994566
-0.004949 -0.117083 0.992583
-0.003263 -0.116824 0.990384
-0.001586 -0.116577 0.988296
0.000085 -0.116344 0.986321
0.001748 -0.116073 0.984019
0.003403 -0.115760 0.981369
0.005052 -0.115534 0.979454
0.006695 -0.115325 0.977674
0.008334 -0.115130 0.976027
0.009967 -0.114938 0.974394
0.011600 -0.114793 0.973165
0.013226 -0.114627 0.971760
0.014855 -0.114523 0.970875
0.016474 -0.114362 0.969513
0.018092 -0.114231 0.968405
0.019704 -0.114086 0.967175
0.021310 -0.113933 0.965878
0.022913 -0.113784 0.964611
0.024519 -0.113669 0.963642
0.026125 -0.113568 0.962786
0.027734 -0.113493 0.962146
0.029345 -0.113433 0.961638
0.030955 -0.113374 0.961137
0.032578 -0.113367 0.961076
0.034161 -0.113229 0.959913
0.035611 -0.112682 0.955272
0.039615 -0.110340 0.935420
0.041069 -0.110000 0.932534
0.042522 -0.109681 0.929828
0.043972 -0.109377 0.927252
0.045490 -0.109259 0.926257
0.046998 -0.109125 0.925115
0.048496 -0.108975 0.923845
0.050015 -0.108883 0.923063
0.051547 -0.108823 0.922557
0.053089 -0.108787 0.922254
0.054647 -0.108784 0.922230
0.056230 -0.108830 0.922616
0.057810 -0.108868 0.922939
0.059390 -0.108906 0.923258
0.060975 -0.108949 0.923624
0.062549 -0.108970 0.923800
0.064112 -0.108973 0.923831
0.065683 -0.108987 0.923948
0.067252 -0.108999 0.924051
0.068814 -0.108999 0.924045
-0.011759 -0.116376 1.000970
-0.010050 -0.116178 0.999270
-0.008342 -0.115927 0.997110
-0.006640 -0.115628 0.994536
-0.004949 -0.115398 0.992559
-0.003264 -0.115155 0.990474
-0.001586 -0.114913 0.988386
0.000085 -0.114682 0.986403
0.001748 -0.114415 0.984105
0.003403 -0.114119 0.981559
0.005052 -0.113888 0.979570
0.006696 -0.113683 0.977809
0.008335 -0.113491 0.976158
0.009970 -0.113311 0.974607
0.011601 -0.113156 0.973276
0.013229 -0.113004 0.971971
0.014860 -0.112915 0.971200
0.016483 -0.112781 0.970054
0.018105 -0.112669 0.969089
0.019722 -0.112552 0.968082
0.021333 -0.112414 0.966892
0.022939 -0.112276 0.965705
0.024547 -0.112162 0.964731
0.026156 -0.112071 0.963943
0.027770 -0.112008 0.963401
0.029387 -0.111961 0.962996
0.031005 -0.111926 0.962696
0.032628 -0.111911 0.962566
0.034262 -0.111931 0.962740
0.035779 -0.111587 0.959785
0.042665 -0.108469 0.932964
0.044052 -0.108001 0.928942
0.045522 -0.107765 0.926905
0.047036 -0.107643 0.925860
0.048535 -0.107497 0.924602
0.050051 -0.107396 0.923735
0.051584 -0.107336 0.923216
0.053121 -0.107289 0.922810
0.054670 -0.107267 0.922623
0.056248 -0.107301 0.922919
0.057824 -0.107330 0.923165
0.059399 -0.107356 0.923387
0.060978 -0.107388 0.923662
0.062551 -0.107408 0.923838
0.064114 -0.107410 0.923853
0.065683 -0.107422 0.923957
0.067258 -0.107443 0.924138
0.068835 -0.107465 0.924331
0.071123 -0.110156 0.933855
0.070441 -0.107532 0.924904
-0.013459 -0.114741 1.001510
-0.011752 -0.114613 1.000390
-0.010047 -0.114448 0.998958
-0.008340 -0.114206 0.996840
-0.006640 -0.113940 0.994519
-0.004949 -0.113728 0.992666
-0.003264 -0.113501 0.990686
-0.001586 -0.113249 0.988493
0.000085 -0.113012 0.986419
0.001749 -0.112759 0.984209
0.003404 -0.112480 0.981777
0.005054 -0.112254 0.979805
0.006699 -0.112065 0.978157
0.008338 -0.111875 0.976500
0.009973 -0.111696 0.974934
0.011605 -0.111543 0.973596
0.013235 -0.111405 0.972390
0.014867 -0.111318 0.971630
0.016493 -0.111210 0.970690
0.018119 -0.111112 0.969837
0.019740 -0.111011 0.968951
0.021352 -0.110876 0.967775
0.022960 -0.110740 0.966589
0.024569 -0.110625 0.965588
0.026180 -0.110536 0.964806
0.027795 -0.110473 0.964263
0.029416 -0.110438 0.963952
0.031039 -0.110415 0.963757
0.032661 -0.110390 0.963531
0.034291 -0.110394 0.963570
0.035863 -0.110219 0.962045
0.037420 -0.110015 0.960265
0.042861 -0.107379 0.937250
0.044188 -0.106756 0.931812
0.045596 -0.106365 0.928406
0.047066 -0.106142 0.926460
0.048572 -0.106010 0.925303
0.050089 -0.105909 0.924427
0.051618 -0.105840 0.923821
0.053155 -0.105792 0.923399
0.054700 -0.105761 0.923127
0.056274 -0.105785 0.923339
0.057849 -0.105811 0.923565
0.059424 -0.105835 0.923776
0.060997 -0.105856 0.923957
0.062565 -0.105865 0.924042
0.064127 -0.105866 0.924044
0.065690 -0.105866 0.924051
0.067258 -0.105876 0.924138
0.068849 -0.105919 0.924512
0.070464 -0.105998 0.925197
-0.013451 -0.112980 1.000950
-0.011746 -0.112858 0.999873
-0.010042 -0.112702 0.998484
-0.008338 -0.112480 0.996521
-0.006639 -0.112245 0.994440
-0.004949 -0.112050 0.992709
-0.003265 -0.111837 0.990821
-0.001586 -0.111588 0.988622
0.000085 -0.111355 0.986552
0.001749 -0.111118 0.984451
0.003405 -0.110855 0.982125
0.005056 -0.110643 0.980247
0.006702 -0.110457 0.978601
0.008342 -0.110269 0.976931
0.009977 -0.110092 0.975368
0.011609 -0.109931 0.973936
0.013238 -0.109785 0.972644
0.014871 -0.109697 0.971862
0.016501 -0.109612 0.971114
0.018127 -0.109517 0.970270
0.019751 -0.109430 0.969504
0.021366 -0.109307 0.968411
0.022975 -0.109173 0.967219
0.024582 -0.109049 0.966122
0.026195 -0.108962 0.965356
0.027812 -0.108903 0.964829
0.029433 -0.108869 0.964526
0.031060 -0.108856 0.964415
0.032687 -0.108842 0.964288
0.034318 -0.108847 0.964334
0.035939 -0.108816 0.964064
0.037557 -0.108784 0.963774
0.039162 -0.108716 0.963173
0.040263 -0.108922 0.950724
0.040562 -0.108107 0.957775
0.041810 -0.107157 0.949362
0.043048 -0.106250 0.941324
0.044296 -0.105434 0.934094
0.045636 -0.104883 0.929214
0.047109 -0.104666 0.927293
0.048616 -0.104535 0.926132
0.050123 -0.104414 0.925063
0.051647 -0.104333 0.924339
0.053180 -0.104275 0.923832
0.054720 -0.104234 0.923465
0.056282 -0.104236 0.923481
0.057856 -0.104257 0.923672
0.059429 -0.104279 0.923860
0.060997 -0.104289 0.923957
0.062566 -0.104300 0.924051
0.064134 -0.104310 0.924138
0.065696 -0.104310 0.924138
0.067258 -0.104310 0.924138
0.068862 -0.104372 0.924688
0.070486 -0.104462 0.925485
-0.013453 -0.111296 1.001060
-0.011745 -0.111150 0.999749
-0.010041 -0.110995 0.998356
-0.008337 -0.110779 0.996420
-0.006640 -0.110576 0.994594
-0.004951 -0.110396 0.992969
-0.003266 -0.110206 0.991264
-0.001587 -0.109961 0.989055
0.000085 -0.109731 0.986986
0.001750 -0.109500 0.984915
0.003407 -0.109252 0.982679
0.005059 -0.109044 0.980806
0.006705 -0.108859 0.979145
0.008346 -0.108673 0.977473
0.009983 -0.108500 0.975918
0.011615 -0.108329 0.974382
0.013243 -0.108174 0.972984
0.014874 -0.108075 0.972091
0.016503 -0.107979 0.971232
0.018127 -0.107874 0.970285
0.019752 -0.107789 0.969518
0.021366 -0.107667 0.968422
0.022977 -0.107544 0.967321
0.024588 -0.107434 0.966327
0.026204 -0.107362 0.965677
0.027824 -0.107315 0.965259
0.029447 -0.107283 0.964966
0.031075 -0.107270 0.964856
0.032702 -0.107258 0.964741
0.034332 -0.107255 0.964722
0.035947 -0.107206 0.964280
0.037562 -0.107165 0.963907
0.039160 -0.107077 0.963118
0.040642 -0.106695 0.959678
0.044444 -0.104196 0.937207
0.045736 -0.103534 0.931252
0.047161 -0.103209 0.928327
0.048673 -0.103087 0.927229
0.050181 -0.102965 0.926132
0.051696 -0.102863 0.925215
0.053224 -0.102795 0.924601
0.054754 -0.102732 0.924036
0.056299 -0.102701 0.923759
0.057860 -0.102699 0.923743
0.059427 -0.102709 0.923828
0.060990 -0.102711 0.923846
0.062559 -0.102723 0.923957
0.064134 -0.102743 0.924138
0.065696 -0.102743 0.924138
0.067258 -0.102743 0.924138
0.068862 -0.102805 0.924695
0.070487 -0.102895 0.925502
0.072131 -0.104579 0.926522
0.072126 -0.103001 0.926457
0.073795 -0.104718 0.927749
0.073782 -0.103127 0.927586
-0.015158 -0.109695 1.001940
-0.013450 -0.109578 1.000870
-0.011742 -0.109423 0.999460
-0.010038 -0.109276 0.998112
-0.008337 -0.109089 0.996410
-0.006642 -0.108916 0.994828
-0.004952 -0.108751 0.993321
-0.003268 -0.108574 0.991707
-0.001588 -0.108332 0.989490
0.000085 -0.108095 0.987331
0.001750 -0.107869 0.985264
0.003408 -0.107624 0.983029
0.005060 -0.107409 0.981058
0.006707 -0.107226 0.979392
0.008349 -0.107044 0.977733
0.009986 -0.106873 0.976166
0.011619 -0.106715 0.974721
0.013247 -0.106560 0.973305
0.014877 -0.106449 0.972293
0.016506 -0.106353 0.971419
0.018128 -0.106238 0.970367
0.019749 -0.106132 0.969401
0.021362 -0.106001 0.968201
0.022970 -0.105869 0.966996
0.024579 -0.105760 0.966005
0.026195 -0.105691 0.965366
0.027816 -0.105647 0.964966
0.029441 -0.105625 0.964769
0.031071 -0.105623 0.964751
0.032702 -0.105622 0.964741
0.034330 -0.105612 0.964648
0.035946 -0.105568 0.964250
0.037562 -0.105529 0.963891
0.039159 -0.105443 0.963108
0.040706 -0.105232 0.961177
0.041928 -0.105846 0.952042
0.042035 -0.104497 0.954462
0.043213 -0.105056 0.944941
0.044586 -0.102937 0.940217
0.045846 -0.102201 0.933497
0.047218 -0.101757 0.929435
0.048736 -0.101646 0.928425
0.050244 -0.101523 0.927301
0.051755 -0.101410 0.926271
0.053274 -0.101322 0.925467
0.054793 -0.101239 0.924703
0.056327 -0.101185 0.924212
0.057875 -0.101160 0.923982
0.059436 -0.101158 0.923970
0.060995 -0.101153 0.923922
0.062565 -0.101167 0.924045
0.064140 -0.101187 0.924233
0.065702 -0.101186 0.924226
0.067258 -0.101177 0.924138
0.068862 -0.101238 0.924698
0.070487 -0.101326 0.925501
0.072119 -0.101421 0.926367
0.073765 -0.101532 0.927378
0.075460 -0.103277 0.928940
0.075434 -0.101668 0.928621
0.077121 -0.103399 0.930034
0.077086 -0.101775 0.929606
0.078773 -0.103503 0.930973
0.078736 -0.101878 0.930540
0.080402 -0.103574 0.931612
0.080372 -0.101957 0.931268
-0.016868 -0.108100 1.002910
-0.015156 -0.107982 1.001810
-0.013448 -0.107865 1.000720
-0.011740 -0.107712 0.999303
-0.010036 -0.107556 0.997857
-0.008335 -0.107375 0.996180
-0.006641 -0.107219 0.994726
-0.004952 -0.107069 0.993339
-0.003268 -0.106898 0.991747
-0.001588 -0.106668 0.989618
0.000085 -0.106436 0.987466
0.001751 -0.106213 0.985391
0.003409 -0.105972 0.983160
0.005061 -0.105768 0.981268
0.006709 -0.105589 0.979609
0.008351 -0.105412 0.977964
0.009988 -0.105243 0.976397
0.011622 -0.105097 0.975044
0.013250 -0.104932 0.973513
0.014879 -0.104813 0.972404
0.016506 -0.104706 0.971417
0.018126 -0.104580 0.970247
0.019742 -0.104452 0.969055
0.021352 -0.104311 0.967752
0.022956 -0.104169 0.966435
0.024565 -0.104064 0.965454
0.026180 -0.103994 0.964811
0.027800 -0.103952 0.964415
0.029427 -0.103940 0.964310
0.031057 -0.103939 0.964296
0.032690 -0.103948 0.964382
0.034318 -0.103941 0.964314
0.035937 -0.103909 0.964024
0.037554 -0.103873 0.963690
0.039159 -0.103811 0.963115
0.040759 -0.103740 0.962448
0.042105 -0.103049 0.956044
0.043410 -0.102317 0.949251
0.044678 -0.101550 0.942139
0.045940 -0.100825 0.935412
0.047255 -0.100260 0.930169
0.048779 -0.100162 0.929253
0.050295 -0.100051 0.928225
0.051806 -0.099940 0.927196
0.053327 -0.099853 0.926386
0.054847 -0.099768 0.925599
0.056374 -0.099702 0.924993
0.057917 -0.099666 0.924659
0.059473 -0.099653 0.924539
0.061026 -0.099638 0.924397
0.062597 -0.099651 0.924519
0.064167 -0.099662 0.924617
0.065723 -0.099651 0.924512
0.067272 -0.099630 0.924321
0.068869 -0.099680 0.924783
0.070479 -0.099746 0.925397
0.072102 -0.099826 0.926143
0.073739 -0.099923 0.927041
0.075398 -0.100046 0.928178
0.077034 -0.100133 0.928983
0.078675 -0.100222 0.929813
0.080310 -0.100301 0.930547
0.081989 -0.102011 0.931754
0.081927 -0.100355 0.931049
0.083579 -0.102029 0.931920
0.083527 -0.100386 0.931333
-0.016873 -0.106433 1.003210
-0.015162 -0.106321 1.002160
-0.013449 -0.106175 1.000780
-0.011739 -0.106013 0.999260
-0.010033 -0.105840 0.997620
-0.008333 -0.105661 0.995938
-0.006640 -0.105518 0.994590
-0.004952 -0.105384 0.993327
-0.003268 -0.105217 0.991753
-0.001588 -0.105003 0.989733
0.000085 -0.104774 0.987580
0.001751 -0.104541 0.985384
0.003409 -0.104303 0.983135
0.005061 -0.104113 0.981345
0.006710 -0.103949 0.979798
0.008353 -0.103786 0.978264
0.009991 -0.103621 0.976709
0.011626 -0.103477 0.975349
0.013253 -0.103305 0.973726
0.014879 -0.103167 0.972432
0.016503 -0.103039 0.971227
0.018120 -0.102902 0.969933
0.019733 -0.102762 0.968613
0.021340 -0.102612 0.967201
0.022943 -0.102471 0.965872
0.024551 -0.102366 0.964876
0.026164 -0.102297 0.964228
0.027783 -0.102255 0.963830
0.029409 -0.102244 0.963727
0.031038 -0.102243 0.963716
0.032671 -0.102253 0.963816
0.034301 -0.102255 0.963836
0.035924 -0.102237 0.963665
0.037548 -0.102223 0.963536
0.039163 -0.102187 0.963195
0.040773 -0.102141 0.962760
0.042125 -0.101478 0.956508
0.043438 -0.100772 0.949852
0.044706 -0.100017 0.942741
0.045973 -0.099312 0.936095
0.047285 -0.098747 0.930766
0.048822 -0.098672 0.930058
0.050344 -0.098574 0.929138
0.051864 -0.098477 0.928225
0.053387 -0.098392 0.927421
0.054908 -0.098309 0.926642
0.056427 -0.098226 0.925853
0.057964 -0.098178 0.925405
0.059514 -0.098155 0.925186
0.061062 -0.098128 0.924933
0.062633 -0.098141 0.925052
0.064196 -0.098139 0.925037
0.065745 -0.098117 0.924825
0.067293 -0.098094 0.924607
0.068882 -0.098131 0.924965
0.070478 -0.098176 0.925389
0.072092 -0.098244 0.926024
0.073720 -0.098327 0.926811
0.075364 -0.098428 0.927759
0.076984 -0.098493 0.928377
0.078616 -0.098572 0.929114
0.080248 -0.098647 0.929828
0.081864 -0.098701 0.930335
0.083472 -0.098743 0.930726
0.085110 -0.100396 0.931427
0.085073 -0.098774 0.931026
0.087562 -0.101412 0.940854
0.086649 -0.098777 0.931051
-0.016876 -0.104748 1.003370
-0.015165 -0.104644 1.002370
-0.013450 -0.104491 1.000910
-0.011739 -0.104319 0.999252
-0.010032 -0.104137 0.997508
-0.008332 -0.103960 0.995811
-0.006639 -0.103817 0.994443
-0.004952 -0.103686 0.993194
-0.003267 -0.103522 0.991620
-0.001588 -0.103324 0.989720
0.000085 -0.103097 0.987553
0.001750 -0.102859 0.985265
0.003408 -0.102623 0.983005
0.005061 -0.102435 0.981208
0.006710 -0.102286 0.979783
0.008354 -0.102139 0.978376
0.009993 -0.101989 0.976936
0.011629 -0.101848 0.975581
0.013256 -0.101677 0.973948
0.014879 -0.101520 0.972440
0.016498 -0.101362 0.970932
0.018112 -0.101214 0.969507
0.019722 -0.101063 0.968070
0.021325 -0.100905 0.966549
0.022928 -0.100768 0.965238
0.024537 -0.100673 0.964331
0.026149 -0.100606 0.963684
0.027767 -0.100563 0.963278
0.029392 -0.100553 0.963183
0.031020 -0.100553 0.963176
0.032652 -0.100563 0.963275
0.034281 -0.100564 0.963289
0.035907 -0.100556 0.963208
0.037534 -0.100554 0.963194
0.039154 -0.100532 0.962983
0.040769 -0.100500 0.962677
0.042185 -0.099999 0.957874
0.043516 -0.099341 0.951571
0.044805 -0.098638 0.944834
0.046088 -0.097968 0.938423
0.047361 -0.097324 0.932249
0.048857 -0.097166 0.930733
0.050397 -0.097100 0.930109
0.051925 -0.097018 0.929323
0.053457 -0.096946 0.928632
0.054986 -0.096875 0.927946
0.056501 -0.096783 0.927069
0.058029 -0.096718 0.926444
0.059574 -0.096684 0.926117
0.061115 -0.096645 0.925748
0.062670 -0.096628 0.925584
0.064220 -0.096607 0.925379
0.065761 -0.096573 0.925057
0.067308 -0.096548 0.924815
0.068884 -0.096566 0.924991
0.070479 -0.096609 0.925404
0.072093 -0.096675 0.926031
0.073720 -0.096756 0.926807
0.075349 -0.096836 0.927577
0.076968 -0.096900 0.928188
0.078590 -0.096965 0.928807
0.080212 -0.097027 0.929407
0.081826 -0.097078 0.929893
0.083441 -0.097128 0.930377
0.085051 -0.097171 0.930788
0.086648 -0.097197 0.931032
0.089133 -0.099796 0.940653
0.088233 -0.097209 0.931147
-0.018587 -0.103128 1.004150
-0.016878 -0.103061 1.003500
-0.015167 -0.102958 1.002490
-0.013451 -0.102797 1.000930
-0.011739 -0.102627 0.999272
-0.010031 -0.102436 0.997414
-0.008331 -0.102260 0.995702
-0.006638 -0.102108 0.994219
-0.004951 -0.101979 0.992959
-0.003267 -0.101818 0.991394
-0.001588 -0.101633 0.989595
0.000085 -0.101401 0.987334
0.001750 -0.101166 0.985044
0.003407 -0.100933 0.982777
0.005060 -0.100750 0.980995
0.006709 -0.100615 0.979682
0.008354 -0.100484 0.978407
0.009995 -0.100349 0.977093
0.011631 -0.100209 0.975727
0.013257 -0.100038 0.974062
0.014878 -0.099860 0.972330
0.016494 -0.099692 0.970697
0.018106 -0.099533 0.969146
0.019715 -0.099386 0.967715
0.021318 -0.099231 0.966208
0.022923 -0.099109 0.965020
0.024532 -0.099018 0.964133
0.026144 -0.098952 0.963486
0.027758 -0.098899 0.962975
0.029383 -0.098889 0.962873
0.031008 -0.098879 0.962778
0.032639 -0.098889 0.962873
0.034267 -0.098889 0.962880
0.035894 -0.098890 0.962883
0.037522 -0.098889 0.962880
0.039150 -0.098889 0.962873
0.040773 -0.098879 0.962778
0.042246 -0.098518 0.959267
0.043641 -0.098007 0.954289
0.044941 -0.097331 0.947704
0.046227 -0.096668 0.941249
0.047496 -0.096018 0.934916
0.048940 -0.095751 0.932321
0.050429 -0.095586 0.930713
0.051975 -0.095536 0.930224
0.053514 -0.095475 0.929635
0.055050 -0.095414 0.929039
0.056573 -0.095332 0.928243
0.058097 -0.095258 0.927524
0.059632 -0.095205 0.927007
0.061167 -0.095156 0.926530
0.062714 -0.095127 0.926248
0.064253 -0.095087 0.925861
0.065795 -0.095053 0.925529
0.067342 -0.095029 0.925293
0.068920 -0.095047 0.925469
0.070511 -0.095083 0.925813
0.072124 -0.095146 0.926432
0.073745 -0.095217 0.927121
0.075367 -0.095286 0.927791
0.076970 -0.095329 0.928210
0.078582 -0.095381 0.928715
0.080186 -0.095421 0.929112
0.081798 -0.095469 0.929580
0.083413 -0.095520 0.930071
0.085033 -0.095573 0.930587
0.086647 -0.095618 0.931026
0.088251 -0.095650 0.931338
0.089824 -0.097228 0.931329
0.089853 -0.095679 0.931624
0.092361 -0.098251 0.941133
0.091448 -0.095701 0.931829
-0.018591 -0.101450 1.004390
-0.016882 -0.101385 1.003740
-0.015170 -0.101283 1.002740
-0.013453 -0.101115 1.001070
-0.011739 -0.100935 0.999291
-0.010029 -0.100726 0.997221
-0.008329 -0.100551 0.995487
-0.006635 -0.100390 0.993897
-0.004949 -0.100263 0.992635
-0.003266 -0.100104 0.991065
-0.001587 -0.099933 0.989373
0.000085 -0.099706 0.987119
0.001750 -0.099475 0.984835
0.003407 -0.099246 0.982565
0.005059 -0.099074 0.980869
0.006709 -0.098954 0.979675
0.008355 -0.098838 0.978527
0.009997 -0.098717 0.977332
0.011632 -0.098568 0.975859
0.013257 -0.098387 0.974066
0.014874 -0.098187 0.972090
0.016486 -0.098001 0.970248
0.018095 -0.097835 0.968598
0.019706 -0.097700 0.967265
0.021313 -0.097570 0.965981
0.022921 -0.097465 0.964932
0.024533 -0.097387 0.964168
0.026147 -0.097331 0.963614
0.027761 -0.097278 0.963089
0.029383 -0.097257 0.962880
0.031011 -0.097256 0.962873
0.032642 -0.097267 0.962975
0.034274 -0.097277 0.963081
0.035906 -0.097288 0.963183
0.037538 -0.097297 0.963278
0.039166 -0.097297 0.963278
0.040799 -0.097307 0.963374
0.042327 -0.097077 0.961093
0.043786 -0.096711 0.957475
0.045164 -0.096199 0.952400
0.047784 -0.095005 0.940585
0.049167 -0.094607 0.936643
0.050598 -0.094322 0.933816
0.052082 -0.094151 0.932130
0.053561 -0.093981 0.930441
0.055103 -0.093929 0.929926
0.056632 -0.093857 0.929214
0.058152 -0.093775 0.928409
0.059681 -0.093712 0.927780
0.061211 -0.093653 0.927195
0.062752 -0.093613 0.926803
0.064286 -0.093565 0.926324
0.065828 -0.093531 0.925993
0.067378 -0.093510 0.925779
0.068950 -0.093520 0.925880
0.070542 -0.093555 0.926224
0.072156 -0.093617 0.926843
0.073778 -0.093688 0.927541
0.075394 -0.093747 0.928125
0.076996 -0.093787 0.928524
0.078591 -0.093817 0.928825
0.080178 -0.093837 0.929019
0.081782 -0.093875 0.929396
0.083398 -0.093925 0.929893
0.085019 -0.093980 0.930430
0.086640 -0.094032 0.930953
0.088260 -0.094081 0.931437
0.089862 -0.094109 0.931717
0.091456 -0.094129 0.931912
-0.018598 -0.099783 1.004750
-0.016888 -0.099718 1.004090
-0.015175 -0.099614 1.003040
-0.013456 -0.099440 1.001290
-0.011739 -0.099241 0.999286
-0.010028 -0.099022 0.997084
-0.008327 -0.098840 0.995253
-0.006634 -0.098682 0.993657
-0.004947 -0.098547 0.992303
-0.003265 -0.098391 0.990735
-0.001587 -0.098213 0.988943
0.000085 -0.097999 0.986787
0.001749 -0.097773 0.984510
0.003406 -0.097558 0.982347
0.005058 -0.097400 0.980756
0.006709 -0.097292 0.979664
0.008355 -0.097178 0.978519
0.009997 -0.097060 0.977332
0.011631 -0.096904 0.975754
0.013256 -0.096724 0.973943
0.014871 -0.096517 0.971861
0.016480 -0.096323 0.969912
0.018089 -0.096160 0.968262
0.019701 -0.096037 0.967034
0.021310 -0.095922 0.965876
0.022923 -0.095840 0.965047
0.024541 -0.095787 0.964507
0.026159 -0.095741 0.964052
0.027774 -0.095688 0.963511
0.029395 -0.095665 0.963281
0.031024 -0.095664 0.963275
0.032656 -0.095676 0.963392
0.034289 -0.095688 0.963519
0.035926 -0.095709 0.963727
0.037559 -0.095719 0.963830
0.039189 -0.095719 0.963830
0.040826 -0.095739 0.964028
0.042413 -0.095641 0.963041
0.043938 -0.095417 0.960790
0.045394 -0.095065 0.957237
0.049486 -0.093623 0.942724
0.050851 -0.093203 0.938487
0.052265 -0.092897 0.935412
0.053670 -0.092592 0.932339
0.055145 -0.092423 0.930636
0.056675 -0.092352 0.929927
0.058196 -0.092271 0.929111
0.059721 -0.092200 0.928392
0.061250 -0.092139 0.927781
0.062785 -0.092091 0.927293
0.064319 -0.092043 0.926813
0.065864 -0.092012 0.926503
0.067415 -0.091991 0.926291
0.068982 -0.091993 0.926304
0.070573 -0.092025 0.926627
0.072187 -0.092086 0.927244
0.073802 -0.092145 0.927842
0.075412 -0.092196 0.928348
0.077013 -0.092234 0.928735
0.078600 -0.092253 0.928930
0.080179 -0.092263 0.929025
0.081790 -0.092309 0.929492
0.083407 -0.092359 0.929999
0.085029 -0.092413 0.930542
0.086650 -0.092465 0.931059
0.088269 -0.092512 0.931532
0.089861 -0.092529 0.931710
0.091445 -0.092539 0.931806
0.094017 -0.095127 0.941791
0.093031 -0.092549 0.931905
-0.018598 -0.098078 1.004730
-0.016889 -0.098018 1.004120
-0.015175 -0.097915 1.003050
-0.013457 -0.097752 1.001390
-0.011739 -0.097545 0.999265
-0.010026 -0.097318 0.996942
-0.008325 -0.097127 0.994989
-0.006631 -0.096962 0.993302
-0.004945 -0.096821 0.991848
-0.003263 -0.096667 0.990277
-0.001586 -0.096482 0.988376
0.000085 -0.096272 0.986226
0.001748 -0.096050 0.983956
0.003404 -0.095850 0.981907
0.005057 -0.095706 0.980435
0.006707 -0.095601 0.979354
0.008353 -0.095488 0.978200
0.009995 -0.095380 0.977093
0.011627 -0.095217 0.975419
0.013251 -0.095041 0.973615
0.014867 -0.094848 0.971643
0.016478 -0.094667 0.969791
0.018087 -0.094508 0.968159
0.019701 -0.094398 0.967030
0.021313 -0.094295 0.965978
0.022929 -0.094225 0.965260
0.024550 -0.094184 0.964837
0.026171 -0.094150 0.964485
0.027789 -0.094107 0.964049
0.029412 -0.094084 0.963819
0.031041 -0.094084 0.963816
0.032675 -0.094096 0.963941
0.034310 -0.094111 0.964088
0.035948 -0.094132 0.964310
0.037582 -0.094143 0.964415
0.039212 -0.094143 0.964415
0.040856 -0.094172 0.964720
0.042497 -0.094195 0.964951
0.044084 -0.094102 0.963995
0.045616 -0.093899 0.961922
0.046828 -0.094693 0.953492
0.047132 -0.093681 0.959687
0.051190 -0.092223 0.944749
0.052528 -0.091770 0.940115
0.053853 -0.091322 0.935524
0.055252 -0.091022 0.932443
0.056713 -0.090837 0.930554
0.058235 -0.090757 0.929734
0.059760 -0.090686 0.929005
0.061290 -0.090626 0.928387
0.062821 -0.090571 0.927826
0.064356 -0.090524 0.927340
0.065902 -0.090493 0.927030
0.067446 -0.090463 0.926716
0.069005 -0.090453 0.926618
0.070594 -0.090482 0.926911
0.072208 -0.090540 0.927513
0.073825 -0.090601 0.928132
0.075436 -0.090650 0.928639
0.077037 -0.090687 0.929019
0.078616 -0.090697 0.929114
0.080186 -0.090697 0.929114
0.081798 -0.090742 0.929580
0.083416 -0.090792 0.930094
0.085038 -0.090846 0.930640
0.086659 -0.090896 0.931154
0.088277 -0.090941 0.931621
0.089852 -0.090941 0.931621
0.091419 -0.090933 0.931532
0.092984 -0.090923 0.931437
0.094616 -0.092558 0.932001
0.094549 -0.090914 0.931338
-0.020301 -0.096397 1.004960
-0.018601 -0.096391 1.004900
-0.016891 -0.096329 1.004250
-0.015177 -0.096224 1.003160
-0.013456 -0.096045 1.001290
-0.011737 -0.095830 0.999047
-0.010024 -0.095605 0.996708
-0.008322 -0.095407 0.994641
-0.006628 -0.095236 0.992853
-0.004943 -0.095094 0.991377
-0.003261 -0.094934 0.989705
-0.001585 -0.094739 0.987673
0.000085 -0.094532 0.985519
0.001747 -0.094325 0.983355
0.003402 -0.094132 0.981353
0.005055 -0.094012 0.980102
0.006705 -0.093910 0.979031
0.008350 -0.093798 0.977864
0.009991 -0.093689 0.976734
0.011624 -0.093538 0.975158
0.013248 -0.093368 0.973387
0.014867 -0.093201 0.971637
0.016482 -0.093045 0.970014
0.018091 -0.092889 0.968386
0.019706 -0.092780 0.967257
0.021321 -0.092696 0.966379
0.022940 -0.092637 0.965762
0.024563 -0.092599 0.965365
0.026189 -0.092578 0.965143
0.027811 -0.092546 0.964808
0.029432 -0.092515 0.964486
0.031063 -0.092514 0.964478
0.032701 -0.092536 0.964710
0.034340 -0.092559 0.964950
0.035983 -0.092590 0.965272
0.037623 -0.092609 0.965470
0.039255 -0.092609 0.965470
0.040901 -0.092639 0.965782
0.042544 -0.092662 0.966028
0.044188 -0.092686 0.966272
0.045789 -0.092620 0.965587
0.047378 -0.092536 0.964704
0.048553 -0.093293 0.955715
0.048878 -0.092288 0.962126
0.054125 -0.090189 0.940237
0.055442 -0.089749 0.935648
0.056829 -0.089441 0.932444
0.058274 -0.089240 0.930346
0.059805 -0.089178 0.929703
0.061337 -0.089120 0.929100
0.062875 -0.089074 0.928619
0.064412 -0.089029 0.928146
0.065958 -0.088998 0.927824
0.067489 -0.088949 0.927309
0.069040 -0.088927 0.927083
0.070608 -0.088927 0.927090
0.072200 -0.088959 0.927414
0.073810 -0.089009 0.927942
0.075420 -0.089058 0.928450
0.077022 -0.089096 0.928842
0.078608 -0.089113 0.929025
0.080186 -0.089122 0.929114
0.081798 -0.089166 0.929580
0.083416 -0.089216 0.930094
0.085038 -0.089268 0.930640
0.086659 -0.089317 0.931154
0.088277 -0.089362 0.931621
0.089852 -0.089362 0.931621
0.091409 -0.089345 0.931437
0.092964 -0.089325 0.931235
0.094517 -0.089305 0.931026
-0.020301 -0.094696 1.004980
-0.018601 -0.094689 1.004920
-0.016891 -0.094627 1.004260
-0.015177 -0.094524 1.003170
-0.013456 -0.094348 1.001290
-0.011735 -0.094127 0.998946
-0.010023 -0.093906 0.996599
-0.008320 -0.093700 0.994421
-0.006626 -0.093521 0.992516
-0.004940 -0.093371 0.990923
-0.003260 -0.093211 0.989225
-0.001584 -0.093009 0.987084
0.000085 -0.092806 0.984926
0.001746 -0.092612 0.982869
0.003401 -0.092424 0.980875
0.005053 -0.092309 0.979658
0.006702 -0.092208 0.978589
0.008346 -0.092098 0.977417
0.009987 -0.091991 0.976285
0.011621 -0.091863 0.974918
0.013247 -0.091708 0.973277
0.014869 -0.091564 0.971755
0.016488 -0.091432 0.970353
0.018100 -0.091289 0.968831
0.019715 -0.091184 0.967714
0.021333 -0.091109 0.966915
0.022953 -0.091051 0.966302
0.024579 -0.091023 0.966007
0.026207 -0.091004 0.965806
0.027830 -0.090973 0.965481
0.029455 -0.090952 0.965250
0.031090 -0.090960 0.965339
0.032730 -0.090982 0.965572
0.034375 -0.091014 0.965912
0.036023 -0.091053 0.966327
0.037664 -0.091072 0.966525
0.039298 -0.091072 0.966525
0.040949 -0.091109 0.966926
0.042599 -0.091142 0.967271
0.044242 -0.091158 0.967436
0.045897 -0.091197 0.967852
0.047552 -0.091233 0.968238
0.049125 -0.091114 0.966978
0.050293 -0.091901 0.958085
0.050620 -0.090864 0.964315
0.054415 -0.089070 0.945282
0.055641 -0.088479 0.939012
0.056932 -0.088021 0.934145
0.058293 -0.087692 0.930655
0.059837 -0.087649 0.930199
0.061377 -0.087602 0.929701
0.062917 -0.087558 0.929236
0.064461 -0.087522 0.928851
0.066007 -0.087490 0.928513
0.067532 -0.087432 0.927892
0.069069 -0.087392 0.927476
0.070636 -0.087391 0.927459
0.072221 -0.087411 0.927676
0.073823 -0.087452 0.928105
0.075426 -0.087491 0.928521
0.077028 -0.087528 0.928913
0.078607 -0.087538 0.929019
0.080186 -0.087547 0.929114
0.081798 -0.087591 0.929580
0.083416 -0.087639 0.930094
0.085030 -0.087682 0.930552
0.086642 -0.087722 0.930970
0.088251 -0.087756 0.931338
0.089816 -0.087747 0.931243
0.091362 -0.087721 0.930960
0.092915 -0.087700 0.930743
0.094464 -0.087678 0.930505
0.096080 -0.089295 0.930920
0.096025 -0.087667 0.930386
-0.018599 -0.092974 1.004790
-0.016888 -0.092906 1.004050
-0.015173 -0.092803 1.002950
-0.013453 -0.092630 1.001070
-0.011733 -0.092414 0.998733
-0.010022 -0.092207 0.996497
-0.008319 -0.092005 0.994320
-0.006625 -0.091827 0.992397
-0.004939 -0.091670 0.990694
-0.003258 -0.091501 0.988875
-0.001583 -0.091295 0.986642
0.000085 -0.091094 0.984468
0.001745 -0.090905 0.982429
0.003399 -0.090720 0.980434
0.005050 -0.090607 0.979214
0.006698 -0.090507 0.978129
0.008342 -0.090400 0.976969
0.009982 -0.090296 0.975846
0.011618 -0.090190 0.974703
0.013247 -0.090059 0.973286
0.014872 -0.089939 0.971989
0.016497 -0.089838 0.970895
0.018112 -0.089708 0.969496
