1678
-0.019592 -0.251210 0.894964
-0.018056 -0.250893 0.893836
-0.016532 -0.250704 0.893162
-0.015018 -0.250628 0.892891
-0.013509 -0.250636 0.892920
-0.012000 -0.250645 0.892951
-0.010494 -0.250739 0.893288
-0.008987 -0.250816 0.893562
-0.007481 -0.250976 0.894131
-0.005975 -0.251197 0.894920
-0.004466 -0.251419 0.895710
-0.002954 -0.251651 0.896536
-0.001439 -0.251802 0.897073
0.000077 -0.251952 0.897610
0.001596 -0.252108 0.898163
0.003116 -0.252290 0.898813
0.004640 -0.252545 0.899721
0.006172 -0.252977 0.901261
0.007712 -0.253513 0.903170
0.009260 -0.254096 0.905245
0.010818 -0.254748 0.907569
0.012385 -0.255412 0.909934
0.013946 -0.255828 0.911416
0.015507 -0.256162 0.912608
0.017079 -0.256603 0.914179
-0.043335 -0.255885 0.917159
-0.041725 -0.255517 0.915842
-0.040101 -0.255038 0.914123
-0.038475 -0.254507 0.912221
-0.036829 -0.253790 0.909650
-0.035196 -0.253105 0.907194
-0.033587 -0.252535 0.905151
-0.031991 -0.252021 0.903311
-0.030407 -0.251551 0.901624
-0.028839 -0.251163 0.900236
-0.027285 -0.250875 0.899204
-0.025736 -0.250587 0.898172
-0.024192 -0.250327 0.897240
-0.022645 -0.249996 0.896051
-0.021104 -0.249681 0.894922
-0.019568 -0.249385 0.893861
-0.018036 -0.249097 0.892830
-0.016513 -0.248892 0.892094
-0.015000 -0.248811 0.891803
-0.013492 -0.248808 0.891794
-0.011984 -0.248811 0.891804
-0.010479 -0.248860 0.891980
-0.008973 -0.248933 0.892242
-0.007471 -0.249134 0.892963
-0.005968 -0.249404 0.893929
-0.004462 -0.249683 0.894930
-0.002952 -0.249951 0.895890
-0.001439 -0.250149 0.896601
0.000077 -0.250246 0.896947
0.001594 -0.250323 0.897224
0.003112 -0.250403 0.897512
0.004633 -0.250604 0.898231
0.006161 -0.250982 0.899584
0.007697 -0.251483 0.901382
0.009241 -0.252053 0.903424
0.010795 -0.252672 0.905642
0.012358 -0.253328 0.907995
0.013916 -0.253739 0.909467
0.015473 -0.254066 0.910639
0.017042 -0.254505 0.912212
0.018657 -0.257061 0.915810
0.018623 -0.255034 0.914110
-0.043341 -0.254365 0.917283
-0.041728 -0.253987 0.915923
-0.040111 -0.253554 0.914358
-0.038488 -0.253045 0.912524
-0.036840 -0.252326 0.909930
-0.035203 -0.251616 0.907370
-0.033593 -0.251049 0.905326
-0.031995 -0.250518 0.903410
-0.030408 -0.250027 0.901640
-0.028836 -0.249615 0.900154
-0.027277 -0.249275 0.898930
-0.025720 -0.248910 0.897615
-0.024170 -0.248575 0.896404
-0.022621 -0.248215 0.895108
-0.021081 -0.247900 0.893972
-0.019549 -0.247635 0.893017
-0.018021 -0.247379 0.892092
-0.016502 -0.247225 0.891536
-0.014990 -0.247146 0.891252
-0.013482 -0.247120 0.891157
-0.011975 -0.247097 0.891076
-0.010468 -0.247097 0.891076
-0.008962 -0.247096 0.891071
-0.007460 -0.247242 0.891598
-0.005958 -0.247477 0.892447
-0.004454 -0.247756 0.893452
-0.002947 -0.248048 0.894506
-0.001437 -0.248298 0.895408
0.000077 -0.248417 0.895837
0.001592 -0.248513 0.896181
0.003108 -0.248569 0.896382
0.004627 -0.248747 0.897026
0.006151 -0.249052 0.898126
0.007681 -0.249450 0.899561
0.009220 -0.249934 0.901307
0.010765 -0.250442 0.903137
0.012319 -0.250989 0.905111
0.013870 -0.251364 0.906462
0.015420 -0.251659 0.907526
0.016974 -0.251954 0.908592
0.018540 -0.252354 0.910033
0.020212 -0.255593 0.916114
0.020141 -0.253145 0.912884
0.021836 -0.256469 0.919252
0.021779 -0.254253 0.916880
-0.041727 -0.252429 0.915902
-0.040111 -0.251999 0.914342
-0.038488 -0.251495 0.912514
-0.036840 -0.250779 0.909915
-0.035202 -0.250070 0.907343
-0.033592 -0.249510 0.905310
-0.031992 -0.248961 0.903318
-0.030402 -0.248448 0.901458
-0.028827 -0.248010 0.899870
-0.027262 -0.247618 0.898445
-0.025700 -0.247204 0.896943
-0.024146 -0.246815 0.895533
-0.022599 -0.246455 0.894226
-0.021061 -0.246147 0.893108
-0.019533 -0.245914 0.892265
-0.018010 -0.245714 0.891536
-0.016495 -0.245612 0.891166
-0.014984 -0.245537 0.890897
-0.013477 -0.245513 0.890810
-0.011970 -0.245491 0.890728
-0.010463 -0.245467 0.890640
-0.008956 -0.245415 0.890454
-0.007452 -0.245480 0.890689
-0.005951 -0.245651 0.891307
-0.004448 -0.245872 0.892111
-0.002942 -0.246119 0.893007
-0.001434 -0.246372 0.893925
0.000077 -0.246493 0.894364
0.001590 -0.246589 0.894711
0.003103 -0.246667 0.894995
0.004620 -0.246869 0.895727
0.006141 -0.247152 0.896754
0.007668 -0.247493 0.897992
0.009201 -0.247888 0.899427
0.010737 -0.248257 0.900764
0.012279 -0.248645 0.902172
0.013820 -0.248934 0.903220
0.015362 -0.249174 0.904092
0.016903 -0.249360 0.904768
0.018457 -0.249688 0.905955
0.020049 -0.250451 0.908727
0.021694 -0.251709 0.913291
0.023441 -0.255465 0.921250
0.023367 -0.253109 0.918368
-0.041757 -0.251056 0.916557
-0.040126 -0.250542 0.914683
-0.038494 -0.249991 0.912670
-0.036842 -0.249253 0.909977
-0.035198 -0.248503 0.907237
-0.033585 -0.247923 0.905120
-0.031982 -0.247353 0.903038
-0.030389 -0.246817 0.901083
-0.028811 -0.246353 0.899387
-0.027239 -0.245889 0.897695
-0.025676 -0.245449 0.896088
-0.024121 -0.245038 0.894588
-0.022580 -0.244727 0.893450
-0.021043 -0.244427 0.892356
-0.019521 -0.244249 0.891708
-0.018002 -0.244102 0.891171
-0.016492 -0.244050 0.890979
-0.014981 -0.243981 0.890728
-0.013476 -0.243981 0.890728
-0.011970 -0.243981 0.890728
-0.010463 -0.243956 0.890638
-0.008954 -0.243858 0.890280
-0.007448 -0.243820 0.890141
-0.005944 -0.243884 0.890375
-0.004441 -0.244016 0.890856
-0.002937 -0.244188 0.891484
-0.001432 -0.244420 0.892332
0.000077 -0.244567 0.892869
0.001587 -0.244686 0.893302
0.003098 -0.244765 0.893591
0.004613 -0.244969 0.894335
0.006131 -0.245226 0.895274
0.007653 -0.245510 0.896312
0.009180 -0.245816 0.897429
0.010708 -0.246068 0.898347
0.012241 -0.246346 0.899364
0.013774 -0.246576 0.900203
0.015307 -0.246762 0.900882
0.016837 -0.246866 0.901260
0.018382 -0.247143 0.902272
0.019964 -0.247850 0.904855
0.021591 -0.248971 0.908944
0.023271 -0.250517 0.914592
0.025054 -0.254477 0.923333
0.024972 -0.252080 0.920295
-0.043389 -0.249974 0.918292
-0.041774 -0.249600 0.916916
-0.040136 -0.249055 0.914914
-0.038503 -0.248500 0.912875
-0.036850 -0.247762 0.910165
-0.035198 -0.246965 0.907237
-0.033578 -0.246337 0.904932
-0.031968 -0.245720 0.902665
-0.030373 -0.245158 0.900599
-0.028787 -0.244625 0.898641
-0.027211 -0.244116 0.896770
-0.025647 -0.243655 0.895076
-0.024093 -0.243247 0.893580
-0.022559 -0.242990 0.892635
-0.021032 -0.242790 0.891900
-0.019519 -0.242713 0.891617
-0.018006 -0.242638 0.891343
-0.016499 -0.242634 0.891327
-0.014987 -0.242566 0.891076
-0.013480 -0.242542 0.890988
-0.011972 -0.242517 0.890897
-0.010464 -0.242469 0.890722
-0.008951 -0.242263 0.889963
-0.007441 -0.242083 0.889303
-0.005936 -0.242035 0.889127
-0.004434 -0.242081 0.889297
-0.002931 -0.242181 0.889664
-0.001429 -0.242434 0.890591
0.000077 -0.242648 0.891379
0.001584 -0.242767 0.891814
0.003093 -0.242843 0.892096
0.004605 -0.243044 0.892834
0.006120 -0.243275 0.893683
0.007638 -0.243508 0.894538
0.009160 -0.243754 0.895440
0.010681 -0.243923 0.896064
0.012205 -0.244115 0.896768
0.013733 -0.244316 0.897505
0.015262 -0.244499 0.898179
0.016785 -0.244578 0.898470
0.018323 -0.244828 0.899386
0.019897 -0.245485 0.901801
0.021514 -0.246551 0.905716
0.023181 -0.248001 0.911042
0.024886 -0.249656 0.917123
-0.044976 -0.250170 0.919009
-0.044991 -0.248691 0.919303
-0.043404 -0.248505 0.918615
-0.041799 -0.248198 0.917480
-0.040159 -0.247650 0.915455
-0.038521 -0.247068 0.913304
-0.036870 -0.246353 0.910661
-0.035215 -0.245551 0.907694
-0.033585 -0.244851 0.905108
-0.031967 -0.244183 0.902639
-0.030365 -0.243572 0.900379
-0.028772 -0.242969 0.898150
-0.027191 -0.242413 0.896095
-0.025630 -0.241976 0.894479
-0.024080 -0.241596 0.893076
-0.022550 -0.241377 0.892264
-0.021031 -0.241257 0.891821
-0.019523 -0.241257 0.891821
-0.018012 -0.241209 0.891645
-0.016506 -0.241230 0.891721
-0.014995 -0.241181 0.891543
-0.013487 -0.241155 0.891445
-0.011978 -0.241127 0.891343
-0.010468 -0.241057 0.891082
-0.008952 -0.240800 0.890133
-0.007438 -0.240500 0.889024
-0.005931 -0.240323 0.888370
-0.004428 -0.240263 0.888148
-0.002927 -0.240289 0.888244
-0.001426 -0.240503 0.889035
0.000077 -0.240742 0.889920
0.001582 -0.240880 0.890429
0.003088 -0.240976 0.890784
0.004599 -0.241195 0.891592
0.006112 -0.241425 0.892445
0.007627 -0.241635 0.893220
0.009144 -0.241830 0.893940
0.010661 -0.241948 0.894374
0.012179 -0.242066 0.894813
0.013700 -0.242220 0.895382
0.015225 -0.242404 0.896063
0.016745 -0.242470 0.896307
0.018276 -0.242684 0.897096
0.019836 -0.243208 0.899032
0.021434 -0.244104 0.902345
0.023081 -0.245398 0.907131
0.024769 -0.246940 0.912830
-0.045007 -0.247224 0.919641
-0.043425 -0.247066 0.919055
-0.041828 -0.246812 0.918110
-0.040188 -0.246275 0.916110
-0.038547 -0.245688 0.913928
-0.036895 -0.244975 0.911276
-0.035235 -0.244146 0.908193
-0.033593 -0.243374 0.905321
-0.031968 -0.242655 0.902644
-0.030359 -0.241996 0.900194
-0.028760 -0.241345 0.897774
-0.027177 -0.240767 0.895623
-0.025618 -0.240349 0.894068
-0.024074 -0.240024 0.892859
-0.022549 -0.239859 0.892244
-0.021035 -0.239798 0.892018
-0.019531 -0.239850 0.892212
-0.018022 -0.239831 0.892140
-0.016515 -0.239852 0.892221
-0.015004 -0.239804 0.892042
-0.013494 -0.239777 0.891940
-0.011985 -0.239746 0.891824
-0.010474 -0.239673 0.891551
-0.008955 -0.239367 0.890413
-0.007438 -0.238989 0.889009
-0.005929 -0.238724 0.888024
-0.004425 -0.238588 0.887518
-0.002924 -0.238548 0.887368
-0.001425 -0.238742 0.888090
0.000077 -0.238983 0.888985
0.001580 -0.239097 0.889412
0.003085 -0.239190 0.889758
0.004593 -0.239407 0.890565
0.006105 -0.239641 0.891434
0.007619 -0.239875 0.892305
0.009135 -0.240072 0.893037
0.010650 -0.240188 0.893467
0.012166 -0.240304 0.893899
0.013686 -0.240456 0.894467
0.015212 -0.240666 0.895247
0.016738 -0.240854 0.895945
0.018278 -0.241190 0.897195
0.019820 -0.241492 0.898321
0.021395 -0.242134 0.900707
0.023012 -0.243128 0.904404
0.024664 -0.244352 0.908957
-0.045014 -0.245703 0.919783
-0.043435 -0.245564 0.919264
-0.041841 -0.245329 0.918384
-0.040204 -0.244820 0.916480
-0.038568 -0.244270 0.914421
-0.036912 -0.243541 0.911692
-0.035248 -0.242698 0.908534
-0.033601 -0.241901 0.905550
-0.031972 -0.241157 0.902767
-0.030359 -0.240474 0.900208
-0.028760 -0.239823 0.897773
-0.027176 -0.239248 0.895619
-0.025618 -0.238834 0.894072
-0.024076 -0.238535 0.892950
-0.022556 -0.238420 0.892521
-0.021044 -0.238389 0.892404
-0.019542 -0.238464 0.892684
-0.018033 -0.238466 0.892694
-0.016525 -0.238487 0.892770
-0.015012 -0.238419 0.892518
-0.013501 -0.238393 0.892421
-0.011991 -0.238366 0.892318
-0.010479 -0.238292 0.892042
-0.008961 -0.238006 0.890972
-0.007441 -0.237582 0.889384
-0.005929 -0.237249 0.888138
-0.004424 -0.237057 0.887416
-0.002923 -0.236962 0.887063
-0.001424 -0.237089 0.887536
0.000076 -0.237328 0.888434
0.001579 -0.237442 0.888859
0.003083 -0.237513 0.889124
0.004590 -0.237728 0.889931
0.006101 -0.237963 0.890811
0.007614 -0.238201 0.891699
0.009130 -0.238421 0.892525
0.010645 -0.238558 0.893035
0.012159 -0.238651 0.893385
0.013678 -0.238800 0.893943
0.015204 -0.239031 0.894807
0.016733 -0.239264 0.895679
0.018275 -0.239629 0.897047
0.019820 -0.239975 0.898343
0.021375 -0.240380 0.899857
0.022967 -0.241120 0.902627
0.024588 -0.242055 0.906129
0.026320 -0.245460 0.913082
0.026213 -0.242924 0.909381
0.027988 -0.246556 0.917157
0.027854 -0.243830 0.912773
0.029601 -0.247077 0.919096
0.029476 -0.244484 0.915219
0.031184 -0.247310 0.919963
0.031060 -0.244773 0.916304
0.032628 -0.244916 0.916836
-0.044997 -0.244051 0.919434
-0.043417 -0.243906 0.918889
-0.041835 -0.243738 0.918256
-0.040207 -0.243285 0.916548
-0.038580 -0.242792 0.914690
-0.036927 -0.242094 0.912063
-0.035269 -0.241304 0.909084
-0.033618 -0.240488 0.906013
-0.031988 -0.239749 0.903226
-0.030375 -0.239068 0.900662
-0.028774 -0.238425 0.898238
-0.027196 -0.237898 0.896255
-0.025639 -0.237516 0.894814
-0.024099 -0.237244 0.893788
-0.022577 -0.237130 0.893359
-0.021065 -0.237113 0.893298
-0.019559 -0.237163 0.893483
-0.018047 -0.237141 0.893401
-0.016537 -0.237137 0.893385
-0.015022 -0.237067 0.893124
-0.013509 -0.237021 0.892948
-0.011997 -0.236975 0.892775
-0.010484 -0.236882 0.892428
-0.008966 -0.236626 0.891463
-0.007446 -0.236232 0.889978
-0.005932 -0.235863 0.888588
-0.004426 -0.235622 0.887680
-0.002923 -0.235493 0.887192
-0.001424 -0.235539 0.887365
0.000076 -0.235709 0.888007
0.001578 -0.235822 0.888432
0.003081 -0.235891 0.888691
0.004588 -0.236125 0.889575
0.006099 -0.236382 0.890540
0.007613 -0.236642 0.891521
0.009129 -0.236885 0.892437
0.010645 -0.237044 0.893035
0.012158 -0.237113 0.893297
0.013677 -0.237257 0.893839
0.015202 -0.237484 0.894694
0.016733 -0.237738 0.895652
0.018275 -0.238106 0.897038
0.019820 -0.238451 0.898336
0.021374 -0.238848 0.899832
0.022943 -0.239342 0.901694
0.024531 -0.239967 0.904050
0.026122 -0.240538 0.906198
0.027727 -0.241178 0.908610
0.029333 -0.241755 0.910783
0.030912 -0.242065 0.911951
0.032484 -0.242284 0.912778
-0.045071 -0.242893 0.920955
-0.043450 -0.242535 0.919596
-0.041850 -0.242268 0.918585
-0.040219 -0.241799 0.916805
-0.038598 -0.241354 0.915120
-0.036948 -0.240688 0.912594
-0.035300 -0.239973 0.909881
-0.033652 -0.239189 0.906908
-0.032024 -0.238481 0.904225
-0.030409 -0.237807 0.901669
-0.028810 -0.237192 0.899336
-0.027230 -0.236677 0.897383
-0.025675 -0.236324 0.896048
-0.024135 -0.236078 0.895112
-0.022610 -0.235960 0.894664
-0.021094 -0.235916 0.894498
-0.019582 -0.235916 0.894500
-0.018064 -0.235842 0.894220
-0.016547 -0.235768 0.893937
-0.015029 -0.235670 0.893565
-0.013515 -0.235598 0.893294
-0.012002 -0.235552 0.893117
-0.010487 -0.235441 0.892696
-0.008972 -0.235277 0.892077
-0.007454 -0.234966 0.890896
-0.005939 -0.234616 0.889570
-0.004430 -0.234352 0.888567
-0.002926 -0.234205 0.888011
-0.001424 -0.234148 0.887795
0.000076 -0.234225 0.888088
0.001578 -0.234316 0.888432
0.003081 -0.234360 0.888601
0.004587 -0.234569 0.889392
0.006097 -0.234797 0.890255
0.007609 -0.235035 0.891159
0.009125 -0.235278 0.892081
0.010642 -0.235461 0.892775
0.012155 -0.235530 0.893036
0.013672 -0.235671 0.893572
0.015197 -0.235890 0.894400
0.016727 -0.236143 0.895359
0.018269 -0.236511 0.896754
0.019814 -0.236857 0.898065
0.021368 -0.237249 0.899554
0.022929 -0.237666 0.901133
0.024493 -0.238067 0.902654
0.026056 -0.238402 0.903926
0.027633 -0.238824 0.905526
0.029233 -0.239391 0.907674
0.030804 -0.239678 0.908764
0.032381 -0.239974 0.909884
-0.045170 -0.241859 0.922964
-0.043516 -0.241342 0.920992
-0.041885 -0.240915 0.919361
-0.040248 -0.240419 0.917469
-0.038622 -0.239956 0.915704
-0.036968 -0.239271 0.913090
-0.035323 -0.238586 0.910475
-0.033684 -0.237880 0.907780
-0.032058 -0.237206 0.905209
-0.030445 -0.236564 0.902757
-0.028850 -0.235996 0.900590
-0.027270 -0.235504 0.898713
-0.025711 -0.235136 0.897309
-0.024167 -0.234873 0.896304
-0.022640 -0.234752 0.895844
-0.021119 -0.234681 0.895571
-0.019601 -0.234631 0.895383
-0.018080 -0.234533 0.895008
-0.016558 -0.234408 0.894530
-0.015036 -0.234256 0.893952
-0.013517 -0.234133 0.893483
-0.012002 -0.234039 0.893124
-0.010486 -0.233904 0.892606
-0.008973 -0.233786 0.892156
-0.007456 -0.233528 0.891173
-0.005942 -0.233217 0.889986
-0.004433 -0.232984 0.889096
-0.002928 -0.232827 0.888499
-0.001425 -0.232717 0.888076
0.000076 -0.232742 0.888175
0.001578 -0.232810 0.888432
0.003081 -0.232831 0.888513
0.004586 -0.233013 0.889207
0.006095 -0.233212 0.889968
0.007606 -0.233424 0.890774
0.009121 -0.233644 0.891615
0.010637 -0.233850 0.892400
0.012150 -0.233921 0.892672
0.013667 -0.234063 0.893216
0.015191 -0.234278 0.894035
0.016722 -0.234548 0.895066
0.018263 -0.234914 0.896460
0.019808 -0.235264 0.897796
0.021359 -0.235633 0.899205
0.022913 -0.235976 0.900515
0.024464 -0.236249 0.901555
0.026009 -0.236446 0.902309
0.027562 -0.236679 0.903198
0.029139 -0.237088 0.904758
0.030710 -0.237411 0.905989
0.032280 -0.237693 0.907067
0.033860 -0.238018 0.908305
-0.046930 -0.241324 0.926920
-0.045263 -0.240791 0.924871
-0.043592 -0.240201 0.922604
-0.041937 -0.239654 0.920506
-0.040292 -0.239126 0.918476
-0.038663 -0.238658 0.916681
-0.037016 -0.238026 0.914253
-0.035366 -0.237331 0.911581
-0.033729 -0.236653 0.908980
-0.032104 -0.236004 0.906485
-0.030485 -0.235342 0.903943
-0.028885 -0.234754 0.901685
-0.027311 -0.234326 0.900042
-0.025749 -0.233957 0.898623
-0.024200 -0.233672 0.897529
-0.022671 -0.233550 0.897059
-0.021146 -0.233457 0.896701
-0.019620 -0.233342 0.896260
-0.018095 -0.233219 0.895790
-0.016569 -0.233043 0.895111
-0.015042 -0.232844 0.894346
-0.013519 -0.232647 0.893593
-0.012001 -0.232503 0.893039
-0.010484 -0.232340 0.892412
-0.008971 -0.232240 0.892028
-0.007457 -0.232030 0.891221
-0.005943 -0.231771 0.890225
-0.004434 -0.231570 0.889454
-0.002929 -0.231417 0.888869
-0.001425 -0.231281 0.888345
0.000076 -0.231260 0.888264
0.001578 -0.231304 0.888432
0.003080 -0.231304 0.888432
0.004585 -0.231459 0.889029
0.006093 -0.231630 0.889685
0.007603 -0.231810 0.890378
0.009116 -0.232026 0.891206
0.010634 -0.232254 0.892081
0.012146 -0.232333 0.892385
0.013663 -0.232477 0.892939
0.015185 -0.232667 0.893669
0.016713 -0.232911 0.894606
0.018252 -0.233252 0.895914
0.019798 -0.233623 0.897341
0.021349 -0.233994 0.898764
0.022901 -0.234332 0.900065
0.024446 -0.234549 0.900897
0.025981 -0.234664 0.901338
0.027517 -0.234768 0.901740
0.029076 -0.235046 0.902806
0.030645 -0.235370 0.904050
0.032208 -0.235623 0.905021
0.033785 -0.235952 0.906287
-0.053629 -0.243275 0.934415
-0.055241 -0.241835 0.934969
-0.053595 -0.241539 0.933825
-0.052004 -0.243067 0.933615
-0.051971 -0.241328 0.933011
-0.050371 -0.242804 0.932605
-0.050340 -0.241075 0.932031
-0.048657 -0.242121 0.929981
-0.048675 -0.240632 0.930321
-0.046984 -0.240027 0.927979
-0.045324 -0.239546 0.926118
-0.043654 -0.238975 0.923912
-0.041989 -0.238390 0.921651
-0.040336 -0.237831 0.919489
-0.038706 -0.237363 0.917680
-0.037067 -0.236809 0.915537
-0.035423 -0.236161 0.913034
-0.033780 -0.235469 0.910356
-0.032151 -0.234814 0.907827
-0.030524 -0.234105 0.905084
-0.028915 -0.233468 0.902623
-0.027336 -0.233020 0.900889
-0.025775 -0.232675 0.899554
-0.024225 -0.232388 0.898446
-0.022694 -0.232264 0.897967
-0.021167 -0.232168 0.897596
-0.019636 -0.232010 0.896984
-0.018108 -0.231867 0.896430
-0.016577 -0.231646 0.895576
-0.015049 -0.231421 0.894708
-0.013520 -0.231156 0.893685
-0.012000 -0.230964 0.892940
-0.010480 -0.230753 0.892125
-0.008967 -0.230626 0.891632
-0.007454 -0.230438 0.890905
-0.005942 -0.230227 0.890091
-0.004434 -0.230055 0.889426
-0.002929 -0.229931 0.888948
-0.001426 -0.229819 0.888514
0.000076 -0.229777 0.888351
0.001578 -0.229798 0.888432
0.003080 -0.229798 0.888432
0.004585 -0.229929 0.888941
0.006092 -0.230074 0.889500
0.007600 -0.230227 0.890090
0.009113 -0.230438 0.890906
0.010630 -0.230666 0.891788
0.012143 -0.230769 0.892186
0.013660 -0.230916 0.892755
0.015180 -0.231081 0.893393
0.016704 -0.231272 0.894131
0.018239 -0.231563 0.895258
0.019782 -0.231910 0.896598
0.021330 -0.232259 0.897947
0.022878 -0.232573 0.899161
0.024416 -0.232740 0.899808
0.025940 -0.232763 0.899897
0.027458 -0.232734 0.899784
0.028998 -0.232885 0.900369
0.030562 -0.233209 0.901622
0.032114 -0.233407 0.902387
0.033691 -0.233766 0.903773
-0.058416 -0.241892 0.935192
-0.059872 -0.239808 0.933249
-0.058331 -0.239956 0.933823
-0.056821 -0.241834 0.934968
-0.056757 -0.239975 0.933901
-0.055178 -0.239974 0.933896
-0.053538 -0.239701 0.932831
-0.051915 -0.239492 0.932019
-0.050293 -0.239271 0.931160
-0.048663 -0.238994 0.930082
-0.047004 -0.238554 0.928367
-0.045363 -0.238181 0.926919
-0.043705 -0.237685 0.924989
-0.042038 -0.237100 0.922711
-0.040379 -0.236521 0.920459
-0.038746 -0.236056 0.918649
-0.037111 -0.235533 0.916614
-0.035469 -0.234923 0.914238
-0.033827 -0.234255 0.911638
-0.032191 -0.233565 0.908954
-0.030557 -0.232822 0.906064
-0.028940 -0.232141 0.903414
-0.027355 -0.231653 0.901512
-0.025791 -0.231292 0.900107
-0.024242 -0.231029 0.899083
-0.022710 -0.230903 0.898596
-0.021181 -0.230807 0.898221
-0.019649 -0.230647 0.897599
-0.018121 -0.230503 0.897036
-0.016585 -0.230239 0.896010
-0.015053 -0.229972 0.894971
-0.013522 -0.229662 0.893765
-0.011998 -0.229422 0.892832
-0.010478 -0.229186 0.891911
-0.008964 -0.229040 0.891343
-0.007452 -0.228854 0.890618
-0.005942 -0.228708 0.890052
-0.004435 -0.228586 0.889577
-0.002930 -0.228469 0.889122
-0.001426 -0.228379 0.888772
0.000076 -0.228335 0.888601
0.001579 -0.228313 0.888513
0.003080 -0.228292 0.888432
0.004584 -0.228402 0.888859
0.006090 -0.228523 0.889330
0.007598 -0.228651 0.889830
0.009111 -0.228860 0.890642
0.010627 -0.229089 0.891533
0.012141 -0.229216 0.892030
0.013658 -0.229360 0.892591
0.015177 -0.229519 0.893206
0.016697 -0.229657 0.893745
0.018227 -0.229892 0.894661
0.019764 -0.230188 0.895811
0.021307 -0.230489 0.896984
0.022850 -0.230759 0.898035
0.024386 -0.230925 0.898681
0.025907 -0.230949 0.898772
0.027426 -0.230942 0.898747
0.028956 -0.231025 0.899067
0.030506 -0.231255 0.899966
0.032044 -0.231376 0.900434
-0.059796 -0.237924 0.932064
-0.058264 -0.238101 0.932761
-0.056693 -0.238124 0.932850
-0.055110 -0.238100 0.932757
-0.053476 -0.237844 0.931752
-0.051849 -0.237609 0.930832
-0.050231 -0.237398 0.930004
-0.048617 -0.237196 0.929215
-0.046984 -0.236879 0.927974
-0.045355 -0.236568 0.926756
-0.043712 -0.236155 0.925135
-0.042054 -0.235626 0.923065
-0.040399 -0.235079 0.920923
-0.038767 -0.234623 0.919135
-0.037138 -0.234153 0.917291
-0.035503 -0.233597 0.915113
-0.033854 -0.232892 0.912353
-0.032213 -0.232185 0.909583
-0.030572 -0.231404 0.906523
-0.028951 -0.230696 0.903750
-0.027363 -0.230192 0.901777
-0.025804 -0.229883 0.900567
-0.024257 -0.229648 0.899647
-0.022724 -0.229524 0.899160
-0.021195 -0.229427 0.898778
-0.019660 -0.229246 0.898069
-0.018130 -0.229100 0.897496
-0.016592 -0.228815 0.896381
-0.015056 -0.228504 0.895162
-0.013522 -0.228148 0.893767
-0.011996 -0.227861 0.892644
-0.010474 -0.227582 0.891552
-0.008961 -0.227438 0.890989
-0.007449 -0.227279 0.890364
-0.005941 -0.227164 0.889912
-0.004435 -0.227086 0.889610
-0.002930 -0.226993 0.889243
-0.001426 -0.226903 0.888890
0.000076 -0.226855 0.888704
0.001579 -0.226829 0.888601
0.003080 -0.226786 0.888432
0.004584 -0.226895 0.888859
0.006090 -0.227015 0.889330
0.007598 -0.227143 0.889830
0.009110 -0.227331 0.890567
0.010626 -0.227557 0.891455
0.012140 -0.227684 0.891952
0.013654 -0.227785 0.892349
0.015171 -0.227918 0.892866
0.016688 -0.228025 0.893286
0.018212 -0.228186 0.893917
0.019743 -0.228426 0.894858
0.021281 -0.228696 0.895915
0.022816 -0.228897 0.896705
0.024347 -0.229039 0.897258
0.025866 -0.229059 0.897338
0.027380 -0.229033 0.897235
0.028896 -0.229030 0.897225
0.030428 -0.229142 0.897663
0.031960 -0.229241 0.898052
-0.061199 -0.235677 0.929437
-0.059701 -0.235965 0.930570
-0.058168 -0.236129 0.931219
-0.056602 -0.236163 0.931351
-0.055007 -0.236078 0.931016
-0.053381 -0.235848 0.930110
-0.051763 -0.235636 0.929275
-0.050153 -0.235455 0.928560
-0.048553 -0.235307 0.927978
-0.046941 -0.235092 0.927127
-0.045325 -0.234840 0.926133
-0.043697 -0.234504 0.924811
-0.042057 -0.234078 0.923131
-0.040415 -0.233607 0.921273
-0.038790 -0.233205 0.919688
-0.037175 -0.232826 0.918191
-0.035549 -0.232345 0.916296
-0.033886 -0.231565 0.913220
-0.032234 -0.230794 0.910178
-0.030589 -0.229988 0.907001
-0.028960 -0.229232 0.904020
-0.027367 -0.228692 0.901889
-0.025815 -0.228455 0.900955
-0.024272 -0.228269 0.900221
-0.022739 -0.228148 0.899746
-0.021207 -0.228031 0.899283
-0.019669 -0.227829 0.898484
-0.018138 -0.227680 0.897897
-0.016596 -0.227355 0.896616
-0.015057 -0.226996 0.895200
-0.013520 -0.226612 0.893687
-0.011992 -0.226279 0.892374
-0.010468 -0.225958 0.891108
-0.008956 -0.225817 0.890551
-0.007447 -0.225683 0.890024
-0.005940 -0.225594 0.889673
-0.004435 -0.225567 0.889565
-0.002931 -0.225520 0.889379
-0.001427 -0.225471 0.889188
0.000076 -0.225420 0.888986
0.001579 -0.225411 0.888949
0.003081 -0.225345 0.888688
0.004585 -0.225432 0.889031
0.006091 -0.225530 0.889418
0.007599 -0.225655 0.889911
0.009110 -0.225819 0.890561
0.010625 -0.226023 0.891364
0.012138 -0.226147 0.891852
0.013651 -0.226225 0.892161
0.015165 -0.226314 0.892511
0.016677 -0.226355 0.892673
0.018195 -0.226464 0.893104
0.019719 -0.226631 0.893761
0.021253 -0.226871 0.894706
0.022782 -0.227042 0.895383
0.024311 -0.227177 0.895916
0.025827 -0.227194 0.895982
0.027338 -0.227166 0.895871
0.028850 -0.227145 0.895789
0.030361 -0.227119 0.895687
0.031895 -0.227263 0.896254
0.033452 -0.227542 0.897352
-0.072308 -0.231009 0.911027
-0.073750 -0.229159 0.909814
-0.072287 -0.229398 0.910763
-0.070813 -0.231156 0.911607
-0.070801 -0.229571 0.911448
-0.069323 -0.231327 0.912279
-0.069308 -0.229730 0.912081
-0.067838 -0.229976 0.913055
-0.062590 -0.235001 0.926769
-0.062469 -0.232979 0.924981
-0.061078 -0.233637 0.927591
-0.059609 -0.234026 0.929138
-0.058072 -0.234163 0.929678
-0.056510 -0.234205 0.929849
-0.054908 -0.234074 0.929327
-0.053289 -0.233865 0.928498
-0.051668 -0.233633 0.927575
-0.050067 -0.233482 0.926977
-0.048476 -0.233367 0.926518
-0.046878 -0.233207 0.925883
-0.045274 -0.233008 0.925093
-0.043657 -0.232725 0.923970
-0.042031 -0.232372 0.922569
-0.040399 -0.231958 0.920926
-0.038784 -0.231608 0.919537
-0.037173 -0.231258 0.918147
-0.035548 -0.230784 0.916265
-0.033881 -0.229985 0.913092
-0.032226 -0.229194 0.909951
-0.030583 -0.228406 0.906822
-0.028957 -0.227682 0.903948
-0.027370 -0.227193 0.902006
-0.025824 -0.227007 0.901269
-0.024286 -0.226868 0.900717
-0.022751 -0.226746 0.900232
-0.021216 -0.226607 0.899680
-0.019676 -0.226382 0.898788
-0.018141 -0.226193 0.898036
-0.016595 -0.225821 0.896562
-0.015053 -0.225418 0.894959
-0.013515 -0.225008 0.893334
-0.011986 -0.224650 0.891912
-0.010463 -0.224330 0.890640
-0.008953 -0.224210 0.890163
-0.007444 -0.224098 0.889721
-0.005938 -0.224035 0.889469
-0.004435 -0.224055 0.889548
-0.002931 -0.224033 0.889462
-0.001427 -0.223992 0.889301
0.000076 -0.223942 0.889102
0.001580 -0.223933 0.889065
0.003081 -0.223845 0.888713
0.004585 -0.223929 0.889049
0.006092 -0.224045 0.889509
0.007600 -0.224190 0.890087
0.009112 -0.224352 0.890730
0.010627 -0.224552 0.891521
0.012140 -0.224669 0.891986
0.013652 -0.224724 0.892207
0.015165 -0.224791 0.892472
0.016675 -0.224809 0.892543
0.018189 -0.224875 0.892806
0.019707 -0.224971 0.893187
0.021232 -0.225139 0.893855
0.022754 -0.225243 0.894265
0.024275 -0.225332 0.894617
0.025787 -0.225324 0.894586
0.027296 -0.225295 0.894474
0.028805 -0.225273 0.894384
0.030316 -0.225270 0.894371
0.031858 -0.225481 0.895209
0.033423 -0.225829 0.896592
0.035009 -0.227806 0.898396
0.034990 -0.226159 0.897902
0.036579 -0.228122 0.899641
0.036567 -0.226526 0.899361
0.038162 -0.226966 0.901106
-0.076572 -0.228403 0.906811
-0.077850 -0.226125 0.903851
-0.076485 -0.226607 0.905778
-0.075163 -0.228778 0.908298
-0.075093 -0.227029 0.907463
-0.073697 -0.227453 0.909160
-0.072251 -0.227740 0.910305
-0.070778 -0.227952 0.911154
-0.069291 -0.228127 0.911854
-0.067821 -0.228371 0.912827
-0.066367 -0.230227 0.914054
-0.066355 -0.228637 0.913891
-0.065091 -0.231184 0.917853
-0.065043 -0.229458 0.917172
-0.063714 -0.230260 0.920378
-0.062380 -0.231081 0.923659
-0.060983 -0.231704 0.926151
-0.059525 -0.232126 0.927839
-0.057989 -0.232256 0.928358
-0.056426 -0.232281 0.928457
-0.054821 -0.232131 0.927855
-0.053204 -0.231922 0.927021
-0.051590 -0.231713 0.926186
-0.049993 -0.231567 0.925602
-0.048410 -0.231480 0.925254
-0.046819 -0.231348 0.924726
-0.045226 -0.231196 0.924119
-0.043616 -0.230940 0.923098
-0.042004 -0.230660 0.921979
-0.040383 -0.230301 0.920543
-0.038777 -0.230007 0.919365
-0.037175 -0.229711 0.918183
-0.035558 -0.229299 0.916535
-0.033894 -0.228525 0.913442
-0.032238 -0.227735 0.910284
-0.030596 -0.226968 0.907219
-0.028970 -0.226250 0.904349
-0.027381 -0.225753 0.902364
-0.025835 -0.225577 0.901659
-0.024298 -0.225457 0.901182
-0.022762 -0.225334 0.900688
-0.021224 -0.225171 0.900038
-0.019681 -0.224922 0.899041
-0.018144 -0.224706 0.898178
-0.016595 -0.224293 0.896527
-0.015049 -0.223847 0.894744
-0.013510 -0.223415 0.893017
-0.011981 -0.223039 0.891514
-0.010457 -0.222700 0.890161
-0.008948 -0.222579 0.889676
-0.007441 -0.222489 0.889318
-0.005936 -0.222446 0.889146
-0.004434 -0.222491 0.889323
-0.002930 -0.222497 0.889348
-0.001427 -0.222482 0.889290
0.000077 -0.222438 0.889114
0.001580 -0.222431 0.889086
0.003081 -0.222341 0.888726
0.004586 -0.222426 0.889065
0.006092 -0.222540 0.889520
0.007601 -0.222707 0.890187
0.009113 -0.222870 0.890840
0.010628 -0.223068 0.891630
0.012142 -0.223181 0.892085
0.013653 -0.223231 0.892281
0.015164 -0.223276 0.892464
0.016674 -0.223294 0.892533
0.018187 -0.223335 0.892699
0.019700 -0.223385 0.892897
0.021221 -0.223506 0.893381
0.022735 -0.223540 0.893517
0.024250 -0.223585 0.893697
0.025760 -0.223577 0.893666
0.027270 -0.223571 0.893641
0.028778 -0.223550 0.893557
0.030297 -0.223612 0.893804
0.031846 -0.223876 0.894859
0.033414 -0.224248 0.896347
0.034983 -0.224589 0.897711
0.036559 -0.224952 0.899160
0.038150 -0.225371 0.900835
0.039704 -0.225546 0.901535
0.041252 -0.227204 0.902052
0.041245 -0.225637 0.901898
0.042781 -0.225699 0.902148
0.044309 -0.227241 0.902199
0.044312 -0.225726 0.902256
0.045857 -0.227353 0.902645
0.045860 -0.225840 0.902710
0.047411 -0.227488 0.903178
0.047420 -0.226002 0.903359
0.048944 -0.227518 0.903297
0.048972 -0.226118 0.903824
0.050485 -0.227579 0.903539
0.050544 -0.226312 0.904599
0.052086 -0.227904 0.904830
0.052154 -0.226666 0.906012
0.053679 -0.228173 0.905900
0.053754 -0.226954 0.907166
-0.079170 -0.224004 0.901481
-0.077748 -0.224296 0.902657
-0.076359 -0.224701 0.904286
-0.074968 -0.225113 0.905944
-0.073590 -0.225585 0.907844
-0.072170 -0.225943 0.909284
-0.070722 -0.226231 0.910442
-0.069255 -0.226464 0.911381
-0.067790 -0.226720 0.912409
-0.066330 -0.226999 0.913534
-0.064968 -0.227639 0.916108
-0.063613 -0.228335 0.918912
-0.062259 -0.229070 0.921867
-0.060869 -0.229704 0.924418
-0.059424 -0.230159 0.926252
-0.057896 -0.230313 0.926871
-0.056337 -0.230343 0.926993
-0.054739 -0.230216 0.926479
-0.053131 -0.230031 0.925737
-0.051519 -0.229826 0.924911
-0.049919 -0.229658 0.924236
-0.048342 -0.229589 0.923958
-0.046757 -0.229476 0.923504
-0.045167 -0.229329 0.922911
-0.043568 -0.229122 0.922078
-0.041967 -0.228897 0.921171
-0.040356 -0.228588 0.919928
-0.038759 -0.228346 0.918954
-0.037169 -0.228122 0.918052
-0.035565 -0.227786 0.916699
-0.033901 -0.227023 0.913629
-0.032246 -0.226247 0.910507
-0.030608 -0.225516 0.907567
-0.028984 -0.224825 0.904786
-0.027393 -0.224317 0.902742
-0.025851 -0.224184 0.902204
-0.024311 -0.224043 0.901637
-0.022771 -0.223895 0.901043
-0.021228 -0.223687 0.900204
-0.019682 -0.223414 0.899105
-0.018140 -0.223133 0.897976
-0.016589 -0.222694 0.896207
-0.015042 -0.222225 0.894323
-0.013503 -0.221780 0.892531
-0.011973 -0.221390 0.890961
-0.010452 -0.221075 0.889691
-0.008943 -0.220956 0.889215
-0.007437 -0.220867 0.888857
-0.005933 -0.220826 0.888691
-0.004432 -0.220890 0.888949
-0.002929 -0.220918 0.889062
-0.001427 -0.220947 0.889177
0.000077 -0.220926 0.889092
0.001580 -0.220940 0.889148
0.003082 -0.220853 0.888801
0.004586 -0.220935 0.889130
0.006092 -0.221031 0.889517
0.007601 -0.221201 0.890198
0.009112 -0.221349 0.890795
0.010627 -0.221526 0.891509
0.012140 -0.221637 0.891954
0.013651 -0.221685 0.892149
0.015162 -0.221729 0.892326
0.016672 -0.221749 0.892406
0.018182 -0.221768 0.892481
0.019693 -0.221790 0.892570
0.021209 -0.221859 0.892849
0.022717 -0.221846 0.892798
0.024230 -0.221887 0.892960
0.025742 -0.221902 0.893023
0.027249 -0.221882 0.892939
0.028756 -0.221863 0.892866
0.030274 -0.221926 0.893118
0.031821 -0.222185 0.894162
0.033388 -0.222556 0.895654
0.034964 -0.222951 0.897242
0.036546 -0.223348 0.898840
0.038137 -0.223767 0.900526
0.039692 -0.223951 0.901266
0.041235 -0.224057 0.901696
0.042775 -0.224136 0.902011
0.044309 -0.224184 0.902205
0.045862 -0.224318 0.902746
0.047427 -0.224503 0.903489
0.048999 -0.224707 0.904308
0.050598 -0.225019 0.905563
0.052225 -0.225434 0.907234
0.053840 -0.225774 0.908605
0.055895 -0.229446 0.917125
0.055460 -0.226119 0.909991
-0.082117 -0.223729 0.900372
-0.083608 -0.222118 0.900029
-0.082104 -0.222166 0.900225
-0.080618 -0.223793 0.900633
-0.080597 -0.222207 0.900392
-0.079115 -0.222321 0.900855
-0.077672 -0.222550 0.901779
-0.076260 -0.222879 0.903113
-0.074856 -0.223243 0.904589
-0.073474 -0.223694 0.906415
-0.072079 -0.224118 0.908136
-0.070647 -0.224449 0.909476
-0.069190 -0.224709 0.910527
-0.067732 -0.224981 0.911631
-0.066287 -0.225306 0.912947
-0.064907 -0.225873 0.915246
-0.063527 -0.226470 0.917667
-0.062152 -0.227117 0.920287
-0.060752 -0.227700 0.922649
-0.059310 -0.228151 0.924478
-0.057786 -0.228305 0.925101
-0.056234 -0.228355 0.925304
-0.054646 -0.228256 0.924901
-0.053041 -0.228075 0.924169
-0.051438 -0.227896 0.923442
-0.049839 -0.227725 0.922749
-0.048264 -0.227655 0.922467
-0.046685 -0.227559 0.922078
-0.045102 -0.227437 0.921584
-0.043515 -0.227282 0.920957
-0.041930 -0.227131 0.920343
-0.040336 -0.226918 0.919479
-0.038753 -0.226751 0.918802
-0.037178 -0.226620 0.918273
-0.035582 -0.226341 0.917142
-0.033926 -0.225636 0.914288
-0.032272 -0.224886 0.911245
-0.030631 -0.224151 0.908266
-0.029006 -0.223459 0.905463
-0.027410 -0.222928 0.903314
-0.025865 -0.222772 0.902681
-0.024323 -0.222629 0.902100
-0.022783 -0.222479 0.901495
-0.021233 -0.222210 0.900403
-0.019686 -0.221935 0.899288
-0.018136 -0.221566 0.897794
-0.016582 -0.221082 0.895831
-0.015034 -0.220594 0.893856
-0.013497 -0.220172 0.892146
-0.011968 -0.219791 0.890601
-0.010452 -0.219563 0.889679
-0.008944 -0.219468 0.889293
-0.007437 -0.219381 0.888941
-0.005934 -0.219361 0.888859
-0.004433 -0.219424 0.889115
-0.002930 -0.219451 0.889222
-0.001427 -0.219497 0.889410
0.000077 -0.219498 0.889415
0.001580 -0.219493 0.889395
0.003082 -0.219407 0.889044
0.004587 -0.219467 0.889287
0.006092 -0.219541 0.889587
0.007601 -0.219689 0.890187
0.009112 -0.219835 0.890782
0.010626 -0.219994 0.891422
0.012137 -0.220082 0.891782
0.013649 -0.220150 0.892058
0.015161 -0.220198 0.892251
0.016669 -0.220202 0.892267
0.018179 -0.220218 0.892333
0.019689 -0.220234 0.892397
0.021198 -0.220235 0.892400
0.022705 -0.220216 0.892324
0.024220 -0.220275 0.892564
0.025733 -0.220314 0.892720
0.027243 -0.220321 0.892748
0.028756 -0.220348 0.892857
0.030275 -0.220416 0.893133
0.031816 -0.220633 0.894015
0.033377 -0.220960 0.895338
0.034944 -0.221302 0.896725
0.036526 -0.221700 0.898337
0.038109 -0.222078 0.899867
0.039667 -0.222284 0.900703
0.041217 -0.222427 0.901283
0.042766 -0.222564 0.901838
0.044309 -0.222655 0.902206
0.045866 -0.222809 0.902832
0.047441 -0.223039 0.903762
0.049023 -0.223286 0.904763
0.050634 -0.223642 0.906206
0.052263 -0.224062 0.907909
0.053885 -0.224421 0.909363
0.055505 -0.224759 0.910734
0.057619 -0.228580 0.919897
0.057128 -0.225088 0.912064
-0.083608 -0.220592 0.900029
-0.082094 -0.220615 0.900123
-0.080580 -0.220634 0.900202
-0.079081 -0.220700 0.900468
-0.077614 -0.220855 0.901104
-0.076170 -0.221087 0.902047
-0.074750 -0.221397 0.903313
-0.073356 -0.221798 0.904950
-0.071963 -0.222222 0.906682
-0.070537 -0.222558 0.908053
-0.069095 -0.222860 0.909284
-0.067641 -0.223133 0.910398
-0.066204 -0.223478 0.911806
-0.064819 -0.224018 0.914006
-0.063440 -0.224608 0.916414
-0.062060 -0.225220 0.918913
-0.060659 -0.225789 0.921233
-0.059211 -0.226207 0.922939
-0.057690 -0.226361 0.923566
-0.056146 -0.226433 0.923860
-0.054567 -0.226360 0.923565
-0.052970 -0.226207 0.922938
-0.051370 -0.226032 0.922226
-0.049773 -0.225863 0.921535
-0.048195 -0.225766 0.921141
-0.046619 -0.225674 0.920764
-0.045043 -0.225580 0.920382
-0.043468 -0.225479 0.919970
-0.041894 -0.225380 0.919565
-0.040311 -0.225219 0.918909
-0.038741 -0.225121 0.918507
-0.037172 -0.225024 0.918114
-0.035581 -0.224783 0.917127
-0.033936 -0.224154 0.914563
-0.032292 -0.223477 0.911801
-0.030650 -0.222750 0.908832
-0.029027 -0.222083 0.906113
-0.027428 -0.221544 0.903915
-0.025879 -0.221363 0.903175
-0.024334 -0.221196 0.902492
-0.022791 -0.221029 0.901812
-0.021238 -0.220737 0.900622
-0.019687 -0.220422 0.899336
-0.018129 -0.219966 0.897474
-0.016574 -0.219456 0.895396
-0.015026 -0.218963 0.893382
-0.013491 -0.218553 0.891712
-0.011966 -0.218242 0.890441
-0.010454 -0.218103 0.889875
-0.008947 -0.218033 0.889589
-0.007441 -0.217970 0.889330
-0.005937 -0.217970 0.889330
-0.004435 -0.218012 0.889501
-0.002931 -0.218016 0.889520
-0.001427 -0.218042 0.889626
0.000077 -0.218041 0.889622
0.001580 -0.217999 0.889448
0.003083 -0.217908 0.889079
0.004587 -0.217963 0.889302
0.006092 -0.218031 0.889580
0.007600 -0.218155 0.890087
0.009112 -0.218317 0.890746
0.010625 -0.218468 0.891364
0.012136 -0.218534 0.891633
0.013648 -0.218622 0.891993
0.015161 -0.218696 0.892294
0.016671 -0.218705 0.892330
0.018181 -0.218722 0.892400
0.019692 -0.218753 0.892526
0.021195 -0.218690 0.892269
0.022699 -0.218651 0.892109
0.024214 -0.218709 0.892348
0.025727 -0.218754 0.892529
0.027238 -0.218765 0.892575
0.028756 -0.218834 0.892857
0.030277 -0.218922 0.893215
0.031813 -0.219097 0.893931
0.033370 -0.219396 0.895151
0.034933 -0.219710 0.896429
0.036509 -0.220080 0.897939
0.038085 -0.220413 0.899301
0.039646 -0.220638 0.900216
0.041198 -0.220800 0.900876
0.042752 -0.220962 0.901539
0.044300 -0.221080 0.902020
0.045862 -0.221259 0.902752
0.047442 -0.221510 0.903774
0.049029 -0.221776 0.904860
0.050639 -0.222131 0.906308
0.052275 -0.222570 0.908101
0.053896 -0.222926 0.909550
0.055521 -0.223279 0.910994
0.057150 -0.223626 0.912409
0.059292 -0.227475 0.921736
0.058778 -0.223954 0.913744
-0.085129 -0.219066 0.900029
-0.083608 -0.219066 0.900029
-0.082086 -0.219066 0.900029
-0.080564 -0.219066 0.900029
-0.079043 -0.219066 0.900030
-0.077551 -0.219151 0.900379
-0.076076 -0.219287 0.900937
-0.074633 -0.219520 0.901894
-0.073209 -0.219825 0.903147
-0.071818 -0.220240 0.904853
-0.070395 -0.220576 0.906233
-0.068973 -0.220926 0.907670
-0.067535 -0.221245 0.908980
-0.066114 -0.221630 0.910562
-0.064737 -0.222187 0.912852
-0.063371 -0.222811 0.915414
-0.061992 -0.223418 0.917906
-0.060598 -0.224002 0.920308
-0.059151 -0.224414 0.922001
-0.057630 -0.224562 0.922610
-0.056083 -0.224613 0.922820
-0.054511 -0.224564 0.922615
-0.052912 -0.224398 0.921934
-0.051319 -0.224246 0.921309
-0.049724 -0.224079 0.920624
-0.048147 -0.223984 0.920234
-0.046574 -0.223897 0.919877
-0.045005 -0.223828 0.919593
-0.043441 -0.223779 0.919391
-0.041877 -0.223728 0.919180
-0.040307 -0.223641 0.918825
-0.038746 -0.223595 0.918636
-0.037185 -0.223547 0.918440
-0.035614 -0.223433 0.917969
-0.033984 -0.222919 0.915858
-0.032345 -0.222295 0.913295
-0.030704 -0.221598 0.910431
-0.029077 -0.220928 0.907678
-0.027462 -0.220281 0.905020
-0.025903 -0.220033 0.904000
-0.024351 -0.219824 0.903141
-0.022805 -0.219639 0.902380
-0.021250 -0.219329 0.901109
-0.019696 -0.218990 0.899715
-0.018133 -0.218485 0.897639
-0.016575 -0.217952 0.895451
-0.015026 -0.217440 0.893348
-0.013493 -0.217077 0.891858
-0.011970 -0.216798 0.890708
-0.010459 -0.216692 0.890273
-0.008952 -0.216646 0.890086
-0.007446 -0.216604 0.889912
-0.005941 -0.216584 0.889830
-0.004437 -0.216605 0.889917
-0.002932 -0.216607 0.889927
-0.001428 -0.216630 0.890019
0.000077 -0.216631 0.890024
0.001581 -0.216567 0.889761
0.003084 -0.216475 0.889382
0.004588 -0.216502 0.889492
0.006092 -0.216525 0.889589
0.007599 -0.216604 0.889912
0.009109 -0.216740 0.890470
0.010620 -0.216866 0.890988
0.012129 -0.216908 0.891164
0.013641 -0.216995 0.891521
0.015154 -0.217069 0.891824
0.016662 -0.217081 0.891873
0.018171 -0.217100 0.891952
0.019682 -0.217133 0.892085
0.021184 -0.217069 0.891824
0.022688 -0.217032 0.891673
0.024202 -0.217093 0.891921
0.025718 -0.217160 0.892197
0.027230 -0.217191 0.892324
0.028751 -0.217282 0.892696
0.030274 -0.217386 0.893124
0.031806 -0.217536 0.893743
0.033355 -0.217784 0.894759
0.034910 -0.218046 0.895839
0.036478 -0.218370 0.897169
0.038049 -0.218683 0.898456
0.039613 -0.218931 0.899473
0.041172 -0.219136 0.900314
0.042734 -0.219340 0.901155
0.044291 -0.219504 0.901829
0.045858 -0.219708 0.902665
0.047438 -0.219959 0.903698
0.049023 -0.220218 0.904762
0.050633 -0.220568 0.906200
0.052263 -0.220982 0.907902
0.053885 -0.221338 0.909363
0.055510 -0.221690 0.910808
0.057139 -0.222035 0.912227
0.058778 -0.222405 0.913746
-0.085129 -0.217541 0.900029
-0.083608 -0.217541 0.900029
-0.082086 -0.217541 0.900029
-0.080557 -0.217521 0.899947
-0.079020 -0.217478 0.899768
-0.077505 -0.217495 0.899840
-0.075999 -0.217538 0.900018
-0.074517 -0.217653 0.900494
-0.073064 -0.217860 0.901349
-0.071652 -0.218201 0.902762
-0.070219 -0.218490 0.903955
-0.068806 -0.218859 0.905483
-0.067382 -0.219203 0.906907
-0.066009 -0.219736 0.909114
-0.064667 -0.220402 0.911869
-0.063330 -0.221116 0.914823
-0.061966 -0.221769 0.917523
-0.060589 -0.222411 0.920178
-0.059121 -0.222740 0.921542
-0.057589 -0.222840 0.921956
-0.056042 -0.222887 0.922147
-0.054471 -0.222837 0.921940
-0.052874 -0.222674 0.921269
-0.051283 -0.222527 0.920658
-0.049694 -0.222382 0.920060
-0.048118 -0.222286 0.919663
-0.046554 -0.222243 0.919483
-0.044991 -0.222201 0.919313
-0.043437 -0.222199 0.919303
-0.041878 -0.222175 0.919201
-0.040316 -0.222131 0.919020
-0.038755 -0.222089 0.918848
-0.037198 -0.222066 0.918752
-0.035626 -0.221953 0.918285
-0.034011 -0.221546 0.916599
-0.032382 -0.220999 0.914336
-0.030744 -0.220339 0.911605
-0.029118 -0.219696 0.908947
-0.027501 -0.219063 0.906330
-0.025931 -0.218743 0.905003
-0.024373 -0.218492 0.903964
-0.022824 -0.218288 0.903122
-0.021265 -0.217960 0.901763
-0.019707 -0.217593 0.900246
-0.018140 -0.217046 0.897985
-0.016579 -0.216489 0.895679
-0.015030 -0.215985 0.893592
-0.013498 -0.215651 0.892210
-0.011977 -0.215420 0.891256
-0.010467 -0.215359 0.891001
-0.008959 -0.215316 0.890827
-0.007452 -0.215293 0.890730
-0.005945 -0.215251 0.890558
-0.004440 -0.215270 0.890636
-0.002934 -0.215253 0.890564
-0.001429 -0.215272 0.890644
0.000077 -0.215253 0.890563
0.001582 -0.215167 0.890207
0.003085 -0.215034 0.889659
0.004589 -0.215037 0.889670
0.006093 -0.215038 0.889676
0.007598 -0.215075 0.889830
0.009107 -0.215189 0.890301
0.010617 -0.215292 0.890728
0.012124 -0.215312 0.890810
0.013634 -0.215377 0.891076
0.015146 -0.215447 0.891366
0.016653 -0.215458 0.891413
0.018162 -0.215478 0.891497
0.019672 -0.215512 0.891638
0.021174 -0.215453 0.891392
0.022679 -0.215435 0.891318
0.024193 -0.215495 0.891566
0.025710 -0.215582 0.891924
0.027224 -0.215634 0.892140
0.028748 -0.215745 0.892599
0.030268 -0.215829 0.892948
0.031796 -0.215955 0.893468
0.033337 -0.216151 0.894282
0.034886 -0.216383 0.895242
0.036454 -0.216703 0.896562
0.038025 -0.217019 0.897873
0.039592 -0.217291 0.898995
0.041159 -0.217538 0.900017
0.042725 -0.217764 0.900954
0.044282 -0.217931 0.901643
0.045853 -0.218155 0.902570
0.047432 -0.218401 0.903591
0.049012 -0.218636 0.904560
0.050621 -0.218978 0.905977
0.052246 -0.219370 0.907598
0.053867 -0.219725 0.909067
0.055493 -0.220077 0.910522
0.057132 -0.220462 0.912118
0.058779 -0.220858 0.913754
-0.086651 -0.216015 0.900029
-0.085129 -0.216015 0.900029
-0.083608 -0.216015 0.900029
-0.082078 -0.215995 0.899947
-0.080541 -0.215952 0.899768
-0.078995 -0.215884 0.899485
-0.077464 -0.215855 0.899363
-0.075935 -0.215830 0.899257
-0.074430 -0.215875 0.899448
-0.072941 -0.215967 0.899831
-0.071499 -0.216209 0.900838
-0.070045 -0.216422 0.901723
-0.068618 -0.216727 0.902996
-0.067185 -0.217031 0.904261
-0.065869 -0.217733 0.907189
-0.064568 -0.218521 0.910471
-0.063276 -0.219378 0.914040
-0.061959 -0.220191 0.917429
-0.060619 -0.220958 0.920624
-0.059132 -0.221218 0.921709
-0.057593 -0.221291 0.922013
-0.056038 -0.221306 0.922073
-0.054461 -0.221233 0.921768
-0.052860 -0.221052 0.921017
-0.051274 -0.220929 0.920505
-0.049689 -0.220803 0.919979
-0.048109 -0.220686 0.919492
-0.046549 -0.220663 0.919396
-0.044996 -0.220667 0.919413
-0.043446 -0.220690 0.919509
-0.041892 -0.220690 0.919507
-0.040337 -0.220686 0.919493
-0.038774 -0.220642 0.919310
-0.037216 -0.220618 0.919210
-0.035644 -0.220507 0.918745
-0.034043 -0.220194 0.917442
-0.032420 -0.219706 0.915407
-0.030785 -0.219089 0.912838
-0.029159 -0.218469 0.910252
-0.027542 -0.217851 0.907680
-0.025961 -0.217460 0.906048
-0.024399 -0.217188 0.904916
-0.022848 -0.216984 0.904065
-0.021285 -0.216634 0.902608
-0.019722 -0.216226 0.900907
-0.018154 -0.215697 0.898704
-0.016593 -0.215146 0.896408
-0.015042 -0.214650 0.894344
-0.013512 -0.214359 0.893128
-0.011992 -0.214170 0.892344
-0.010479 -0.214090 0.892008
-0.008969 -0.214044 0.891816
-0.007461 -0.214017 0.891706
-0.005951 -0.213953 0.891440
-0.004444 -0.213952 0.891436
-0.002937 -0.213913 0.891271
-0.001430 -0.213891 0.891178
0.000077 -0.213847 0.890995
0.001582 -0.213740 0.890551
0.003086 -0.213607 0.889999
0.004590 -0.213592 0.889935
0.006095 -0.213612 0.890016
0.007600 -0.213629 0.890086
0.009109 -0.213721 0.890472
0.010618 -0.213804 0.890816
0.012124 -0.213802 0.890810
0.013632 -0.213823 0.890897
0.015141 -0.213868 0.891083
0.016648 -0.213873 0.891106
0.018156 -0.213894 0.891194
0.019666 -0.213932 0.891350
0.021169 -0.213892 0.891185
0.022676 -0.213893 0.891188
0.024187 -0.213933 0.891356
0.025701 -0.213998 0.891624
0.027218 -0.214069 0.891921
0.028741 -0.214183 0.892397
0.030259 -0.214253 0.892687
0.031784 -0.214358 0.893124
0.033320 -0.214526 0.893825
0.034864 -0.214728 0.894667
0.036426 -0.215024 0.895899
0.038001 -0.215361 0.897306
0.039572 -0.215657 0.898537
0.041146 -0.215947 0.899747
0.042716 -0.216194 0.900776
0.044277 -0.216379 0.901547
0.045844 -0.216582 0.902393
0.047422 -0.216823 0.903397
0.048992 -0.217012 0.904182
0.050599 -0.217348 0.905583
0.052223 -0.217737 0.907206
0.053849 -0.218113 0.908770
0.055480 -0.218484 0.910317
0.057131 -0.218912 0.912101
0.058771 -0.219278 0.913624
-0.085129 -0.214489 0.900029
-0.083608 -0.214489 0.900029
-0.082070 -0.214448 0.899857
-0.080524 -0.214382 0.899577
-0.078969 -0.214289 0.899188
-0.077422 -0.214214 0.898872
-0.075878 -0.214146 0.898591
-0.074352 -0.214126 0.898505
-0.072827 -0.214108 0.898428
-0.071349 -0.214232 0.898949
-0.069867 -0.214346 0.899429
-0.068407 -0.214536 0.900227
-0.066952 -0.214750 0.901125
-0.065706 -0.215661 0.904947
-0.064466 -0.216637 0.909040
-0.063234 -0.217685 0.913441
-0.061976 -0.218694 0.917671
-0.060685 -0.219636 0.921626
-0.059172 -0.219804 0.922331
-0.057619 -0.219827 0.922426
-0.056050 -0.219790 0.922274
-0.054467 -0.219692 0.921862
-0.052860 -0.219493 0.921024
-0.051270 -0.219352 0.920434
-0.049681 -0.219205 0.919816
-0.048099 -0.219084 0.919311
-0.046540 -0.219060 0.919211
-0.044997 -0.219112 0.919427
-0.043457 -0.219187 0.919743
-0.041911 -0.219231 0.919925
-0.040362 -0.219266 0.920075
-0.038798 -0.219218 0.919870
-0.037232 -0.219152 0.919593
-0.035659 -0.219040 0.919124
-0.034067 -0.218798 0.918108
-0.032454 -0.218386 0.916380
-0.030826 -0.217830 0.914048
-0.029204 -0.217259 0.911650
-0.027587 -0.216659 0.909134
-0.025997 -0.216223 0.907303
-0.024428 -0.215907 0.905977
-0.022870 -0.215663 0.904953
-0.021306 -0.215313 0.903486
-0.019741 -0.214905 0.901774
-0.018175 -0.214423 0.899750
-0.016614 -0.213900 0.897556
-0.015065 -0.213453 0.895682
-0.013532 -0.213165 0.894472
-0.012009 -0.212972 0.893663
-0.010492 -0.212845 0.893128
-0.008980 -0.212776 0.892840
-0.007468 -0.212728 0.892638
-0.005957 -0.212642 0.892276
-0.004448 -0.212621 0.892189
-0.002939 -0.212556 0.891918
-0.001431 -0.212512 0.891734
0.000077 -0.212424 0.891364
0.001583 -0.212315 0.890908
0.003087 -0.212183 0.890352
0.004592 -0.212170 0.890297
0.006098 -0.212192 0.890391
0.007604 -0.212228 0.890540
0.009113 -0.212299 0.890838
0.010622 -0.212358 0.891085
0.012127 -0.212334 0.890985
0.013632 -0.212312 0.890891
0.015138 -0.212313 0.890897
0.016644 -0.212315 0.890906
0.018152 -0.212335 0.890988
0.019660 -0.212353 0.891067
0.021164 -0.212335 0.890988
0.022670 -0.212335 0.890988
0.024179 -0.212353 0.891067
0.025693 -0.212416 0.891330
0.027211 -0.212507 0.891711
0.028737 -0.212643 0.892282
0.030262 -0.212757 0.892761
0.031790 -0.212883 0.893291
0.033326 -0.213050 0.893988
0.034870 -0.213247 0.894818
0.036426 -0.213500 0.895878
0.037997 -0.213817 0.897210
0.039568 -0.214112 0.898445
0.041138 -0.214380 0.899573
0.042704 -0.214605 0.900516
0.044264 -0.214788 0.901281
0.045825 -0.214966 0.902031
0.047399 -0.215185 0.902947
