1707
0.038369 -0.090518 0.943672
0.039989 -0.090575 0.944261
0.041612 -0.090632 0.944855
0.043228 -0.090672 0.945279
0.044842 -0.090703 0.945599
0.046450 -0.090722 0.945793
0.048067 -0.090756 0.946156
0.049694 -0.090806 0.946675
0.051351 -0.090907 0.947731
0.053021 -0.091023 0.948936
0.054715 -0.091172 0.950488
0.056402 -0.091302 0.951847
0.058099 -0.091441 0.953292
0.059817 -0.091604 0.954988
0.061530 -0.091751 0.956524
0.063248 -0.091897 0.958046
0.064946 -0.092008 0.959209
0.066631 -0.092097 0.960127
0.068306 -0.092165 0.960846
-0.019569 -0.091279 0.968722
-0.017819 -0.090708 0.962666
-0.016173 -0.090603 0.961550
-0.014526 -0.090473 0.960171
-0.012885 -0.090346 0.958817
-0.011249 -0.090228 0.957568
-0.009620 -0.090128 0.956508
-0.007991 -0.089991 0.955053
-0.006365 -0.089834 0.953389
-0.004748 -0.089737 0.952355
-0.003135 -0.089654 0.951484
-0.001526 -0.089591 0.950808
0.000082 -0.089547 0.950346
0.001688 -0.089524 0.950100
0.003292 -0.089454 0.949352
0.004893 -0.089383 0.948599
0.006491 -0.089314 0.947866
0.008090 -0.089274 0.947442
0.009687 -0.089227 0.946945
0.011281 -0.089179 0.946435
0.012874 -0.089128 0.945893
0.014464 -0.089069 0.945266
0.016048 -0.088993 0.944459
0.017633 -0.088934 0.943836
0.019219 -0.088892 0.943395
0.020805 -0.088854 0.942990
0.022395 -0.088835 0.942791
0.023982 -0.088809 0.942511
0.025567 -0.088780 0.942207
0.027153 -0.088759 0.941981
0.028739 -0.088740 0.941775
0.030326 -0.088723 0.941595
0.031924 -0.088741 0.941791
0.033526 -0.088768 0.942081
0.035134 -0.088807 0.942486
0.036751 -0.088864 0.943098
0.038368 -0.088915 0.943640
0.039985 -0.088964 0.944153
0.041611 -0.089029 0.944841
0.043236 -0.089086 0.945448
0.044856 -0.089129 0.945909
0.046476 -0.089170 0.946338
0.048106 -0.089225 0.946922
0.049743 -0.089290 0.947613
0.051397 -0.089380 0.948570
0.053068 -0.089493 0.949771
0.054759 -0.089633 0.951256
0.056453 -0.089770 0.952710
0.058147 -0.089899 0.954080
0.059864 -0.090056 0.955745
0.061572 -0.090190 0.957170
0.063289 -0.090331 0.958666
0.064974 -0.090422 0.959625
0.066645 -0.090487 0.960321
0.068311 -0.090543 0.960916
-0.019594 -0.089753 0.969982
-0.017840 -0.089179 0.963778
-0.016191 -0.089076 0.962669
-0.014543 -0.088947 0.961275
-0.012900 -0.088822 0.959915
-0.011262 -0.088705 0.958649
-0.009632 -0.088614 0.957668
-0.008000 -0.088481 0.956227
-0.006373 -0.088335 0.954659
-0.004754 -0.088239 0.953616
-0.003139 -0.088157 0.952727
-0.001527 -0.088076 0.951851
0.000082 -0.088030 0.951362
0.001689 -0.087991 0.950933
0.003294 -0.087911 0.950075
0.004896 -0.087833 0.949225
0.006495 -0.087755 0.948386
0.008092 -0.087689 0.947675
0.009689 -0.087641 0.947150
0.011283 -0.087585 0.946544
0.012874 -0.087528 0.945929
0.014465 -0.087478 0.945394
0.016053 -0.087421 0.944777
0.017641 -0.087373 0.944262
0.019233 -0.087352 0.944036
0.020822 -0.087325 0.943740
0.022413 -0.087308 0.943551
0.024003 -0.087288 0.943342
0.025589 -0.087259 0.943021
0.027173 -0.087227 0.942685
0.028760 -0.087207 0.942462
0.030344 -0.087180 0.942172
0.031937 -0.087179 0.942165
0.033529 -0.087179 0.942162
0.035133 -0.087206 0.942452
0.036746 -0.087254 0.942974
0.038363 -0.087305 0.943520
0.039977 -0.087346 0.943971
0.041607 -0.087419 0.944757
0.043237 -0.087485 0.945471
0.044868 -0.087548 0.946145
0.046500 -0.087609 0.946809
0.048146 -0.087692 0.947710
0.049789 -0.087765 0.948490
0.051449 -0.087861 0.949530
0.053120 -0.087970 0.950713
0.054808 -0.088100 0.952113
0.056504 -0.088235 0.953570
0.058198 -0.088360 0.954920
0.059905 -0.088496 0.956389
0.061611 -0.088624 0.957781
0.063328 -0.088761 0.959262
0.065008 -0.088841 0.960124
0.066667 -0.088888 0.960636
0.068324 -0.088932 0.961111
-0.019628 -0.088260 0.971640
-0.017870 -0.087693 0.965398
-0.016217 -0.087583 0.964191
-0.014564 -0.087446 0.962685
-0.012917 -0.087311 0.961195
-0.011276 -0.087184 0.959794
-0.009642 -0.087085 0.958703
-0.008010 -0.086961 0.957348
-0.006381 -0.086821 0.955801
-0.004760 -0.086728 0.954782
-0.003143 -0.086639 0.953797
-0.001529 -0.086548 0.952797
0.000082 -0.086485 0.952102
0.001691 -0.086444 0.951648
0.003296 -0.086358 0.950702
0.004899 -0.086281 0.949858
0.006499 -0.086197 0.948931
0.008096 -0.086121 0.948099
0.009691 -0.086054 0.947364
0.011284 -0.085989 0.946646
0.012875 -0.085925 0.945940
0.014466 -0.085878 0.945419
0.016055 -0.085831 0.944903
0.017647 -0.085801 0.944576
0.019243 -0.085800 0.944568
0.020838 -0.085793 0.944486
0.022433 -0.085785 0.944402
0.024024 -0.085765 0.944180
0.025608 -0.085726 0.943746
0.027191 -0.085686 0.943304
0.028779 -0.085665 0.943081
0.030364 -0.085639 0.942791
0.031954 -0.085630 0.942685
0.033544 -0.085619 0.942568
0.035147 -0.085643 0.942834
0.036758 -0.085682 0.943264
0.038372 -0.085725 0.943741
0.039986 -0.085766 0.944192
0.041620 -0.085844 0.945047
0.043255 -0.085918 0.945857
0.044892 -0.085990 0.946652
0.046536 -0.086071 0.947542
0.048194 -0.086171 0.948646
0.049840 -0.086244 0.949448
0.051500 -0.086337 0.950473
0.053168 -0.086436 0.951563
0.054850 -0.086552 0.952836
0.056541 -0.086675 0.954195
0.058236 -0.086796 0.955530
0.059931 -0.086912 0.956809
0.061637 -0.087038 0.958192
0.063350 -0.087165 0.959587
0.065031 -0.087244 0.960456
0.066691 -0.087292 0.960986
0.068342 -0.087326 0.961362
-0.019606 -0.086519 0.970587
-0.017901 -0.086210 0.967121
-0.016244 -0.086093 0.965806
-0.014589 -0.085956 0.964279
-0.012935 -0.085804 0.962565
-0.011289 -0.085659 0.960941
-0.009652 -0.085551 0.959727
-0.008018 -0.085422 0.958281
-0.006388 -0.085293 0.956842
-0.004766 -0.085213 0.955938
-0.003146 -0.085118 0.954874
-0.001530 -0.085027 0.953854
0.000082 -0.084954 0.953037
0.001692 -0.084895 0.952373
0.003298 -0.084803 0.951339
0.004902 -0.084727 0.950485
0.006502 -0.084636 0.949462
0.008099 -0.084552 0.948521
0.009695 -0.084484 0.947761
0.011287 -0.084409 0.946925
0.012877 -0.084338 0.946119
0.014467 -0.084282 0.945494
0.016060 -0.084252 0.945156
0.017654 -0.084234 0.944956
0.019256 -0.084253 0.945173
0.020857 -0.084266 0.945317
0.022457 -0.084275 0.945419
0.024050 -0.084255 0.945190
0.025636 -0.084216 0.944754
0.027221 -0.084178 0.944327
0.028811 -0.084159 0.944121
0.030395 -0.084126 0.943750
0.031983 -0.084108 0.943542
0.033570 -0.084087 0.943305
0.035171 -0.084101 0.943471
0.036779 -0.084131 0.943800
0.038390 -0.084165 0.944180
0.040000 -0.084194 0.944510
0.041629 -0.084261 0.945256
0.043264 -0.084332 0.946052
0.044901 -0.084403 0.946854
0.046556 -0.084501 0.947949
0.048225 -0.084618 0.949262
0.049883 -0.084708 0.950273
0.051546 -0.084801 0.951315
0.053214 -0.084896 0.952389
0.054886 -0.084992 0.953461
0.056571 -0.085102 0.954690
0.058254 -0.085204 0.955834
0.059944 -0.085309 0.957016
0.061652 -0.085433 0.958411
0.063371 -0.085567 0.959912
0.065055 -0.085648 0.960816
0.066716 -0.085695 0.961350
0.068368 -0.085729 0.961726
0.070613 -0.088132 0.970232
0.069993 -0.085727 0.961707
-0.019639 -0.085017 0.972226
-0.017933 -0.084721 0.968850
-0.016273 -0.084606 0.967531
-0.014613 -0.084463 0.965894
-0.012954 -0.084293 0.963956
-0.011303 -0.084134 0.962127
-0.009662 -0.084009 0.960700
-0.008025 -0.083873 0.959145
-0.006394 -0.083754 0.957789
-0.004771 -0.083678 0.956914
-0.003150 -0.083593 0.955944
-0.001532 -0.083495 0.954821
0.000082 -0.083411 0.953869
0.001693 -0.083336 0.953006
0.003300 -0.083236 0.951866
0.004905 -0.083154 0.950925
0.006506 -0.083071 0.949978
0.008104 -0.082988 0.949030
0.009700 -0.082921 0.948265
0.011294 -0.082856 0.947520
0.012886 -0.082792 0.946789
0.014479 -0.082745 0.946249
0.016073 -0.082717 0.945922
0.017670 -0.082708 0.945824
0.019274 -0.082729 0.946061
0.020877 -0.082743 0.946229
0.022477 -0.082746 0.946256
0.024074 -0.082735 0.946128
0.025661 -0.082696 0.945688
0.027248 -0.082660 0.945274
0.028843 -0.082651 0.945176
0.030432 -0.082628 0.944909
0.032023 -0.082611 0.944710
0.033611 -0.082589 0.944462
0.035213 -0.082602 0.944613
0.036819 -0.082622 0.944837
0.038427 -0.082646 0.945112
0.040034 -0.082664 0.945324
0.041660 -0.082718 0.945945
0.043295 -0.082787 0.946723
0.044929 -0.082849 0.947437
0.046594 -0.082962 0.948729
0.048271 -0.083087 0.950158
0.049941 -0.083193 0.951376
0.051602 -0.083279 0.952349
0.053271 -0.083372 0.953413
0.054933 -0.083447 0.954277
0.056606 -0.083536 0.955293
0.058273 -0.083610 0.956142
0.059957 -0.083704 0.957217
0.061665 -0.083827 0.958622
0.063385 -0.083959 0.960126
0.065077 -0.084047 0.961142
0.066746 -0.084103 0.961778
0.068398 -0.084136 0.962149
0.070015 -0.084124 0.962014
-0.021483 -0.085814 0.981344
-0.021403 -0.083839 0.977715
-0.019624 -0.083302 0.971453
-0.017964 -0.083221 0.970501
-0.016299 -0.083099 0.969086
-0.014635 -0.082950 0.967340
-0.012972 -0.082773 0.965284
-0.011317 -0.082605 0.963325
-0.009672 -0.082465 0.961690
-0.008033 -0.082330 0.960110
-0.006401 -0.082213 0.958750
-0.004776 -0.082137 0.957865
-0.003153 -0.082055 0.956912
-0.001534 -0.081959 0.955784
0.000082 -0.081867 0.954719
0.001694 -0.081783 0.953739
0.003302 -0.081675 0.952474
0.004907 -0.081585 0.951430
0.006509 -0.081504 0.950486
0.008109 -0.081432 0.949646
0.009708 -0.081377 0.949000
0.011303 -0.081315 0.948276
0.012897 -0.081253 0.947557
0.014492 -0.081214 0.947104
0.016087 -0.081186 0.946776
0.017686 -0.081179 0.946686
0.019293 -0.081207 0.947018
0.020900 -0.081228 0.947264
0.022497 -0.081215 0.947105
0.024095 -0.081203 0.946967
0.025687 -0.081173 0.946625
0.027278 -0.081147 0.946317
0.028878 -0.081148 0.946334
0.030476 -0.081142 0.946261
0.032068 -0.081124 0.946053
0.033655 -0.081095 0.945708
0.035256 -0.081099 0.945757
0.036856 -0.081102 0.945796
0.038466 -0.081124 0.946055
0.040074 -0.081142 0.946258
0.041697 -0.081187 0.946781
0.043328 -0.081245 0.947464
0.044963 -0.081305 0.948162
0.046630 -0.081416 0.949459
0.048308 -0.081540 0.950904
0.049987 -0.081656 0.952249
0.051654 -0.081747 0.953318
0.053326 -0.081839 0.954389
0.054987 -0.081911 0.955225
0.056656 -0.081989 0.956133
0.058317 -0.082051 0.956862
0.059989 -0.082126 0.957730
0.061696 -0.082243 0.959102
0.063404 -0.082356 0.960417
0.065103 -0.082451 0.961527
0.066781 -0.082516 0.962278
0.068441 -0.082557 0.962755
0.070059 -0.082545 0.962618
-0.021370 -0.082055 0.976202
-0.019646 -0.081749 0.972560
-0.017986 -0.081676 0.971697
-0.016322 -0.081567 0.970403
-0.014658 -0.081438 0.968863
-0.012993 -0.081273 0.966900
-0.011335 -0.081099 0.964829
-0.009685 -0.080943 0.962979
-0.008043 -0.080799 0.961259
-0.006407 -0.080667 0.959690
-0.004780 -0.080584 0.958702
-0.003156 -0.080497 0.957668
-0.001535 -0.080402 0.956538
0.000082 -0.080297 0.955285
0.001695 -0.080210 0.954256
0.003304 -0.080095 0.952890
0.004909 -0.080007 0.951840
0.006513 -0.079937 0.951004
0.008116 -0.079892 0.950468
0.009717 -0.079849 0.949955
0.011317 -0.079807 0.949457
0.012914 -0.079756 0.948855
0.014512 -0.079720 0.948423
0.016108 -0.079684 0.947998
0.017709 -0.079675 0.947888
0.019315 -0.079692 0.948094
0.020923 -0.079712 0.948330
0.022522 -0.079697 0.948149
0.024119 -0.079676 0.947906
0.025711 -0.079646 0.947544
0.027305 -0.079620 0.947240
0.028907 -0.079623 0.947270
0.030509 -0.079626 0.947309
0.032107 -0.079618 0.947207
0.033700 -0.079596 0.946951
0.035302 -0.079600 0.946998
0.036904 -0.079603 0.947029
0.038512 -0.079616 0.947192
0.040123 -0.079635 0.947409
0.041740 -0.079664 0.947759
0.043369 -0.079713 0.948347
0.045000 -0.079763 0.948938
0.046668 -0.079871 0.950226
0.048343 -0.079986 0.951585
0.050028 -0.080108 0.953038
0.051697 -0.080198 0.954113
0.053370 -0.080288 0.955181
0.055033 -0.080358 0.956013
0.056702 -0.080434 0.956919
0.058358 -0.080486 0.957541
0.060023 -0.080549 0.958283
0.061723 -0.080653 0.959523
0.063418 -0.080745 0.960619
0.065110 -0.080830 0.961629
0.066795 -0.080902 0.962489
0.068466 -0.080953 0.963096
0.070094 -0.080954 0.963102
-0.021317 -0.080200 0.973771
-0.019662 -0.080166 0.973362
-0.018000 -0.080090 0.972442
-0.016334 -0.079983 0.971143
-0.014670 -0.079862 0.969675
-0.013005 -0.079707 0.967793
-0.011347 -0.079553 0.965925
-0.009696 -0.079400 0.964060
-0.008051 -0.079250 0.962238
-0.006413 -0.079117 0.960631
-0.004784 -0.079035 0.959636
-0.003159 -0.078949 0.958589
-0.001536 -0.078857 0.957467
0.000082 -0.078753 0.956206
0.001697 -0.078660 0.955079
0.003307 -0.078546 0.953689
0.004913 -0.078452 0.952552
0.006518 -0.078385 0.951740
0.008123 -0.078351 0.951321
0.009727 -0.078317 0.950914
0.011330 -0.078286 0.950540
0.012931 -0.078246 0.950047
0.014530 -0.078210 0.949614
0.016128 -0.078174 0.949173
0.017729 -0.078156 0.948956
0.019335 -0.078165 0.949063
0.020942 -0.078175 0.949191
0.022540 -0.078151 0.948901
0.024135 -0.078122 0.948543
0.025728 -0.078090 0.948153
0.027322 -0.078065 0.947853
0.028926 -0.078070 0.947909
0.030534 -0.078082 0.948056
0.032136 -0.078081 0.948049
0.033733 -0.078068 0.947892
0.035334 -0.078065 0.947854
0.036941 -0.078075 0.947973
0.038555 -0.078097 0.948236
0.040171 -0.078123 0.948559
0.041791 -0.078154 0.948936
0.043427 -0.078210 0.949614
0.045059 -0.078257 0.950177
0.046727 -0.078361 0.951445
0.048400 -0.078465 0.952712
0.050087 -0.078585 0.954170
0.051753 -0.078666 0.955151
0.053427 -0.078753 0.956206
0.055087 -0.078815 0.956954
0.056754 -0.078883 0.957781
0.058406 -0.078928 0.958329
0.060066 -0.078980 0.958960
0.061753 -0.079064 0.959981
0.063432 -0.079135 0.960843
0.065117 -0.079209 0.961737
0.066797 -0.079273 0.962513
0.068470 -0.079326 0.963158
0.070771 -0.080087 0.972399
-0.018009 -0.078481 0.972929
-0.016340 -0.078364 0.971478
-0.014674 -0.078237 0.969901
-0.013010 -0.078096 0.968154
-0.011355 -0.077966 0.966545
-0.009704 -0.077829 0.964847
-0.008057 -0.077682 0.963018
-0.006418 -0.077550 0.961389
-0.004788 -0.077469 0.960382
-0.003161 -0.077384 0.959329
-0.001537 -0.077295 0.958230
0.000082 -0.077193 0.956958
0.001698 -0.077101 0.955822
0.003309 -0.076989 0.954427
0.004916 -0.076890 0.953209
0.006522 -0.076825 0.952397
0.008130 -0.076798 0.952067
0.009736 -0.076773 0.951757
0.011341 -0.076750 0.951470
0.012946 -0.076726 0.951168
0.014549 -0.076699 0.950832
0.016147 -0.076654 0.950282
0.017747 -0.076627 0.949949
0.019351 -0.076620 0.949860
0.020954 -0.076609 0.949718
0.022548 -0.076571 0.949243
0.024141 -0.076532 0.948766
0.025732 -0.076493 0.948286
0.027328 -0.076475 0.948057
0.028936 -0.076488 0.948216
0.030550 -0.076516 0.948567
0.032160 -0.076532 0.948765
0.033766 -0.076536 0.948817
0.035369 -0.076533 0.948784
0.036982 -0.076552 0.949009
0.038600 -0.076580 0.949359
0.040223 -0.076615 0.949790
0.041850 -0.076654 0.950274
0.043488 -0.076709 0.950961
0.045122 -0.076753 0.951512
0.046788 -0.076847 0.952670
0.048457 -0.076941 0.953833
0.050136 -0.077043 0.955100
0.051803 -0.077121 0.956064
0.053478 -0.077205 0.957112
0.055139 -0.077266 0.957865
0.056803 -0.077326 0.958613
0.058463 -0.077379 0.959267
0.060113 -0.077415 0.959712
0.061788 -0.077481 0.960525
0.063454 -0.077533 0.961169
0.065131 -0.077594 0.961937
0.066810 -0.077656 0.962697
0.068504 -0.077731 0.963632
-0.014672 -0.076586 0.969820
-0.013013 -0.076470 0.968346
-0.011361 -0.076366 0.967028
-0.009711 -0.076253 0.965594
-0.008065 -0.076125 0.963980
-0.006425 -0.075997 0.962357
-0.004793 -0.075916 0.961334
-0.003164 -0.075826 0.960193
-0.001539 -0.075746 0.959177
0.000082 -0.075647 0.957922
0.001700 -0.075566 0.956893
0.003313 -0.075448 0.955404
0.004921 -0.075350 0.954162
0.006527 -0.075269 0.953143
0.008135 -0.075233 0.952686
0.009742 -0.075208 0.952361
0.011350 -0.075192 0.952168
0.012956 -0.075170 0.951884
0.014560 -0.075143 0.951547
0.016160 -0.075106 0.951079
0.017760 -0.075072 0.950643
0.019363 -0.075057 0.950450
0.020964 -0.075036 0.950189
0.022557 -0.074991 0.949617
0.024145 -0.074938 0.948946
0.025739 -0.074906 0.948540
0.027339 -0.074897 0.948428
0.028950 -0.074918 0.948698
0.030569 -0.074955 0.949167
0.032184 -0.074979 0.949464
0.033788 -0.074977 0.949439
0.035393 -0.074975 0.949419
0.037007 -0.074994 0.949652
0.038630 -0.075029 0.950100
0.040259 -0.075072 0.950641
0.041893 -0.075119 0.951234
0.043529 -0.075167 0.951844
0.045164 -0.075210 0.952391
0.046826 -0.075293 0.953445
0.048491 -0.075377 0.954506
0.050166 -0.075469 0.955665
0.051833 -0.075544 0.956621
0.053508 -0.075626 0.957655
0.055170 -0.075685 0.958400
0.056835 -0.075744 0.959148
0.058501 -0.075802 0.959892
0.060152 -0.075837 0.960336
0.061828 -0.075902 0.961157
0.063495 -0.075952 0.961786
0.065171 -0.076011 0.962533
0.066844 -0.076062 0.963182
0.068545 -0.076144 0.964212
-0.013014 -0.074836 0.968447
-0.011366 -0.074765 0.967530
-0.009721 -0.074688 0.966522
-0.008074 -0.074573 0.965041
-0.006433 -0.074463 0.963622
-0.004800 -0.074392 0.962696
-0.003169 -0.074311 0.961653
-0.001541 -0.074234 0.960654
0.000083 -0.074145 0.959500
0.001703 -0.074065 0.958469
0.003318 -0.073942 0.956873
0.004928 -0.073829 0.955416
0.006535 -0.073740 0.954255
0.008143 -0.073694 0.953671
0.009750 -0.073655 0.953155
0.011359 -0.073640 0.952972
0.012968 -0.073627 0.952794
0.014572 -0.073595 0.952381
0.016175 -0.073560 0.951928
0.017777 -0.073532 0.951564
0.019382 -0.073516 0.951358
0.020982 -0.073487 0.950989
0.022579 -0.073454 0.950563
0.024169 -0.073402 0.949884
0.025765 -0.073372 0.949501
0.027367 -0.073366 0.949416
0.028981 -0.073388 0.949702
0.030599 -0.073418 0.950092
0.032215 -0.073440 0.950380
0.033820 -0.073437 0.950344
0.035423 -0.073429 0.950237
0.037039 -0.073447 0.950467
0.038664 -0.073482 0.950926
0.040294 -0.073524 0.951461
0.041930 -0.073572 0.952080
0.043572 -0.073627 0.952795
0.045214 -0.073677 0.953449
0.046877 -0.073758 0.954492
0.048540 -0.073832 0.955455
0.050210 -0.073913 0.956505
0.051873 -0.073980 0.957362
0.053544 -0.074052 0.958299
0.055197 -0.074095 0.958859
0.056855 -0.074144 0.959486
0.058521 -0.074200 0.960210
0.060172 -0.074234 0.960652
0.061844 -0.074291 0.961396
0.063511 -0.074341 0.962036
0.065182 -0.074391 0.962685
0.066859 -0.074447 0.963413
0.068570 -0.074536 0.964557
-0.013009 -0.073163 0.968026
-0.011368 -0.073134 0.967640
-0.009726 -0.073089 0.967056
-0.008082 -0.073005 0.965933
-0.006441 -0.072922 0.964836
-0.004807 -0.072867 0.964112
-0.003174 -0.072803 0.963262
-0.001544 -0.072735 0.962370
0.000083 -0.072663 0.961418
0.001706 -0.072594 0.960497
0.003325 -0.072472 0.958885
0.004937 -0.072345 0.957203
0.006545 -0.072238 0.955795
0.008155 -0.072179 0.955005
0.009762 -0.072125 0.954292
0.011372 -0.072105 0.954027
0.012982 -0.072092 0.953864
0.014589 -0.072061 0.953453
0.016193 -0.072027 0.952995
0.017796 -0.071993 0.952555
0.019400 -0.071971 0.952254
0.020999 -0.071935 0.951777
0.022598 -0.071902 0.951342
0.024191 -0.071858 0.950757
0.025794 -0.071844 0.950581
0.027399 -0.071840 0.950526
0.029018 -0.071870 0.950921
0.030640 -0.071903 0.951361
0.032258 -0.071924 0.951639
0.033861 -0.071913 0.951493
0.035473 -0.071919 0.951563
0.037090 -0.071935 0.951780
0.038713 -0.071962 0.952137
0.040345 -0.072002 0.952668
0.041987 -0.072056 0.953384
0.043628 -0.072104 0.954019
0.045272 -0.072154 0.954682
0.046937 -0.072232 0.955717
0.048596 -0.072297 0.956575
0.050259 -0.072363 0.957439
0.051919 -0.072420 0.958196
0.053585 -0.072483 0.959036
0.055227 -0.072510 0.959385
0.056879 -0.072549 0.959901
0.058545 -0.072602 0.960609
0.060197 -0.072636 0.961058
0.061871 -0.072694 0.961820
0.063540 -0.072743 0.962478
0.065211 -0.072792 0.963124
0.066885 -0.072841 0.963773
0.068610 -0.072944 0.965126
-0.013009 -0.071523 0.968045
-0.011369 -0.071502 0.967759
-0.009730 -0.071482 0.967481
-0.008088 -0.071422 0.966674
-0.006449 -0.071369 0.965956
-0.004814 -0.071339 0.965553
-0.003180 -0.071300 0.965029
-0.001547 -0.071249 0.964340
0.000083 -0.071188 0.963507
0.001710 -0.071120 0.962581
0.003331 -0.070992 0.960861
0.004947 -0.070866 0.959153
0.006558 -0.070754 0.957641
0.008169 -0.070688 0.956739
0.009778 -0.070627 0.955917
0.011390 -0.070599 0.955543
0.013001 -0.070578 0.955244
0.014610 -0.070546 0.954822
0.016216 -0.070513 0.954376
0.017823 -0.070488 0.954035
0.019430 -0.070467 0.953750
0.021032 -0.070432 0.953276
0.022636 -0.070407 0.952943
0.024235 -0.070373 0.952476
0.025844 -0.070371 0.952443
0.027456 -0.070373 0.952481
0.029077 -0.070400 0.952845
0.030698 -0.070423 0.953160
0.032315 -0.070435 0.953321
0.033918 -0.070418 0.953088
0.035532 -0.070424 0.953170
0.037148 -0.070432 0.953280
0.038769 -0.070449 0.953507
0.040399 -0.070480 0.953929
0.042039 -0.070526 0.954548
0.043673 -0.070559 0.954997
0.045313 -0.070600 0.955549
0.046970 -0.070662 0.956394
0.048620 -0.070710 0.957044
0.050278 -0.070767 0.957802
0.051937 -0.070821 0.958537
0.053599 -0.070875 0.959277
0.055240 -0.070900 0.959608
0.056897 -0.070944 0.960206
0.058564 -0.070996 0.960911
0.060223 -0.071038 0.961476
0.061911 -0.071110 0.962448
0.063595 -0.071173 0.963305
0.065273 -0.071227 0.964039
0.066955 -0.071282 0.964783
0.068683 -0.071384 0.966157
-0.011374 -0.069894 0.968203
-0.009736 -0.069883 0.968054
-0.008095 -0.069844 0.967515
-0.006456 -0.069809 0.967028
-0.004820 -0.069797 0.966869
-0.003185 -0.069783 0.966670
-0.001550 -0.069750 0.966211
0.000083 -0.069698 0.965494
0.001714 -0.069638 0.964662
0.003339 -0.069514 0.962940
0.004958 -0.069390 0.961226
0.006572 -0.069274 0.959621
0.008185 -0.069202 0.958618
0.009796 -0.069134 0.957679
0.011410 -0.069103 0.957253
0.013023 -0.069073 0.956839
0.014634 -0.069042 0.956404
0.016243 -0.069009 0.955947
0.017853 -0.068985 0.955619
0.019462 -0.068964 0.955326
0.021069 -0.068937 0.954947
0.022678 -0.068921 0.954731
0.024284 -0.068897 0.954397
0.025900 -0.068904 0.954488
0.027512 -0.068899 0.954430
0.029135 -0.068923 0.954759
0.030759 -0.068943 0.955039
0.032379 -0.068957 0.955227
0.033988 -0.068943 0.955040
0.035609 -0.068956 0.955218
0.037224 -0.068957 0.955226
0.038843 -0.068965 0.955340
0.040471 -0.068987 0.955639
0.042105 -0.069016 0.956045
0.043732 -0.069034 0.956293
0.045364 -0.069058 0.956624
0.047012 -0.069102 0.957235
0.048652 -0.069133 0.957669
0.050305 -0.069180 0.958320
0.051960 -0.069227 0.958961
0.053616 -0.069271 0.959582
0.055257 -0.069294 0.959901
0.056915 -0.069338 0.960507
0.058583 -0.069391 0.961237
0.060264 -0.069454 0.962119
0.061966 -0.069540 0.963301
0.063659 -0.069610 0.964275
0.065346 -0.069671 0.965119
0.067028 -0.069723 0.965844
0.068738 -0.069801 0.966921
-0.009739 -0.068261 0.968329
-0.008098 -0.068232 0.967914
-0.006461 -0.068217 0.967703
-0.004826 -0.068232 0.967921
-0.003190 -0.068243 0.968065
-0.001553 -0.068227 0.967836
0.000083 -0.068190 0.967311
0.001717 -0.068139 0.966591
0.003346 -0.068030 0.965055
0.004969 -0.067917 0.963447
0.006588 -0.067812 0.961958
0.008205 -0.067742 0.960959
0.009818 -0.067660 0.959801
0.011432 -0.067608 0.959055
0.013044 -0.067562 0.958411
0.014655 -0.067518 0.957783
0.016263 -0.067473 0.957153
0.017877 -0.067456 0.956910
0.019491 -0.067442 0.956699
0.021100 -0.067415 0.956328
0.022718 -0.067421 0.956404
0.024335 -0.067419 0.956386
0.025954 -0.067427 0.956489
0.027569 -0.067422 0.956425
0.029192 -0.067437 0.956632
0.030819 -0.067457 0.956920
0.032444 -0.067472 0.957133
0.034063 -0.067475 0.957169
0.035693 -0.067497 0.957481
0.037315 -0.067503 0.957575
0.038930 -0.067496 0.957472
0.040553 -0.067502 0.957562
0.042176 -0.067510 0.957664
0.043795 -0.067511 0.957679
0.045424 -0.067524 0.957872
0.047062 -0.067551 0.958255
0.048693 -0.067567 0.958475
0.050336 -0.067597 0.958905
0.051981 -0.067628 0.959346
0.053632 -0.067665 0.959874
0.055274 -0.067689 0.960203
0.056940 -0.067739 0.960921
0.058622 -0.067806 0.961874
0.060318 -0.067884 0.962982
0.062031 -0.067977 0.964303
0.063727 -0.068048 0.965301
0.065417 -0.068108 0.966157
0.067093 -0.068152 0.966779
0.068800 -0.068224 0.967802
-0.009737 -0.066609 0.968172
-0.008099 -0.066598 0.968014
-0.006462 -0.066591 0.967911
-0.004828 -0.066625 0.968409
-0.003192 -0.066650 0.968767
-0.001554 -0.066646 0.968702
0.000083 -0.066624 0.968392
0.001720 -0.066588 0.967873
0.003351 -0.066497 0.966549
0.004979 -0.066409 0.965261
0.006601 -0.066314 0.963881
0.008222 -0.066245 0.962883
0.009838 -0.066164 0.961698
0.011453 -0.066104 0.960832
0.013066 -0.066047 0.959998
0.014679 -0.066003 0.959365
0.016289 -0.065953 0.958630
0.017903 -0.065928 0.958274
0.019516 -0.065907 0.957960
0.021127 -0.065881 0.957584
0.022749 -0.065887 0.957678
0.024370 -0.065893 0.957770
0.025992 -0.065900 0.957873
0.027609 -0.065896 0.957805
0.029234 -0.065909 0.957998
0.030866 -0.065936 0.958390
0.032498 -0.065960 0.958735
0.034128 -0.065978 0.959000
0.035769 -0.066013 0.959513
0.037399 -0.066027 0.959709
0.039009 -0.066006 0.959411
0.040625 -0.065997 0.959281
0.042242 -0.065989 0.959157
0.043850 -0.065968 0.958859
0.045465 -0.065961 0.958747
0.047094 -0.065972 0.958905
0.048720 -0.065978 0.959006
0.050359 -0.066001 0.959336
0.052004 -0.066031 0.959770
0.053656 -0.066067 0.960293
0.055309 -0.066103 0.960820
0.056983 -0.066161 0.961655
0.058681 -0.066242 0.962839
0.060392 -0.066333 0.964165
0.062121 -0.066439 0.965703
0.063827 -0.066516 0.966825
0.065526 -0.066582 0.967776
0.067185 -0.066604 0.968100
0.068878 -0.066658 0.968889
-0.004830 -0.065012 0.968835
-0.003194 -0.065041 0.969262
-0.001555 -0.065038 0.969218
0.000083 -0.065031 0.969112
0.001721 -0.065011 0.968820
0.003356 -0.064945 0.967840
0.004987 -0.064888 0.966977
0.006615 -0.064823 0.966009
0.008241 -0.064763 0.965125
0.009860 -0.064683 0.963930
0.011479 -0.064623 0.963040
0.013094 -0.064559 0.962085
0.014708 -0.064504 0.961256
0.016319 -0.064447 0.960410
0.017935 -0.064421 0.960030
0.019550 -0.064393 0.959607
0.021164 -0.064368 0.959234
0.022786 -0.064369 0.959244
0.024407 -0.064368 0.959231
0.026026 -0.064362 0.959141
0.027645 -0.064356 0.959053
0.029267 -0.064356 0.959060
0.030898 -0.064377 0.959365
0.032534 -0.064406 0.959794
0.034174 -0.064438 0.960277
0.035814 -0.064468 0.960729
0.037450 -0.064489 0.961037
0.039070 -0.064481 0.960911
0.040684 -0.064464 0.960664
0.042298 -0.064448 0.960426
0.043902 -0.064420 0.960012
0.045510 -0.064399 0.959696
0.047127 -0.064391 0.959574
0.048748 -0.064390 0.959567
0.050382 -0.064405 0.959787
0.052033 -0.064441 0.960314
0.053692 -0.064483 0.960947
0.055365 -0.064539 0.961780
0.057048 -0.064604 0.962743
0.058760 -0.064696 0.964129
0.060480 -0.064794 0.965575
0.062218 -0.064904 0.967219
0.063933 -0.064985 0.968429
0.065642 -0.065056 0.969485
0.067302 -0.065077 0.969793
0.068978 -0.065111 0.970306
-0.004832 -0.063399 0.969270
-0.003196 -0.063437 0.969862
-0.001556 -0.063432 0.969789
0.000083 -0.063436 0.969836
0.001723 -0.063437 0.969859
0.003360 -0.063395 0.969221
0.004996 -0.063356 0.968617
0.006630 -0.063322 0.968095
0.008261 -0.063278 0.967425
0.009885 -0.063206 0.966321
0.011509 -0.063154 0.965530
0.013128 -0.063091 0.964563
0.014744 -0.063029 0.963621
0.016359 -0.062972 0.962752
0.017977 -0.062940 0.962262
0.019591 -0.062899 0.961634
0.021204 -0.062861 0.961050
0.022821 -0.062841 0.960746
0.024437 -0.062820 0.960418
0.026052 -0.062799 0.960097
0.027670 -0.062786 0.959900
0.029289 -0.062780 0.959808
0.030922 -0.062799 0.960105
0.032562 -0.062833 0.960621
0.034203 -0.062864 0.961095
0.035849 -0.062900 0.961656
0.037495 -0.062935 0.962179
0.039121 -0.062934 0.962168
0.040738 -0.062918 0.961931
0.042352 -0.062901 0.961673
0.043954 -0.062868 0.961154
0.045560 -0.062840 0.960739
0.047178 -0.062832 0.960610
0.048801 -0.062831 0.960599
0.050436 -0.062846 0.960821
0.052090 -0.062881 0.961365
0.053752 -0.062925 0.962027
0.055434 -0.062987 0.962981
0.057119 -0.063051 0.963955
0.058835 -0.063143 0.965360
0.060562 -0.063243 0.966889
0.062303 -0.063351 0.968542
0.064015 -0.063424 0.969660
0.065731 -0.063499 0.970806
0.067401 -0.063526 0.971224
0.069081 -0.063560 0.971746
-0.004834 -0.061774 0.969564
-0.003208 -0.062031 0.973595
-0.001565 -0.062157 0.975573
0.000084 -0.062304 0.977883
0.006691 -0.062246 0.976974
0.008317 -0.062061 0.974063
0.009926 -0.061825 0.970367
0.011527 -0.061614 0.967043
0.013148 -0.061550 0.966045
0.014767 -0.061492 0.965135
0.016387 -0.061447 0.964430
0.018010 -0.061421 0.964019
0.019624 -0.061373 0.963267
0.021237 -0.061327 0.962543
0.022853 -0.061297 0.962082
0.024462 -0.061254 0.961397
0.026072 -0.061218 0.960834
0.027691 -0.061205 0.960627
0.029309 -0.061193 0.960448
0.030942 -0.061211 0.960732
0.032589 -0.061255 0.961415
0.034234 -0.061290 0.961970
0.035886 -0.061334 0.962664
0.037543 -0.061382 0.963410
0.039172 -0.061383 0.963423
0.040787 -0.061362 0.963092
0.042395 -0.061334 0.962653
0.043995 -0.061294 0.962032
0.045601 -0.061267 0.961610
0.047220 -0.061258 0.961468
0.048839 -0.061251 0.961359
0.050481 -0.061271 0.961673
0.052138 -0.061308 0.962242
0.053802 -0.061351 0.962919
0.055498 -0.061425 0.964093
0.057197 -0.061500 0.965266
0.058915 -0.061590 0.966677
0.060644 -0.061687 0.968200
0.062386 -0.061791 0.969833
0.064093 -0.061856 0.970854
0.065807 -0.061925 0.971927
0.067481 -0.061953 0.972370
0.069162 -0.061986 0.972892
-0.003241 -0.060999 0.983572
0.011613 -0.060423 0.974278
0.013206 -0.060174 0.970260
0.014789 -0.059944 0.966563
0.016414 -0.059910 0.966004
0.018041 -0.059890 0.965681
0.019655 -0.059833 0.964761
0.021269 -0.059785 0.963995
0.022879 -0.059735 0.963180
0.024481 -0.059670 0.962133
0.026086 -0.059621 0.961349
0.027705 -0.059608 0.961145
0.029326 -0.059599 0.960992
0.030960 -0.059617 0.961283
0.032611 -0.059665 0.962054
0.034261 -0.059706 0.962711
0.035919 -0.059756 0.963529
0.037578 -0.059805 0.964311
0.039217 -0.059818 0.964530
0.040833 -0.059797 0.964191
0.042443 -0.059769 0.963730
0.044039 -0.059724 0.963006
0.045642 -0.059691 0.962482
0.047258 -0.059677 0.962246
0.048878 -0.059669 0.962126
0.050522 -0.059689 0.962447
0.052185 -0.059730 0.963108
0.053857 -0.059779 0.963892
0.055565 -0.059863 0.965254
0.057267 -0.059937 0.966445
0.058981 -0.060019 0.967762
0.060712 -0.060113 0.969277
0.062449 -0.060207 0.970800
0.064157 -0.060270 0.971821
0.065866 -0.060331 0.972801
0.067556 -0.060371 0.973447
0.069226 -0.060393 0.973790
0.013286 -0.058885 0.976166
0.014809 -0.058383 0.967836
0.016436 -0.058351 0.967316
0.019675 -0.058258 0.965774
0.021288 -0.058203 0.964857
0.022895 -0.058141 0.963832
0.024496 -0.058075 0.962726
0.026102 -0.058028 0.961951
0.027726 -0.058023 0.961869
0.029348 -0.058015 0.961741
0.030990 -0.058045 0.962235
0.032647 -0.058098 0.963122
0.034300 -0.058141 0.963820
0.035961 -0.058192 0.964677
0.037626 -0.058245 0.965551
0.039263 -0.058251 0.965650
0.040879 -0.058228 0.965277
0.042490 -0.058199 0.964798
0.044088 -0.058156 0.964072
0.045692 -0.058123 0.963537
0.047309 -0.058109 0.963298
0.048932 -0.058102 0.963175
0.050572 -0.058115 0.963401
0.052236 -0.058154 0.964049
0.053909 -0.058201 0.964828
0.055619 -0.058284 0.966195
0.057324 -0.058357 0.967405
0.059034 -0.058431 0.968636
0.060760 -0.058516 0.970046
0.062490 -0.058600 0.971438
0.064199 -0.058661 0.972450
0.065903 -0.058715 0.973337
0.067600 -0.058760 0.974083
0.069262 -0.058773 0.974304
0.019686 -0.056652 0.966291
0.021294 -0.056583 0.965117
0.022899 -0.056517 0.963999
0.024502 -0.056456 0.962948
0.026122 -0.056439 0.962673
0.027760 -0.056461 0.963035
0.029397 -0.056477 0.963320
0.031052 -0.056525 0.964141
0.032719 -0.056590 0.965240
0.034369 -0.056620 0.965749
0.036029 -0.056664 0.966496
0.037689 -0.056702 0.967158
0.039315 -0.056690 0.966938
0.040929 -0.056660 0.966442
0.042537 -0.056626 0.965862
0.044132 -0.056578 0.965034
0.045739 -0.056547 0.964513
0.047361 -0.056538 0.964356
0.048981 -0.056525 0.964136
0.050617 -0.056532 0.964252
0.052276 -0.056564 0.964802
0.053939 -0.056598 0.965374
0.055645 -0.056672 0.966643
0.057351 -0.056744 0.967862
0.059056 -0.056810 0.968992
0.060782 -0.056892 0.970389
0.062510 -0.056972 0.971760
0.064213 -0.057026 0.972672
0.065910 -0.057071 0.973451
0.067608 -0.057115 0.974195
0.069262 -0.057121 0.974295
0.021377 -0.055161 0.968889
0.022985 -0.055089 0.967623
0.024599 -0.055041 0.966772
0.026232 -0.055038 0.966725
0.027827 -0.054961 0.965374
0.029472 -0.054985 0.965792
0.031132 -0.055034 0.966643
0.032797 -0.055086 0.967556
0.034447 -0.055108 0.967952
0.036101 -0.055135 0.968422
0.037751 -0.055153 0.968740
0.039366 -0.055122 0.968201
0.040982 -0.055094 0.967708
0.042589 -0.055056 0.967036
0.044186 -0.055009 0.966214
0.045795 -0.054980 0.965694
0.047415 -0.054965 0.965447
0.049026 -0.054942 0.965028
0.050652 -0.054936 0.964925
0.052306 -0.054960 0.965348
0.053958 -0.054981 0.965714
0.055658 -0.055047 0.966882
0.057358 -0.055110 0.967983
0.059062 -0.055173 0.969098
0.060782 -0.055247 0.970389
0.062510 -0.055325 0.971760
0.064213 -0.055377 0.972672
0.065904 -0.055416 0.973354
0.067594 -0.055452 0.973990
0.069239 -0.055451 0.973979
0.023109 -0.053739 0.972863
0.024719 -0.053662 0.971482
0.026352 -0.053645 0.971165
0.027895 -0.053455 0.967726
0.029551 -0.053491 0.968384
0.031212 -0.053532 0.969132
0.032871 -0.053566 0.969744
0.034515 -0.053573 0.969859
0.036162 -0.053584 0.970069
0.037802 -0.053583 0.970054
0.039415 -0.053547 0.969396
0.041037 -0.053525 0.969003
0.042650 -0.053494 0.968437
0.044251 -0.053450 0.967637
0.045862 -0.053421 0.967109
0.047474 -0.053395 0.966650
0.049075 -0.053360 0.966001
0.050686 -0.053336 0.965580
0.052329 -0.053347 0.965780
0.053970 -0.053355 0.965919
0.055652 -0.053402 0.966775
0.057332 -0.053445 0.967547
0.059029 -0.053500 0.968547
0.060741 -0.053566 0.969734
0.062464 -0.053638 0.971036
0.064179 -0.053699 0.972147
0.065882 -0.053748 0.973029
0.067577 -0.053788 0.973751
0.069230 -0.053793 0.973853
0.024925 -0.052450 0.979596
0.026491 -0.052272 0.976264
0.027973 -0.051959 0.970429
0.029635 -0.051997 0.971130
0.031294 -0.052025 0.971653
0.032946 -0.052040 0.971944
0.034582 -0.052029 0.971731
0.036223 -0.052027 0.971693
0.037856 -0.052014 0.971450
0.039464 -0.051969 0.970614
0.041094 -0.051954 0.970340
0.042710 -0.051925 0.969787
0.044317 -0.051887 0.969076
0.045925 -0.051852 0.968438
0.047533 -0.051822 0.967858
0.049120 -0.051769 0.966878
0.050719 -0.051733 0.966205
0.052345 -0.051726 0.966076
0.053969 -0.051717 0.965900
0.055633 -0.051745 0.966437
0.057292 -0.051769 0.966875
0.058979 -0.051815 0.967728
0.060683 -0.051873 0.968814
0.062413 -0.051949 0.970245
0.064135 -0.052016 0.971490
0.065852 -0.052074 0.972583
0.067547 -0.052113 0.973312
0.069206 -0.052125 0.973518
0.026756 -0.051123 0.986033
0.028181 -0.050689 0.977653
0.029773 -0.050585 0.975647
0.031365 -0.050493 0.973879
0.033011 -0.050491 0.973847
0.034642 -0.050469 0.973427
0.036279 -0.050457 0.973189
0.037903 -0.050430 0.972658
0.039514 -0.050386 0.971824
0.041145 -0.050372 0.971552
0.042764 -0.050345 0.971019
0.044373 -0.050308 0.970313
0.045978 -0.050269 0.969561
0.047582 -0.050232 0.968839
0.049153 -0.050164 0.967532
0.050747 -0.050122 0.966728
0.052362 -0.050104 0.966375
0.053979 -0.050089 0.966085
0.055625 -0.050100 0.966300
0.057270 -0.050111 0.966502
0.058941 -0.050142 0.967108
0.060637 -0.050192 0.968080
0.062360 -0.050262 0.969431
0.064084 -0.050329 0.970710
0.065807 -0.050391 0.971919
0.067502 -0.050430 0.972667
0.069169 -0.050446 0.972984
0.071517 -0.052613 0.982646
0.070829 -0.050458 0.973201
0.028390 -0.049394 0.984890
0.029899 -0.049138 0.979772
0.031423 -0.048932 0.975672
0.033062 -0.048917 0.975364
0.034696 -0.048895 0.974933
0.036327 -0.048873 0.974493
0.037949 -0.048840 0.973842
0.039557 -0.048793 0.972896
0.041187 -0.048774 0.972531
0.042803 -0.048743 0.971897
0.044418 -0.048712 0.971280
0.046023 -0.048673 0.970516
0.047624 -0.048633 0.969707
0.049191 -0.048561 0.968282
0.050790 -0.048525 0.967559
0.052401 -0.048502 0.967101
0.054015 -0.048483 0.966724
0.055650 -0.048484 0.966731
0.057277 -0.048477 0.966608
0.058927 -0.048491 0.966870
0.060613 -0.048532 0.967703
0.062331 -0.048596 0.968968
0.064061 -0.048666 0.970366
0.065798 -0.048737 0.971784
0.067498 -0.048779 0.972616
0.069164 -0.048794 0.972926
0.070826 -0.048806 0.973162
0.030061 -0.047734 0.985088
0.031523 -0.047429 0.978789
0.033107 -0.047328 0.976705
0.034740 -0.047303 0.976185
0.036373 -0.047281 0.975725
0.037992 -0.047243 0.974940
0.039600 -0.047195 0.973950
0.041222 -0.047166 0.973368
0.042835 -0.047130 0.972621
0.044446 -0.047096 0.971906
0.046053 -0.047058 0.971138
0.047656 -0.047020 0.970345
0.049225 -0.046952 0.968941
0.050831 -0.046923 0.968344
0.052444 -0.046901 0.967897
0.054060 -0.046884 0.967535
0.055685 -0.046875 0.967347
0.057300 -0.046858 0.967004
0.058924 -0.046850 0.966829
0.060597 -0.046879 0.967435
0.062299 -0.046930 0.968480
0.064029 -0.046997 0.969872
0.065770 -0.047070 0.971384
0.067484 -0.047120 0.972408
0.069164 -0.047145 0.972919
0.070833 -0.047161 0.973247
0.073150 -0.049263 0.982269
0.072474 -0.047158 0.973199
0.031628 -0.045922 0.982039
0.033150 -0.045731 0.977954
0.034777 -0.045697 0.977234
0.036404 -0.045666 0.976560
0.038019 -0.045623 0.975639
0.039619 -0.045565 0.974411
0.041228 -0.045523 0.973509
0.042840 -0.045487 0.972739
0.044460 -0.045462 0.972204
0.046068 -0.045427 0.971463
0.047683 -0.045401 0.970894
0.049269 -0.045350 0.969813
0.050883 -0.045328 0.969332
0.052500 -0.045309 0.968921
0.054123 -0.045296 0.968657
0.055744 -0.045283 0.968366
0.057347 -0.045256 0.967803
0.058953 -0.045233 0.967301
0.060610 -0.045249 0.967657
0.062299 -0.045288 0.968479
0.064022 -0.045349 0.969780
0.065765 -0.045420 0.971306
0.067486 -0.045473 0.972443
0.069174 -0.045502 0.973062
0.070851 -0.045522 0.973497
0.072508 -0.045529 0.973644
0.074104 -0.047148 0.972990
0.074146 -0.045525 0.973542
0.031723 -0.044390 0.984988
0.033183 -0.044117 0.978937
0.034809 -0.044080 0.978110
0.036430 -0.044041 0.977237
0.038041 -0.043994 0.976191
0.039637 -0.043933 0.974845
0.041237 -0.043882 0.973722
0.042849 -0.043848 0.972959
0.044474 -0.043828 0.972519
0.046093 -0.043804 0.971988
0.047719 -0.043789 0.971641
0.049324 -0.043755 0.970892
0.050952 -0.043743 0.970634
0.052575 -0.043729 0.970318
0.054200 -0.043717 0.970040
0.055817 -0.043698 0.969635
0.057416 -0.043667 0.968952
0.059004 -0.043631 0.968140
0.060649 -0.043637 0.968265
0.062316 -0.043658 0.968747
0.064020 -0.043703 0.969737
0.065756 -0.043768 0.971177
0.067480 -0.043821 0.972359
0.069178 -0.043855 0.973110
0.070870 -0.043884 0.973765
0.072550 -0.043905 0.974215
0.074197 -0.043905 0.974218
0.033271 -0.042570 0.981521
0.034834 -0.042453 0.978828
0.036453 -0.042411 0.977856
0.038061 -0.042361 0.976706
0.039657 -0.042302 0.975339
0.041250 -0.042245 0.974024
0.042863 -0.042212 0.973259
0.044489 -0.042194 0.972841
0.046119 -0.042181 0.972543
0.047753 -0.042171 0.972324
0.049374 -0.042152 0.971886
0.051010 -0.042146 0.971742
0.052635 -0.042132 0.971428
0.054255 -0.042115 0.971026
0.055872 -0.042096 0.970587
0.057466 -0.042062 0.969810
0.059050 -0.042023 0.968898
0.060689 -0.042023 0.968912
0.062349 -0.042038 0.969252
0.064044 -0.042075 0.970104
0.065774 -0.042133 0.971437
0.067499 -0.042185 0.972634
0.069206 -0.042223 0.973511
0.070909 -0.042256 0.974289
0.072591 -0.042277 0.974768
0.074257 -0.042287 0.974998
0.033339 -0.040990 0.983533
0.034838 -0.040799 0.978945
0.036461 -0.040762 0.978073
0.038070 -0.040715 0.976931
0.039670 -0.040662 0.975659
0.041263 -0.040607 0.974340
0.042877 -0.040576 0.973590
0.044505 -0.040559 0.973187
0.046141 -0.040551 0.972993
0.047780 -0.040546 0.972889
0.049415 -0.040538 0.972679
0.051052 -0.040533 0.972556
0.052679 -0.040519 0.972237
0.054304 -0.040506 0.971907
0.055916 -0.040482 0.971352
0.057512 -0.040450 0.970580
0.059099 -0.040413 0.969699
0.060728 -0.040406 0.969526
0.062368 -0.040407 0.969544
0.064046 -0.040432 0.970134
0.065760 -0.040477 0.971229
0.067477 -0.040522 0.972310
0.069198 -0.040568 0.973402
0.070916 -0.040609 0.974399
0.072623 -0.040642 0.975194
0.074322 -0.040670 0.975854
0.034984 -0.039303 0.983035
0.036539 -0.039189 0.980185
0.038079 -0.039069 0.977173
0.039676 -0.039014 0.975810
0.041265 -0.038957 0.974384
0.042883 -0.038931 0.973723
0.044515 -0.038918 0.973413
0.046161 -0.038919 0.973424
0.047807 -0.038919 0.973432
0.049452 -0.038919 0.973424
0.051092 -0.038914 0.973317
0.052721 -0.038902 0.973002
0.054347 -0.038888 0.972667
0.055965 -0.038870 0.972208
0.057564 -0.038840 0.971456
0.059160 -0.038810 0.970695
0.060785 -0.038799 0.970437
0.062412 -0.038791 0.970236
0.064069 -0.038801 0.970478
0.065767 -0.038835 0.971330
0.067470 -0.038870 0.972205
0.069184 -0.038909 0.973195
0.070909 -0.038953 0.974290
0.072631 -0.038994 0.975296
0.074355 -0.039033 0.976292
0.035076 -0.037735 0.985617
0.036555 -0.037544 0.980605
0.038093 -0.037425 0.977524
0.039694 -0.037377 0.976250
0.041291 -0.037329 0.975006
0.042906 -0.037300 0.974248
0.044534 -0.037284 0.973830
0.046185 -0.037288 0.973931
0.047832 -0.037288 0.973943
0.049474 -0.037285 0.973855
0.051115 -0.037281 0.973749
0.052744 -0.037269 0.973425
0.054360 -0.037248 0.972896
0.055985 -0.037235 0.972553
0.057597 -0.037215 0.972019
0.059213 -0.037198 0.971569
0.060840 -0.037188 0.971323
0.062474 -0.037183 0.971189
0.064116 -0.037183 0.971197
0.065800 -0.037207 0.971824
0.067483 -0.037229 0.972398
0.069197 -0.037267 0.973386
0.070922 -0.037309 0.974478
0.072645 -0.037348 0.975487
0.074379 -0.037391 0.976609
0.076770 -0.039426 0.986110
0.076142 -0.037445 0.978044
0.036666 -0.035990 0.983568
0.038108 -0.035783 0.977912
0.039711 -0.035738 0.976679
0.041313 -0.035696 0.975528
0.042925 -0.035664 0.974675
0.044550 -0.035646 0.974172
0.046201 -0.035650 0.974271
0.047848 -0.035649 0.974267
0.049481 -0.035639 0.973982
0.051116 -0.035631 0.973759
0.052744 -0.035618 0.973424
0.054359 -0.035599 0.972882
0.055990 -0.035590 0.972649
0.057616 -0.035579 0.972333
0.059241 -0.035567 0.972029
0.060875 -0.035562 0.971884
0.062516 -0.035561 0.971845
0.064164 -0.035564 0.971928
0.065844 -0.035583 0.972467
0.067527 -0.035604 0.973038
0.069235 -0.035637 0.973923
0.070960 -0.035676 0.974995
0.072675 -0.035709 0.975892
0.074411 -0.035750 0.977020
0.076167 -0.035799 0.978362
0.078537 -0.037803 0.987372
0.077905 -0.035838 0.979417
0.038230 -0.034235 0.981051
0.039748 -0.034114 0.977592
0.041372 -0.034090 0.976915
0.042982 -0.034057 0.975968
0.044600 -0.034033 0.975271
0.046237 -0.034024 0.975031
0.047869 -0.034013 0.974695
0.049486 -0.033992 0.974087
0.051115 -0.033980 0.973756
0.052748 -0.033971 0.973504
0.054362 -0.033952 0.972942
0.055999 -0.033947 0.972806
0.057632 -0.033940 0.972609
0.059266 -0.033934 0.972441
0.060904 -0.033931 0.972341
0.062553 -0.033933 0.972416
0.064202 -0.033936 0.972504
0.065891 -0.033959 0.973159
0.067584 -0.033983 0.973846
0.069293 -0.034014 0.974733
0.071017 -0.034051 0.975788
0.072732 -0.034081 0.976664
0.074460 -0.034116 0.977666
0.076207 -0.034159 0.978873
0.077943 -0.034194 0.979898
0.080289 -0.036166 0.988383
0.079647 -0.034215 0.980484
0.038278 -0.032612 0.982269
0.039785 -0.032487 0.978507
0.041420 -0.032472 0.978052
0.043038 -0.032445 0.977250
0.044653 -0.032418 0.976429
0.046280 -0.032401 0.975927
0.047896 -0.032378 0.975233
0.049501 -0.032350 0.974377
0.051125 -0.032336 0.973943
0.052753 -0.032324 0.973597
0.054363 -0.032303 0.972951
0.056005 -0.032301 0.972898
0.057650 -0.032301 0.972903
0.059297 -0.032303 0.972955
0.060950 -0.032307 0.973085
0.062614 -0.032317 0.973374
0.064274 -0.032324 0.973597
0.065965 -0.032346 0.974260
0.067662 -0.032370 0.974976
0.069366 -0.032396 0.975768
0.071086 -0.032428 0.976728
0.072793 -0.032453 0.977476
0.074505 -0.032479 0.978253
0.076235 -0.032511 0.979239
0.077961 -0.032541 0.980124
0.079664 -0.032560 0.980692
0.081373 -0.034243 0.981304
0.081393 -0.032588 0.981545
0.083778 -0.034551 0.990123
0.083116 -0.032613 0.982306
0.038464 -0.031097 0.987038
0.039832 -0.030865 0.979662
0.041484 -0.030862 0.979562
0.043101 -0.030833 0.978672
0.044715 -0.030806 0.977791
0.046322 -0.030775 0.976824
0.047922 -0.030742 0.975775
0.049512 -0.030705 0.974598
0.051131 -0.030688 0.974055
0.052754 -0.030674 0.973619
0.054370 -0.030658 0.973087
0.056019 -0.030660 0.973153
0.057677 -0.030666 0.973356
0.059338 -0.030674 0.973614
0.061005 -0.030685 0.973959
0.062678 -0.030698 0.974370
0.064353 -0.030711 0.974788
0.066053 -0.030735 0.975555
0.067760 -0.030762 0.976388
0.069475 -0.030790 0.977300
0.071198 -0.030821 0.978260
0.072899 -0.030841 0.978903
0.074596 -0.030858 0.979459
0.076312 -0.030883 0.980227
0.078024 -0.030904 0.980914
0.079728 -0.030922 0.981484
0.081458 -0.030949 0.982335
0.083194 -0.030977 0.983220
0.085574 -0.032920 0.991543
0.084955 -0.031013 0.984369
0.039892 -0.029248 0.981139
0.041546 -0.029245 0.981022
0.043164 -0.029217 0.980106
0.044771 -0.029184 0.979002
0.046374 -0.029152 0.977910
0.047960 -0.029111 0.976547
0.049545 -0.029073 0.975253
0.051164 -0.029056 0.974685
0.052783 -0.029040 0.974155
0.054417 -0.029033 0.973929
0.056075 -0.029039 0.974125
0.057742 -0.029049 0.974461
0.059406 -0.029057 0.974732
0.061088 -0.029073 0.975278
0.062757 -0.029083 0.975598
0.064434 -0.029095 0.976016
0.066136 -0.029118 0.976779
0.067850 -0.029145 0.977691
0.069562 -0.029170 0.978523
0.071280 -0.029196 0.979391
0.072982 -0.029215 0.980023
0.074681 -0.029231 0.980566
0.076384 -0.029249 0.981153
0.078097 -0.029269 0.981830
0.079811 -0.029289 0.982497
0.081551 -0.029317 0.983454
0.083299 -0.029347 0.984469
0.085091 -0.029391 0.985940
0.087459 -0.031314 0.993912
0.086890 -0.029436 0.987450
0.041601 -0.027618 0.982314
0.043218 -0.027590 0.981334
0.044828 -0.027560 0.980259
0.046425 -0.027524 0.978992
0.048014 -0.027487 0.977649
0.049606 -0.027453 0.976449
0.051226 -0.027437 0.975869
0.052846 -0.027421 0.975322
0.054489 -0.027418 0.975215
0.056157 -0.027427 0.975538
0.057834 -0.027441 0.976013
0.059507 -0.027452 0.976393
0.061186 -0.027464 0.976841
0.062850 -0.027470 0.977043
0.064515 -0.027476 0.977247
0.066205 -0.027491 0.977794
0.067914 -0.027514 0.978603
0.069627 -0.027537 0.979431
0.071339 -0.027559 0.980209
0.073043 -0.027577 0.980838
0.074749 -0.027594 0.981467
0.076453 -0.027610 0.982045
0.078162 -0.027627 0.982646
0.079877 -0.027646 0.983313
0.081635 -0.027679 0.984468
0.083395 -0.027710 0.985595
0.085201 -0.027756 0.987215
0.087023 -0.027805 0.988959
0.089437 -0.029728 0.997228
0.088867 -0.027859 0.990879
0.043222 -0.025929 0.981420
0.044846 -0.025909 0.980649
0.046456 -0.025882 0.979648
0.048061 -0.025855 0.978603
0.049669 -0.025831 0.977691
0.051292 -0.025815 0.977115
0.052909 -0.025798 0.976474
0.054559 -0.025798 0.976471
0.056235 -0.025810 0.976897
0.057922 -0.025826 0.977496
0.059598 -0.025836 0.977882
0.061284 -0.025850 0.978409
0.062943 -0.025852 0.978493
0.064603 -0.025854 0.978574
0.066280 -0.025863 0.978902
0.067981 -0.025881 0.979578
0.069681 -0.025897 0.980191
0.071387 -0.025914 0.980865
0.073092 -0.025931 0.981492
0.074800 -0.025948 0.982133
0.076505 -0.025963 0.982712
0.078215 -0.025979 0.983313
0.079930 -0.025997 0.983970
0.081691 -0.026028 0.985141
0.083462 -0.026060 0.986388
0.085281 -0.026107 0.988142
0.087114 -0.026156 0.989997
0.088978 -0.026212 0.992121
0.091440 -0.028135 1.000710
0.090820 -0.026260 0.993924
0.044870 -0.024260 0.981177
0.046486 -0.024237 0.980269
0.048103 -0.024217 0.979446
0.049722 -0.024199 0.978737
0.051352 -0.024187 0.978264
0.052978 -0.024175 0.977742
0.054642 -0.024180 0.977945
0.056326 -0.024193 0.978481
0.058014 -0.024207 0.979057
0.059687 -0.024214 0.979338
0.061368 -0.024224 0.979751
0.063022 -0.024223 0.979714
0.064676 -0.024223 0.979683
0.066353 -0.024230 0.979988
0.068049 -0.024244 0.980548
0.069740 -0.024256 0.981024
0.071447 -0.024272 0.981687
0.073146 -0.024285 0.982220
0.074849 -0.024299 0.982772
0.076555 -0.024313 0.983352
0.078265 -0.024328 0.983943
0.079965 -0.024339 0.984399
0.081726 -0.024368 0.985563
0.083498 -0.024399 0.986815
0.085318 -0.024442 0.988581
0.087155 -0.024489 0.990455
0.089019 -0.024541 0.992568
0.090861 -0.024586 0.994365
0.093375 -0.026508 1.003320
0.092681 -0.024623 0.995865
0.045076 -0.022700 0.985673
0.046531 -0.022597 0.981215
0.048161 -0.022584 0.980629
0.049803 -0.022577 0.980327
0.051436 -0.022566 0.979871
0.053066 -0.022555 0.979377
0.054739 -0.022562 0.979686
0.056426 -0.022574 0.980219
0.058111 -0.022585 0.980689
0.059785 -0.022591 0.980956
0.061469 -0.022600 0.981359
0.063119 -0.022597 0.981226
0.064770 -0.022595 0.981103
0.066435 -0.022597 0.981197
0.068118 -0.022605 0.981549
0.069789 -0.022608 0.981705
0.071487 -0.022621 0.982235
0.073179 -0.022630 0.982663
0.074883 -0.022643 0.983219
0.076591 -0.022657 0.983817
0.078300 -0.022670 0.984391
0.080000 -0.022680 0.984825
0.081751 -0.022704 0.985869
0.083514 -0.022731 0.987010
0.085326 -0.022769 0.988667
0.087161 -0.022812 0.990523
0.089007 -0.022856 0.992439
0.090838 -0.022894 0.994115
0.092648 -0.022926 0.995501
0.095185 -0.024837 1.004520
