1685
0.029683 -0.230581 0.921661
0.031267 -0.230770 0.922417
0.032857 -0.230985 0.923276
0.034442 -0.231146 0.923921
0.036037 -0.231360 0.924775
0.037633 -0.231557 0.925562
0.039226 -0.231725 0.926235
0.040801 -0.231779 0.926449
0.042386 -0.231879 0.926851
0.043975 -0.231995 0.927315
0.045575 -0.232164 0.927990
0.047180 -0.232339 0.928690
0.048807 -0.232614 0.929786
0.050440 -0.232893 0.930903
0.052086 -0.233220 0.932209
0.053732 -0.233524 0.933425
0.055399 -0.233899 0.934925
0.057084 -0.234329 0.936641
0.058809 -0.234893 0.938896
0.060525 -0.235395 0.940902
0.062259 -0.235935 0.943061
0.063989 -0.236439 0.945076
0.066264 -0.240498 0.954833
0.065694 -0.236825 0.946621
-0.069800 -0.256813 1.033520
-0.067706 -0.255505 1.028250
-0.065961 -0.255480 1.028150
-0.064194 -0.255366 1.027690
-0.062426 -0.255241 1.027190
-0.060660 -0.255117 1.026690
-0.058901 -0.255013 1.026270
-0.057136 -0.254881 1.025740
-0.044279 -0.232864 0.937137
-0.042633 -0.232528 0.935786
-0.041006 -0.232270 0.934747
-0.039340 -0.231767 0.932721
-0.037705 -0.231411 0.931288
-0.036066 -0.230997 0.929624
-0.034457 -0.230744 0.928607
-0.032841 -0.230424 0.927318
-0.031237 -0.230151 0.926220
-0.029636 -0.229880 0.925127
-0.028048 -0.229681 0.924325
-0.026457 -0.229441 0.923359
-0.024880 -0.229287 0.922742
-0.023302 -0.229117 0.922056
-0.021725 -0.228925 0.921285
-0.020155 -0.228774 0.920677
-0.018590 -0.228670 0.920257
-0.017017 -0.228438 0.919325
-0.015446 -0.228199 0.918363
-0.013883 -0.228015 0.917622
-0.012321 -0.227816 0.916821
-0.010763 -0.227658 0.916187
-0.009214 -0.227639 0.916110
-0.007666 -0.227665 0.916213
-0.006117 -0.227690 0.916315
-0.004569 -0.227736 0.916501
-0.003020 -0.227760 0.916597
-0.001471 -0.227762 0.916605
0.000079 -0.227874 0.917054
0.001630 -0.227951 0.917366
0.003182 -0.228012 0.917610
0.004733 -0.228039 0.917718
0.006286 -0.228095 0.917945
0.007836 -0.228042 0.917730
0.009387 -0.228019 0.917638
0.010938 -0.228021 0.917648
0.012491 -0.228048 0.917754
0.014039 -0.227981 0.917488
0.015592 -0.228021 0.917646
0.017143 -0.228016 0.917627
0.018693 -0.228003 0.917576
0.020239 -0.227934 0.917295
0.021790 -0.227943 0.917332
0.023330 -0.227838 0.916912
0.024887 -0.227901 0.917166
0.026460 -0.228093 0.917935
0.028037 -0.228302 0.918779
0.029617 -0.228507 0.919604
0.031204 -0.228741 0.920542
0.032793 -0.228972 0.921475
0.034375 -0.229132 0.922118
0.035969 -0.229359 0.923030
0.037562 -0.229558 0.923834
0.039156 -0.229748 0.924595
0.040733 -0.229824 0.924904
0.042315 -0.229923 0.925303
0.043902 -0.230045 0.925793
0.045510 -0.230261 0.926662
0.047123 -0.230488 0.927576
0.048751 -0.230771 0.928715
0.050386 -0.231070 0.929917
0.052035 -0.231411 0.931289
0.053673 -0.231685 0.932392
0.055332 -0.232033 0.933793
0.057020 -0.232480 0.935590
0.058743 -0.233037 0.937834
0.060458 -0.233541 0.939861
0.062192 -0.234085 0.942051
0.063922 -0.234589 0.944078
0.065632 -0.234997 0.945719
-0.071519 -0.254963 1.033120
-0.069419 -0.253669 1.027880
-0.067675 -0.253645 1.027780
-0.065929 -0.253614 1.027650
-0.064163 -0.253500 1.027190
-0.062403 -0.253404 1.026800
-0.060640 -0.253291 1.026350
-0.058887 -0.253214 1.026030
-0.057126 -0.253099 1.025560
-0.044225 -0.230992 0.935987
-0.042582 -0.230666 0.934666
-0.040958 -0.230417 0.933657
-0.039298 -0.229940 0.931725
-0.037669 -0.229611 0.930393
-0.036032 -0.229206 0.928751
-0.034421 -0.228933 0.927645
-0.032804 -0.228589 0.926252
-0.031194 -0.228271 0.924961
-0.029592 -0.227977 0.923771
-0.028004 -0.227756 0.922877
-0.026418 -0.227535 0.921982
-0.024843 -0.227384 0.921370
-0.023267 -0.227210 0.920662
-0.021690 -0.226995 0.919794
-0.020120 -0.226822 0.919092
-0.018554 -0.226672 0.918484
-0.016985 -0.226463 0.917635
-0.015418 -0.226229 0.916689
-0.013860 -0.226094 0.916141
-0.012304 -0.225967 0.915627
-0.010751 -0.225859 0.915187
-0.009205 -0.225867 0.915222
-0.007660 -0.225942 0.915526
-0.006113 -0.225969 0.915636
-0.004566 -0.225994 0.915738
-0.003018 -0.226016 0.915824
-0.001469 -0.225970 0.915637
0.000079 -0.226009 0.915795
0.001627 -0.226052 0.915972
0.003176 -0.226084 0.916101
0.004725 -0.226067 0.916033
0.006275 -0.226122 0.916253
0.007823 -0.226090 0.916126
0.009370 -0.226066 0.916027
0.010919 -0.226069 0.916040
0.012470 -0.226113 0.916217
0.014015 -0.226048 0.915954
0.015566 -0.226088 0.916116
0.017119 -0.226136 0.916311
0.018669 -0.226150 0.916367
0.020215 -0.226115 0.916225
0.021769 -0.226172 0.916457
0.023311 -0.226098 0.916159
0.024862 -0.226122 0.916253
0.026428 -0.226267 0.916841
0.028000 -0.226444 0.917558
0.029574 -0.226617 0.918262
0.031155 -0.226827 0.919110
0.032739 -0.227034 0.919952
0.034317 -0.227187 0.920572
0.035908 -0.227408 0.921466
0.037494 -0.227579 0.922161
0.039085 -0.227765 0.922914
0.040663 -0.227865 0.923318
0.042247 -0.227987 0.923813
0.043837 -0.228134 0.924406
0.045456 -0.228420 0.925569
0.047079 -0.228703 0.926715
0.048715 -0.229029 0.928035
0.050359 -0.229371 0.929421
0.052012 -0.229728 0.930868
0.053639 -0.229958 0.931801
0.055296 -0.230300 0.933185
0.056983 -0.230742 0.934973
0.058703 -0.231292 0.937205
0.060418 -0.231794 0.939239
0.062150 -0.232332 0.941419
0.063873 -0.232809 0.943351
0.065573 -0.233186 0.944879
-0.072818 -0.251665 1.026810
-0.071095 -0.251710 1.026990
-0.069375 -0.251768 1.027230
-0.067632 -0.251746 1.027140
-0.065888 -0.251715 1.027010
-0.064130 -0.251629 1.026660
-0.062380 -0.251573 1.026430
-0.060626 -0.251495 1.026120
-0.058880 -0.251444 1.025910
-0.044191 -0.229228 0.935264
-0.042550 -0.228907 0.933955
-0.040929 -0.228670 0.932986
-0.039275 -0.228226 0.931176
-0.037652 -0.227930 0.929970
-0.036016 -0.227530 0.928338
-0.034405 -0.227254 0.927209
-0.032781 -0.226864 0.925617
-0.031166 -0.226496 0.924117
-0.029562 -0.226178 0.922822
-0.027972 -0.225938 0.921841
-0.026384 -0.225683 0.920801
-0.024811 -0.225533 0.920187
-0.023235 -0.225340 0.919400
-0.021658 -0.225104 0.918437
-0.020086 -0.224887 0.917552
-0.018523 -0.224736 0.916938
-0.016957 -0.224530 0.916095
-0.015392 -0.224300 0.915158
-0.013839 -0.224191 0.914715
-0.012288 -0.224110 0.914382
-0.010738 -0.224027 0.914045
-0.009194 -0.224057 0.914167
-0.007652 -0.224149 0.914542
-0.006106 -0.224176 0.914650
-0.004561 -0.224201 0.914753
-0.003014 -0.224223 0.914845
-0.001467 -0.224155 0.914566
0.000079 -0.224145 0.914527
0.001625 -0.224181 0.914671
0.003172 -0.224209 0.914786
0.004717 -0.224174 0.914645
0.006265 -0.224215 0.914810
0.007810 -0.224185 0.914689
0.009354 -0.224118 0.914417
0.010900 -0.224121 0.914427
0.012448 -0.224165 0.914609
0.013995 -0.224167 0.914615
0.015545 -0.224228 0.914865
0.017100 -0.224343 0.915335
0.018649 -0.224359 0.915398
0.020200 -0.224392 0.915535
0.021755 -0.224475 0.915872
0.023304 -0.224475 0.915871
0.024855 -0.224505 0.915994
0.026420 -0.224646 0.916568
0.027986 -0.224771 0.917080
0.029555 -0.224917 0.917674
0.031132 -0.225099 0.918418
0.032709 -0.225267 0.919102
0.034285 -0.225415 0.919707
0.035870 -0.225608 0.920496
0.037447 -0.225731 0.920996
0.039028 -0.225871 0.921569
0.040608 -0.225990 0.922055
0.042185 -0.226091 0.922464
0.043773 -0.226239 0.923069
0.045400 -0.226567 0.924409
0.047030 -0.226892 0.925734
0.048671 -0.227249 0.927189
0.050329 -0.227659 0.928863
0.051991 -0.228060 0.930500
0.053623 -0.228312 0.931529
0.055281 -0.228656 0.932931
0.056967 -0.229094 0.934716
0.058675 -0.229593 0.936753
0.060387 -0.230080 0.938743
0.062109 -0.230585 0.940800
0.063816 -0.231006 0.942521
0.065508 -0.231354 0.943938
-0.074943 -0.251229 1.032170
-0.072778 -0.249787 1.026250
-0.071051 -0.249815 1.026360
-0.069330 -0.249863 1.026560
-0.067591 -0.249852 1.026510
-0.065849 -0.249825 1.026400
-0.064098 -0.249766 1.026160
-0.062358 -0.249743 1.026060
-0.060611 -0.249692 1.025860
-0.058871 -0.249668 1.025760
-0.044149 -0.227428 0.934382
-0.042514 -0.227133 0.933173
-0.040897 -0.226915 0.932277
-0.039253 -0.226524 0.930670
-0.037636 -0.226258 0.929574
-0.036001 -0.225862 0.927948
-0.034390 -0.225584 0.926808
-0.032766 -0.225190 0.925188
-0.031144 -0.224775 0.923482
-0.029538 -0.224434 0.922084
-0.027950 -0.224193 0.921094
-0.026361 -0.223922 0.919981
-0.024787 -0.223758 0.919306
-0.023213 -0.223569 0.918527
-0.021635 -0.223310 0.917465
-0.020061 -0.223051 0.916399
-0.018497 -0.222875 0.915677
-0.016933 -0.222668 0.914827
-0.015373 -0.222464 0.913989
-0.013823 -0.222385 0.913665
-0.012275 -0.222331 0.913441
-0.010727 -0.222247 0.913096
-0.009184 -0.222270 0.913192
-0.007643 -0.222335 0.913457
-0.006099 -0.222361 0.913567
-0.004555 -0.222387 0.913672
-0.003011 -0.222410 0.913766
-0.001466 -0.222321 0.913402
0.000079 -0.222289 0.913269
0.001623 -0.222323 0.913411
0.003167 -0.222333 0.913451
0.004711 -0.222325 0.913417
0.006257 -0.222388 0.913677
0.007801 -0.222380 0.913643
0.009343 -0.222317 0.913384
0.010888 -0.222320 0.913397
0.012434 -0.222366 0.913587
0.013982 -0.222412 0.913776
0.015531 -0.222480 0.914053
0.017087 -0.222617 0.914616
0.018638 -0.222671 0.914839
0.020193 -0.222766 0.915227
0.021751 -0.222873 0.915671
0.023306 -0.222944 0.915960
0.024860 -0.222998 0.916181
0.026426 -0.223136 0.916750
0.027985 -0.223209 0.917049
0.029547 -0.223304 0.917440
0.031118 -0.223444 0.918014
0.032691 -0.223591 0.918617
0.034264 -0.223716 0.919132
0.035844 -0.223881 0.919809
0.037415 -0.223976 0.920201
0.038991 -0.224094 0.920686
0.040569 -0.224213 0.921173
0.042153 -0.224356 0.921760
0.043748 -0.224543 0.922531
0.045378 -0.224892 0.923966
0.047012 -0.225239 0.925389
0.048654 -0.225596 0.926857
0.050312 -0.226008 0.928550
0.051971 -0.226395 0.930137
0.053608 -0.226668 0.931262
0.055271 -0.227034 0.932763
0.056963 -0.227491 0.934644
0.058659 -0.227943 0.936499
0.060368 -0.228419 0.938456
0.062076 -0.228866 0.940291
0.063767 -0.229231 0.941791
0.065443 -0.229525 0.942998
-0.074482 -0.247944 1.025820
-0.072754 -0.247966 1.025910
-0.071013 -0.247942 1.025810
-0.069279 -0.247940 1.025800
-0.067529 -0.247886 1.025580
-0.065781 -0.247831 1.025350
-0.064034 -0.247778 1.025130
-0.062304 -0.247790 1.025180
-0.060564 -0.247763 1.025070
-0.044101 -0.225596 0.933356
-0.042472 -0.225326 0.932239
-0.040864 -0.225152 0.931519
-0.039234 -0.224835 0.930206
-0.037621 -0.224595 0.929215
-0.035994 -0.224244 0.927764
-0.034383 -0.223969 0.926625
-0.032756 -0.223556 0.924917
-0.031129 -0.223102 0.923037
-0.029523 -0.222756 0.921607
-0.027932 -0.222493 0.920518
-0.026344 -0.222222 0.919398
-0.024771 -0.222059 0.918723
-0.023198 -0.221868 0.917935
-0.021621 -0.221610 0.916867
-0.020046 -0.221328 0.915697
-0.018481 -0.221129 0.914873
-0.016918 -0.220919 0.914006
-0.015361 -0.220741 0.913271
-0.013812 -0.220667 0.912965
-0.012267 -0.220640 0.912852
-0.010719 -0.220533 0.912410
-0.009175 -0.220510 0.912315
-0.007634 -0.220548 0.912473
-0.006091 -0.220530 0.912399
-0.004549 -0.220515 0.912336
-0.003007 -0.220557 0.912511
-0.001464 -0.220490 0.912232
0.000078 -0.220461 0.912110
0.001621 -0.220523 0.912368
0.003164 -0.220577 0.912591
0.004707 -0.220594 0.912661
0.006253 -0.220678 0.913010
0.007796 -0.220690 0.913060
0.009338 -0.220643 0.912866
0.010881 -0.220646 0.912876
0.012427 -0.220696 0.913082
0.013974 -0.220748 0.913299
0.015522 -0.220799 0.913511
0.017077 -0.220934 0.914070
0.018626 -0.220987 0.914290
0.020181 -0.221082 0.914680
0.021738 -0.221193 0.915139
0.023295 -0.221288 0.915534
0.024849 -0.221341 0.915754
0.026413 -0.221476 0.916313
0.027971 -0.221545 0.916596
0.029532 -0.221636 0.916973
0.031105 -0.221794 0.917626
0.032681 -0.221961 0.918316
0.034256 -0.222108 0.918926
0.035835 -0.222270 0.919596
0.037405 -0.222361 0.919973
0.038973 -0.222429 0.920255
0.040545 -0.222523 0.920642
0.042125 -0.222647 0.921158
0.043716 -0.222816 0.921854
0.045345 -0.223163 0.923291
0.046981 -0.223524 0.924786
0.048627 -0.223900 0.926341
0.050290 -0.224336 0.928143
0.051958 -0.224763 0.929910
0.053606 -0.225083 0.931234
0.055280 -0.225490 0.932918
0.056974 -0.225950 0.934823
0.058664 -0.226376 0.936584
0.060367 -0.226824 0.938437
0.062060 -0.227215 0.940055
0.063732 -0.227510 0.941275
0.065399 -0.227775 0.942373
-0.074429 -0.246028 1.025080
-0.072698 -0.246038 1.025120
-0.070950 -0.245984 1.024890
-0.069208 -0.245949 1.024750
-0.067452 -0.245865 1.024400
-0.065698 -0.245782 1.024060
-0.063946 -0.245701 1.023720
-0.062200 -0.245640 1.023460
-0.060453 -0.245572 1.023180
-0.044077 -0.223892 0.932851
-0.042453 -0.223649 0.931836
-0.040850 -0.223494 0.931191
-0.039234 -0.223256 0.930201
-0.037621 -0.223019 0.929212
-0.035998 -0.222694 0.927858
-0.034387 -0.222425 0.926736
-0.032761 -0.222019 0.925047
-0.031134 -0.221569 0.923170
-0.029524 -0.221205 0.921652
-0.027930 -0.220915 0.920447
-0.026339 -0.220620 0.919218
-0.024764 -0.220434 0.918440
-0.023188 -0.220220 0.917551
-0.021612 -0.219961 0.916471
-0.020033 -0.219635 0.915113
-0.018469 -0.219435 0.914280
-0.016909 -0.219247 0.913496
-0.015354 -0.219093 0.912856
-0.013806 -0.219026 0.912574
-0.012263 -0.219021 0.912552
-0.010714 -0.218892 0.912015
-0.009170 -0.218842 0.911809
-0.007629 -0.218854 0.911859
-0.006087 -0.218837 0.911787
-0.004545 -0.218822 0.911727
-0.003005 -0.218884 0.911983
-0.001463 -0.218817 0.911706
0.000078 -0.218789 0.911586
0.001620 -0.218854 0.911857
0.003162 -0.218912 0.912098
0.004705 -0.218930 0.912175
0.006249 -0.219012 0.912517
0.007792 -0.219005 0.912487
0.009332 -0.218957 0.912286
0.010874 -0.218958 0.912290
0.012421 -0.219026 0.912575
0.013967 -0.219079 0.912796
0.015515 -0.219153 0.913105
0.017067 -0.219266 0.913575
0.018616 -0.219317 0.913788
0.020170 -0.219411 0.914177
0.021727 -0.219526 0.914659
0.023285 -0.219645 0.915152
0.024843 -0.219740 0.915550
0.026407 -0.219875 0.916111
0.027965 -0.219944 0.916400
0.029526 -0.220034 0.916775
0.031098 -0.220190 0.917424
0.032674 -0.220355 0.918114
0.034252 -0.220528 0.918834
0.035832 -0.220692 0.919517
0.037406 -0.220803 0.919979
0.038968 -0.220845 0.920153
0.040536 -0.220911 0.920430
0.042111 -0.221009 0.920839
0.043697 -0.221161 0.921469
0.045318 -0.221468 0.922748
0.046953 -0.221823 0.924230
0.048600 -0.222210 0.925842
0.050267 -0.222662 0.927723
0.051935 -0.223090 0.929507
0.053594 -0.223453 0.931020
0.055273 -0.223880 0.932799
0.056967 -0.224340 0.934717
0.058652 -0.224742 0.936391
0.060360 -0.225207 0.938329
0.062052 -0.225594 0.939942
0.063724 -0.225887 0.941159
0.065385 -0.226130 0.942174
-0.074393 -0.244174 1.024590
-0.072664 -0.244184 1.024630
-0.070908 -0.244101 1.024280
-0.069142 -0.243981 1.023780
-0.067363 -0.243804 1.023040
-0.065594 -0.243660 1.022430
-0.063829 -0.243521 1.021850
-0.062058 -0.243348 1.021130
-0.060313 -0.243274 1.020810
-0.042432 -0.221959 0.931374
-0.040834 -0.221829 0.930829
-0.039230 -0.221656 0.930102
-0.037621 -0.221442 0.929205
-0.036001 -0.221145 0.927956
-0.034395 -0.220901 0.926934
-0.032772 -0.220526 0.925359
-0.031148 -0.220100 0.923574
-0.029538 -0.219739 0.922056
-0.027939 -0.219427 0.920747
-0.026342 -0.219089 0.919328
-0.024764 -0.218877 0.918441
-0.023186 -0.218641 0.917449
-0.021610 -0.218384 0.916371
-0.020031 -0.218062 0.915019
-0.018469 -0.217886 0.914284
-0.016909 -0.217700 0.913501
-0.015354 -0.217549 0.912869
-0.013805 -0.217462 0.912502
-0.012261 -0.217434 0.912385
-0.010712 -0.217301 0.911828
-0.009167 -0.217229 0.911524
-0.007626 -0.217220 0.911486
-0.006085 -0.217200 0.911403
-0.004543 -0.217165 0.911257
-0.003003 -0.217184 0.911337
-0.001462 -0.217116 0.911050
0.000078 -0.217111 0.911032
0.001619 -0.217176 0.911304
0.003161 -0.217254 0.911629
0.004703 -0.217309 0.911860
0.006247 -0.217394 0.912217
0.007788 -0.217367 0.912106
0.009328 -0.217321 0.911912
0.010870 -0.217320 0.911906
0.012414 -0.217365 0.912096
0.013959 -0.217414 0.912303
0.015506 -0.217484 0.912594
0.017056 -0.217571 0.912962
0.018604 -0.217620 0.913168
0.020158 -0.217735 0.913648
0.021714 -0.217853 0.914142
0.023272 -0.217970 0.914636
0.024832 -0.218087 0.915127
0.026395 -0.218222 0.915693
0.027953 -0.218298 0.916009
0.029514 -0.218390 0.916399
0.031088 -0.218568 0.917143
0.032670 -0.218776 0.918015
0.034256 -0.218995 0.918936
0.035838 -0.219168 0.919663
0.037412 -0.219282 0.920142
0.038970 -0.219295 0.920194
0.040532 -0.219332 0.920349
0.042102 -0.219404 0.920650
0.043684 -0.219533 0.921192
0.045295 -0.219791 0.922276
0.046924 -0.220119 0.923652
0.048559 -0.220455 0.925064
0.050225 -0.220903 0.926944
0.051893 -0.221334 0.928752
0.053567 -0.221763 0.930550
0.055257 -0.222233 0.932523
0.056961 -0.222733 0.934621
0.058641 -0.223112 0.936211
0.060353 -0.223593 0.938231
0.062046 -0.223979 0.939848
0.063719 -0.224272 0.941079
0.065381 -0.224517 0.942107
0.067645 -0.228382 0.951558
0.067641 -0.226754 0.951495
-0.074349 -0.242294 1.023980
-0.072604 -0.242247 1.023790
-0.070839 -0.242131 1.023300
-0.069059 -0.241953 1.022540
-0.067264 -0.241716 1.021540
-0.065488 -0.241537 1.020790
-0.063711 -0.241342 1.019960
-0.061921 -0.241087 1.018880
-0.060174 -0.240987 1.018460
-0.058414 -0.240831 1.017800
-0.042400 -0.220214 0.930670
-0.040809 -0.220119 0.930270
-0.039219 -0.220017 0.929840
-0.037614 -0.219825 0.929027
-0.036005 -0.219594 0.928050
-0.034402 -0.219375 0.927126
-0.032785 -0.219047 0.925738
-0.031164 -0.218650 0.924060
-0.029556 -0.218312 0.922634
-0.027954 -0.217982 0.921239
-0.026355 -0.217640 0.919794
-0.024771 -0.217387 0.918724
-0.023191 -0.217130 0.917638
-0.021614 -0.216877 0.916567
-0.020037 -0.216580 0.915313
-0.018474 -0.216391 0.914513
-0.016915 -0.216229 0.913828
-0.015360 -0.216079 0.913198
-0.013809 -0.215969 0.912731
-0.012262 -0.215915 0.912502
-0.010713 -0.215779 0.911929
-0.009168 -0.215686 0.911536
-0.007626 -0.215659 0.911419
-0.006084 -0.215619 0.911253
-0.004542 -0.215559 0.911000
-0.003002 -0.215556 0.910987
-0.001461 -0.215467 0.910609
0.000078 -0.215481 0.910668
0.001618 -0.215545 0.910937
0.003160 -0.215622 0.911265
0.004702 -0.215696 0.911575
0.006246 -0.215801 0.912020
0.007787 -0.215777 0.911919
0.009327 -0.215754 0.911821
0.010869 -0.215750 0.911807
0.012412 -0.215774 0.911906
0.013955 -0.215799 0.912011
0.015500 -0.215843 0.912200
0.017045 -0.215887 0.912384
0.018592 -0.215931 0.912572
0.020144 -0.216042 0.913037
0.021700 -0.216159 0.913533
0.023257 -0.216280 0.914044
0.024818 -0.216418 0.914626
0.026381 -0.216552 0.915195
0.027941 -0.216649 0.915604
0.029501 -0.216745 0.916009
0.031079 -0.216945 0.916855
0.032667 -0.217197 0.917921
0.034260 -0.217462 0.919041
0.035847 -0.217662 0.919886
0.037429 -0.217820 0.920553
0.038988 -0.217834 0.920614
0.040546 -0.217846 0.920662
0.042111 -0.217887 0.920839
0.043688 -0.217988 0.921262
0.045284 -0.218175 0.922056
0.046902 -0.218450 0.923217
0.048531 -0.218757 0.924512
0.050196 -0.219205 0.926406
0.051865 -0.219641 0.928250
0.053550 -0.220117 0.930262
0.055251 -0.220630 0.932428
0.056961 -0.221149 0.934621
0.058641 -0.221525 0.936211
0.060353 -0.222003 0.938231
0.062053 -0.222408 0.939942
0.063732 -0.222725 0.941284
0.065397 -0.222975 0.942338
0.067629 -0.225101 0.951323
-0.076455 -0.241743 1.029030
-0.074312 -0.240437 1.023470
-0.072551 -0.240336 1.023040
-0.070779 -0.240192 1.022430
-0.068984 -0.239960 1.021440
-0.067175 -0.239668 1.020200
-0.065380 -0.239409 1.019100
-0.063590 -0.239159 1.018030
-0.061787 -0.238840 1.016670
-0.060038 -0.238719 1.016160
-0.058275 -0.238533 1.015370
-0.042386 -0.218565 0.930368
-0.040799 -0.218485 0.930025
-0.039216 -0.218428 0.929784
-0.037617 -0.218271 0.929116
-0.036016 -0.218084 0.928322
-0.034413 -0.217871 0.927413
-0.032799 -0.217569 0.926129
-0.031183 -0.217219 0.924638
-0.029575 -0.216888 0.923227
-0.027972 -0.216560 0.921834
-0.026372 -0.216219 0.920381
-0.024787 -0.215964 0.919294
-0.023203 -0.215688 0.918122
-0.021628 -0.215457 0.917138
-0.020050 -0.215169 0.915910
-0.018488 -0.215001 0.915196
-0.016928 -0.214844 0.914526
-0.015369 -0.214670 0.913788
-0.013815 -0.214515 0.913127
-0.012266 -0.214434 0.912782
-0.010715 -0.214277 0.912116
-0.009169 -0.214168 0.911650
-0.007627 -0.214143 0.911543
-0.006084 -0.214080 0.911277
-0.004541 -0.213995 0.910912
-0.003001 -0.213964 0.910783
-0.001461 -0.213871 0.910387
0.000078 -0.213888 0.910459
0.001618 -0.213956 0.910748
0.003159 -0.214054 0.911164
0.004701 -0.214128 0.911480
0.006245 -0.214233 0.911928
0.007786 -0.214212 0.911836
0.009327 -0.214209 0.911826
0.010869 -0.214208 0.911821
0.012410 -0.214209 0.911826
0.013953 -0.214232 0.911922
0.015497 -0.214255 0.912020
0.017040 -0.214276 0.912108
0.018584 -0.214296 0.912197
0.020134 -0.214383 0.912565
0.021686 -0.214477 0.912968
0.023243 -0.214598 0.913482
0.024803 -0.214736 0.914067
0.026365 -0.214869 0.914633
0.027928 -0.215001 0.915195
0.029491 -0.215118 0.915693
0.031072 -0.215343 0.916652
0.032666 -0.215639 0.917912
0.034267 -0.215946 0.919221
0.035858 -0.216169 0.920169
0.037445 -0.216350 0.920937
0.039008 -0.216387 0.921095
0.040563 -0.216376 0.921051
0.042121 -0.216377 0.921052
0.043688 -0.216428 0.921269
0.045269 -0.216542 0.921757
0.046880 -0.216785 0.922789
0.048502 -0.217063 0.923972
0.050167 -0.217509 0.925871
0.051841 -0.217967 0.927822
0.053538 -0.218489 0.930044
0.055235 -0.218983 0.932145
0.056950 -0.219521 0.934435
0.058635 -0.219915 0.936112
0.060347 -0.220390 0.938135
0.062042 -0.220778 0.939786
0.063731 -0.221123 0.941258
0.065395 -0.221372 0.942316
0.067061 -0.221611 0.943331
-0.076072 -0.238796 1.023870
-0.074303 -0.238675 1.023350
-0.072524 -0.238513 1.022660
-0.070744 -0.238339 1.021910
-0.068934 -0.238056 1.020700
-0.067107 -0.237695 1.019150
-0.065298 -0.237385 1.017820
-0.063497 -0.237082 1.016530
-0.061680 -0.236705 1.014910
-0.059902 -0.236460 1.013860
-0.058135 -0.236246 1.012940
-0.040790 -0.216864 0.929838
-0.039210 -0.216817 0.929636
-0.037618 -0.216698 0.929124
-0.036019 -0.216531 0.928409
-0.034420 -0.216347 0.927621
-0.032814 -0.216093 0.926529
-0.031207 -0.215813 0.925330
-0.029601 -0.215511 0.924035
-0.027999 -0.215208 0.922736
-0.026398 -0.214868 0.921278
-0.024808 -0.214588 0.920076
-0.023218 -0.214273 0.918727
-0.021640 -0.214021 0.917647
-0.020063 -0.213754 0.916503
-0.018501 -0.213610 0.915886
-0.016941 -0.213453 0.915209
-0.015381 -0.213277 0.914458
-0.013823 -0.213098 0.913687
-0.012271 -0.212971 0.913146
-0.010719 -0.212794 0.912385
-0.009171 -0.212686 0.911922
-0.007628 -0.212643 0.911739
-0.006086 -0.212598 0.911543
-0.004543 -0.212526 0.911236
-0.003002 -0.212472 0.911006
-0.001461 -0.212382 0.910618
0.000078 -0.212420 0.910781
0.001619 -0.212492 0.911089
0.003160 -0.212592 0.911521
0.004703 -0.212668 0.911844
0.006247 -0.212751 0.912200
0.007788 -0.212709 0.912020
0.009328 -0.212686 0.911922
0.010869 -0.212665 0.911834
0.012412 -0.212686 0.911922
0.013956 -0.212730 0.912112
0.015500 -0.212755 0.912217
0.017044 -0.212776 0.912308
0.018588 -0.212794 0.912385
0.020134 -0.212836 0.912565
0.021684 -0.212906 0.912866
0.023240 -0.213025 0.913375
0.024798 -0.213141 0.913872
0.026356 -0.213251 0.914345
0.027919 -0.213380 0.914899
0.029487 -0.213535 0.915563
0.031074 -0.213805 0.916722
0.032676 -0.214149 0.918194
0.034285 -0.214499 0.919696
0.035886 -0.214779 0.920895
0.037474 -0.214959 0.921666
0.039036 -0.214980 0.921759
0.040589 -0.214953 0.921642
0.042143 -0.214930 0.921543
0.043697 -0.214912 0.921467
0.045265 -0.214958 0.921665
0.046870 -0.215173 0.922588
0.048491 -0.215447 0.923761
0.050151 -0.215870 0.925573
0.051829 -0.216344 0.927608
0.053526 -0.216863 0.929833
0.055216 -0.217331 0.931840
0.056926 -0.217845 0.934044
0.058615 -0.218256 0.935806
0.060328 -0.218730 0.937839
0.062023 -0.219116 0.939491
0.063719 -0.219488 0.941087
0.065392 -0.219762 0.942262
0.067065 -0.220024 0.943387
-0.076113 -0.237190 1.024430
-0.074339 -0.237053 1.023840
-0.072534 -0.236810 1.022790
-0.070744 -0.236608 1.021920
-0.068918 -0.236272 1.020470
-0.067076 -0.235862 1.018700
-0.065261 -0.235524 1.017240
-0.063458 -0.235216 1.015910
-0.061627 -0.234785 1.014050
-0.059842 -0.234507 1.012850
-0.058080 -0.234307 1.011980
-0.039203 -0.215201 0.929460
-0.037618 -0.215125 0.929135
-0.036023 -0.214979 0.928503
-0.034428 -0.214826 0.927841
-0.032828 -0.214616 0.926933
-0.031227 -0.214385 0.925939
-0.029624 -0.214113 0.924761
-0.028027 -0.213859 0.923665
-0.026426 -0.213539 0.922282
-0.024832 -0.213239 0.920988
-0.023240 -0.212919 0.919604
-0.021658 -0.212646 0.918428
-0.020080 -0.212377 0.917263
-0.018515 -0.212215 0.916565
-0.016953 -0.212057 0.915881
-0.015392 -0.211885 0.915138
-0.013833 -0.211702 0.914348
-0.012279 -0.211555 0.913714
-0.010726 -0.211395 0.913022
-0.009178 -0.211287 0.912556
-0.007633 -0.211224 0.912286
-0.006089 -0.211159 0.912005
-0.004545 -0.211069 0.911614
-0.003003 -0.210994 0.911290
-0.001462 -0.210906 0.910912
0.000078 -0.210948 0.911092
0.001619 -0.211042 0.911498
0.003162 -0.211162 0.912016
0.004705 -0.211215 0.912247
0.006250 -0.211294 0.912587
0.007791 -0.211249 0.912391
0.009331 -0.211204 0.912200
0.010871 -0.211163 0.912020
0.012414 -0.211183 0.912105
0.013958 -0.211208 0.912217
0.015500 -0.211215 0.912245
0.017046 -0.211259 0.912436
0.018592 -0.211297 0.912601
0.020137 -0.211318 0.912688
0.021684 -0.211362 0.912882
0.023238 -0.211452 0.913269
0.024788 -0.211505 0.913499
0.026340 -0.211573 0.913793
0.027902 -0.211701 0.914346
0.029478 -0.211918 0.915282
0.031075 -0.212257 0.916744
0.032691 -0.212689 0.918613
0.034308 -0.213085 0.920321
0.035917 -0.213403 0.921694
0.037503 -0.213558 0.922367
0.039065 -0.213578 0.922449
0.040616 -0.213531 0.922248
0.042170 -0.213505 0.922138
0.043725 -0.213484 0.922044
0.045297 -0.213546 0.922313
0.046903 -0.213763 0.923252
0.048527 -0.214041 0.924452
0.050184 -0.214441 0.926180
0.051856 -0.214884 0.928093
0.053535 -0.215326 0.930001
0.055209 -0.215723 0.931714
0.056899 -0.216160 0.933604
0.058582 -0.216546 0.935272
0.060294 -0.217018 0.937311
0.061992 -0.217415 0.939024
0.063703 -0.217836 0.940840
-0.076170 -0.235630 1.025200
-0.074386 -0.235468 1.024490
-0.072555 -0.235146 1.023090
-0.070739 -0.234861 1.021850
-0.068904 -0.234494 1.020260
-0.067054 -0.234057 1.018360
-0.065231 -0.233692 1.016770
-0.063427 -0.233382 1.015420
-0.061598 -0.232954 1.013560
-0.059798 -0.232620 1.012100
-0.058038 -0.232424 1.011250
-0.056268 -0.232173 1.010160
-0.037618 -0.213551 0.929139
-0.036025 -0.213420 0.928567
-0.034434 -0.213290 0.928001
-0.032841 -0.213133 0.927318
-0.031247 -0.212951 0.926526
-0.029650 -0.212729 0.925563
-0.028058 -0.212526 0.924677
-0.026458 -0.212229 0.923387
-0.024862 -0.211927 0.922072
-0.023265 -0.211584 0.920577
-0.021678 -0.211288 0.919292
-0.020098 -0.211018 0.918115
-0.018531 -0.210838 0.917333
-0.016966 -0.210663 0.916572
-0.015405 -0.210511 0.915909
-0.013845 -0.210331 0.915128
-0.012289 -0.210189 0.914512
-0.010736 -0.210049 0.913900
-0.009187 -0.209960 0.913513
-0.007641 -0.209897 0.913240
-0.006095 -0.209814 0.912879
-0.004549 -0.209725 0.912489
-0.003006 -0.209653 0.912180
-0.001463 -0.209568 0.911808
0.000078 -0.209611 0.911994
0.001621 -0.209704 0.912397
0.003165 -0.209801 0.912821
0.004709 -0.209829 0.912942
0.006254 -0.209884 0.913181
0.007795 -0.209813 0.912876
0.009336 -0.209767 0.912672
0.010877 -0.209722 0.912480
0.012420 -0.209742 0.912565
0.013965 -0.209767 0.912672
0.015508 -0.209775 0.912709
0.017057 -0.209839 0.912987
0.018606 -0.209901 0.913257
0.020150 -0.209906 0.913276
0.021698 -0.209946 0.913454
0.023249 -0.210006 0.913713
0.024796 -0.210031 0.913821
0.026347 -0.210078 0.914025
0.027917 -0.210265 0.914842
0.029504 -0.210551 0.916085
0.031113 -0.210960 0.917865
0.032737 -0.211430 0.919909
0.034360 -0.211847 0.921723
0.035968 -0.212140 0.922998
0.037551 -0.212269 0.923559
0.039116 -0.212286 0.923633
0.040668 -0.212239 0.923428
0.042220 -0.212190 0.923216
0.043771 -0.212143 0.923012
0.045344 -0.212205 0.923280
0.046954 -0.212428 0.924252
0.048583 -0.212716 0.925505
0.050236 -0.213093 0.927143
0.051903 -0.213504 0.928932
0.053564 -0.213863 0.930493
0.055214 -0.214162 0.931795
0.056876 -0.214490 0.933224
0.058549 -0.214838 0.934738
0.060255 -0.215289 0.936697
0.061954 -0.215691 0.938448
0.063687 -0.216190 0.940617
-0.076227 -0.234067 1.025970
-0.074440 -0.233901 1.025240
-0.072598 -0.233550 1.023700
-0.070757 -0.233185 1.022100
-0.068911 -0.232788 1.020360
-0.067045 -0.232299 1.018220
-0.065208 -0.231887 1.016410
-0.063405 -0.231579 1.015060
-0.061584 -0.231184 1.013330
-0.059777 -0.230821 1.011740
-0.058023 -0.230650 1.010990
-0.056263 -0.230438 1.010060
-0.037625 -0.212012 0.929295
-0.036027 -0.211853 0.928599
-0.034435 -0.211720 0.928015
-0.032846 -0.211591 0.927448
-0.031260 -0.211466 0.926901
-0.029666 -0.211274 0.926060
-0.028082 -0.211139 0.925469
-0.026487 -0.210891 0.924381
-0.024893 -0.210633 0.923251
-0.023295 -0.210292 0.921757
-0.021706 -0.209994 0.920450
-0.020122 -0.209707 0.919191
-0.018552 -0.209523 0.918384
-0.016984 -0.209329 0.917535
-0.015423 -0.209198 0.916960
-0.013862 -0.209046 0.916294
-0.012305 -0.208910 0.915701
-0.010750 -0.208775 0.915107
-0.009200 -0.208686 0.914716
-0.007651 -0.208622 0.914436
-0.006103 -0.208540 0.914077
-0.004556 -0.208471 0.913776
-0.003010 -0.208399 0.913460
-0.001465 -0.208312 0.913079
0.000079 -0.208334 0.913176
0.001623 -0.208402 0.913473
0.003168 -0.208476 0.913798
0.004713 -0.208481 0.913819
0.006259 -0.208513 0.913960
0.007801 -0.208421 0.913555
0.009342 -0.208355 0.913268
0.010883 -0.208290 0.912981
0.012428 -0.208328 0.913146
0.013975 -0.208370 0.913331
0.015521 -0.208397 0.913448
0.017072 -0.208482 0.913823
0.018625 -0.208569 0.914203
0.020169 -0.208557 0.914152
0.021717 -0.208578 0.914244
0.023266 -0.208612 0.914391
0.024812 -0.208609 0.914379
0.026363 -0.208653 0.914572
0.027940 -0.208885 0.915588
0.029538 -0.209242 0.917155
0.031157 -0.209703 0.919175
0.032791 -0.210217 0.921428
0.034417 -0.210632 0.923245
0.036023 -0.210899 0.924415
0.037600 -0.210979 0.924768
0.039163 -0.210973 0.924741
0.040713 -0.210907 0.924451
0.042267 -0.210860 0.924247
0.043819 -0.210813 0.924038
0.045399 -0.210895 0.924401
0.047017 -0.211141 0.925478
0.048649 -0.211434 0.926764
0.050295 -0.211769 0.928228
0.051956 -0.212145 0.929880
0.053599 -0.212428 0.931118
0.055222 -0.212614 0.931935
0.056858 -0.212839 0.932920
0.058518 -0.213141 0.934245
-0.076266 -0.232444 1.026480
-0.074468 -0.232248 1.025620
-0.072615 -0.231871 1.023950
-0.070756 -0.231450 1.022090
-0.068902 -0.231026 1.020220
-0.067020 -0.230489 1.017850
-0.065185 -0.230084 1.016060
-0.063391 -0.229807 1.014840
-0.061585 -0.229469 1.013340
-0.059770 -0.229082 1.011630
-0.058025 -0.228942 1.011010
-0.056266 -0.228739 1.010120
-0.036019 -0.210235 0.928407
-0.034431 -0.210122 0.927907
-0.032846 -0.210017 0.927440
-0.031264 -0.209923 0.927025
-0.029678 -0.209788 0.926430
-0.028100 -0.209702 0.926053
-0.026509 -0.209505 0.925181
-0.024918 -0.209274 0.924161
-0.023323 -0.208979 0.922856
-0.021732 -0.208687 0.921569
-0.020148 -0.208419 0.920386
-0.018574 -0.208217 0.919495
-0.017004 -0.208020 0.918624
-0.015441 -0.207885 0.918029
-0.013880 -0.207757 0.917460
-0.012320 -0.207610 0.916811
-0.010766 -0.207519 0.916412
-0.009213 -0.207431 0.916020
-0.007661 -0.207347 0.915649
-0.006111 -0.207263 0.915280
-0.004562 -0.207214 0.915063
-0.003014 -0.207142 0.914746
-0.001467 -0.207074 0.914444
0.000079 -0.207091 0.914519
0.001625 -0.207136 0.914720
0.003173 -0.207206 0.915029
0.004719 -0.207190 0.914956
0.006266 -0.207202 0.915011
0.007810 -0.207131 0.914699
0.009355 -0.207085 0.914495
0.010898 -0.207025 0.914229
0.012445 -0.207064 0.914403
0.013994 -0.207106 0.914585
0.015542 -0.207132 0.914700
0.017096 -0.207217 0.915078
0.018651 -0.207306 0.915470
0.020197 -0.207297 0.915430
0.021747 -0.207317 0.915518
0.023296 -0.207328 0.915568
0.024841 -0.207307 0.915474
0.026392 -0.207331 0.915578
0.027974 -0.207588 0.916715
0.029581 -0.207989 0.918484
0.031210 -0.208498 0.920734
0.032850 -0.209027 0.923070
0.034480 -0.209451 0.924943
0.036088 -0.209705 0.926065
0.037664 -0.209764 0.926323
0.039225 -0.209739 0.926215
0.040775 -0.209655 0.925844
0.042326 -0.209590 0.925554
0.043877 -0.209521 0.925252
0.045458 -0.209600 0.925600
0.047073 -0.209825 0.926593
0.048707 -0.210115 0.927874
0.050350 -0.210424 0.929239
0.052007 -0.210773 0.930779
0.053630 -0.210970 0.931648
0.055239 -0.211098 0.932216
0.056849 -0.211226 0.932780
0.058488 -0.211449 0.933766
-0.076666 -0.231917 1.031880
-0.074459 -0.230482 1.025490
-0.072591 -0.230057 1.023600
-0.070723 -0.229611 1.021620
-0.068862 -0.229165 1.019630
-0.066989 -0.228656 1.017370
-0.065162 -0.228282 1.015700
-0.063383 -0.228059 1.014710
-0.061591 -0.227776 1.013450
-0.059790 -0.227440 1.011960
-0.058048 -0.227318 1.011420
-0.056295 -0.227144 1.010640
-0.034494 -0.208932 0.929610
-0.032849 -0.208462 0.927520
-0.031268 -0.208380 0.927155
-0.029687 -0.208282 0.926718
-0.028111 -0.208218 0.926431
-0.026526 -0.208068 0.925767
-0.024942 -0.207910 0.925063
-0.023353 -0.207684 0.924057
-0.021765 -0.207439 0.922965
-0.020181 -0.207194 0.921874
-0.018602 -0.206973 0.920892
-0.017029 -0.206770 0.919992
-0.015464 -0.206635 0.919388
-0.013902 -0.206526 0.918905
-0.012340 -0.206382 0.918263
-0.010785 -0.206332 0.918043
-0.009230 -0.206261 0.917726
-0.007675 -0.206177 0.917350
-0.006121 -0.206074 0.916891
-0.004570 -0.206025 0.916677
-0.003019 -0.205916 0.916192
-0.001469 -0.205809 0.915716
0.000079 -0.205802 0.915682
0.001627 -0.205805 0.915695
0.003176 -0.205853 0.915911
0.004724 -0.205860 0.915940
0.006274 -0.205894 0.916091
0.007821 -0.205866 0.915969
0.009371 -0.205883 0.916044
0.010918 -0.205867 0.915973
0.012468 -0.205891 0.916078
0.014018 -0.205913 0.916177
0.015569 -0.205937 0.916284
0.017123 -0.206003 0.916576
0.018678 -0.206053 0.916798
0.020228 -0.206058 0.916823
0.021780 -0.206075 0.916896
0.023329 -0.206069 0.916869
0.024877 -0.206050 0.916785
0.026438 -0.206135 0.917166
0.028029 -0.206435 0.918501
0.029642 -0.206858 0.920381
0.031274 -0.207361 0.922621
0.032916 -0.207879 0.924925
0.034539 -0.208237 0.926517
0.036138 -0.208428 0.927368
0.037712 -0.208463 0.927523
0.039276 -0.208437 0.927407
0.040827 -0.208354 0.927038
0.042385 -0.208309 0.926838
0.043942 -0.208261 0.926623
0.045529 -0.208358 0.927054
0.047142 -0.208558 0.927944
0.048767 -0.208799 0.929019
0.050405 -0.209080 0.930266
0.052049 -0.209364 0.931530
0.053662 -0.209514 0.932197
0.055260 -0.209600 0.932583
0.056859 -0.209681 0.932941
-0.074815 -0.229839 1.030400
-0.072571 -0.228258 1.023320
-0.070696 -0.227793 1.021230
-0.068835 -0.227348 1.019240
-0.066972 -0.226872 1.017100
-0.065153 -0.226529 1.015560
-0.063376 -0.226313 1.014600
-0.061591 -0.226057 1.013450
-0.059790 -0.225724 1.011960
-0.058048 -0.225604 1.011420
-0.056132 -0.224779 1.007720
-0.043576 -0.214971 0.956479
-0.045196 -0.214986 0.956546
-0.045202 -0.213393 0.956672
-0.043575 -0.213344 0.956456
-0.031300 -0.207020 0.928103
-0.029690 -0.206736 0.926827
-0.028117 -0.206691 0.926626
-0.026538 -0.206586 0.926158
-0.024961 -0.206496 0.925752
-0.023378 -0.206339 0.925050
-0.021793 -0.206142 0.924166
-0.020211 -0.205943 0.923273
-0.018632 -0.205741 0.922369
-0.017057 -0.205542 0.921474
-0.015487 -0.205384 0.920770
-0.013923 -0.205274 0.920276
-0.012358 -0.205128 0.919620
-0.010801 -0.205079 0.919401
-0.009243 -0.205010 0.919089
-0.007687 -0.204927 0.918717
-0.006130 -0.204820 0.918241
-0.004577 -0.204772 0.918024
-0.003023 -0.204644 0.917450
-0.001471 -0.204537 0.916972
0.000079 -0.204530 0.916941
0.001629 -0.204511 0.916854
0.003179 -0.204538 0.916974
0.004730 -0.204564 0.917091
0.006282 -0.204605 0.917274
0.007833 -0.204624 0.917359
0.009387 -0.204687 0.917645
0.010940 -0.204718 0.917782
0.012494 -0.204763 0.917985
0.014049 -0.204802 0.918160
0.015602 -0.204820 0.918238
0.017158 -0.204865 0.918441
0.018714 -0.204892 0.918561
0.020267 -0.204894 0.918570
0.021821 -0.204907 0.918628
0.023378 -0.204940 0.918775
0.024936 -0.204986 0.918984
0.026510 -0.205140 0.919674
0.028114 -0.205500 0.921287
0.029732 -0.205919 0.923166
0.031359 -0.206355 0.925120
0.032991 -0.206785 0.927048
0.034607 -0.207074 0.928344
0.036196 -0.207183 0.928835
0.037769 -0.207200 0.928911
0.039334 -0.207175 0.928795
0.040892 -0.207110 0.928507
0.042452 -0.207066 0.928308
0.044016 -0.207037 0.928177
0.045602 -0.207115 0.928529
0.047207 -0.207271 0.929230
0.048823 -0.207464 0.930094
0.050457 -0.207715 0.931216
0.052093 -0.207961 0.932321
0.053703 -0.208093 0.932912
0.055301 -0.208171 0.933263
-0.072558 -0.226485 1.023140
-0.070684 -0.226024 1.021060
-0.068825 -0.225587 1.019090
-0.066963 -0.225121 1.016980
-0.065152 -0.224803 1.015540
-0.063376 -0.224592 1.014590
-0.061597 -0.224361 1.013550
-0.059803 -0.224059 1.012180
-0.058062 -0.223944 1.011670
-0.056011 -0.222591 1.005550
-0.046824 -0.211791 0.956763
-0.045205 -0.211786 0.956742
-0.043575 -0.211721 0.956447
-0.041950 -0.211683 0.956273
-0.033076 -0.206736 0.933926
-0.031390 -0.206033 0.930751
-0.029743 -0.205527 0.928463
-0.028146 -0.205326 0.927559
-0.026567 -0.205243 0.927184
-0.024989 -0.205158 0.926798
-0.023408 -0.205029 0.926215
-0.021821 -0.204837 0.925349
-0.020239 -0.204660 0.924548
-0.018660 -0.204483 0.923749
-0.017084 -0.204309 0.922961
-0.015512 -0.204154 0.922264
-0.013947 -0.204063 0.921850
-0.012379 -0.203914 0.921180
-0.010818 -0.203846 0.920872
-0.009259 -0.203799 0.920657
-0.007699 -0.203700 0.920211
-0.006140 -0.203575 0.919648
-0.004583 -0.203500 0.919308
-0.003027 -0.203349 0.918624
-0.001473 -0.203203 0.917965
0.000079 -0.203195 0.917928
0.001631 -0.203175 0.917839
0.003183 -0.203221 0.918045
0.004736 -0.203265 0.918247
0.006290 -0.203330 0.918539
0.007845 -0.203377 0.918751
0.009402 -0.203465 0.919152
0.010958 -0.203500 0.919309
0.012515 -0.203545 0.919511
0.014072 -0.203581 0.919674
0.015628 -0.203595 0.919736
0.017186 -0.203636 0.919921
0.018744 -0.203663 0.920042
0.020301 -0.203684 0.920139
0.021858 -0.203697 0.920196
0.023423 -0.203773 0.920541
0.024990 -0.203864 0.920951
0.026576 -0.204087 0.921961
0.028182 -0.204436 0.923535
0.029802 -0.204835 0.925338
0.031421 -0.205195 0.926966
0.033049 -0.205570 0.928659
0.034653 -0.205773 0.929578
0.036240 -0.205860 0.929969
0.037814 -0.205874 0.930031
0.039381 -0.205846 0.929906
0.040937 -0.205764 0.929535
0.042508 -0.205760 0.929519
0.044087 -0.205798 0.929690
0.045682 -0.205904 0.930168
0.047291 -0.206061 0.930876
0.048932 -0.206345 0.932159
0.050583 -0.206653 0.933552
0.052210 -0.206845 0.934420
0.053910 -0.207306 0.936503
-0.072543 -0.224702 1.022920
-0.070677 -0.224269 1.020950
-0.068819 -0.223841 1.019000
-0.066964 -0.223401 1.017000
-0.065154 -0.223088 1.015570
-0.063376 -0.222873 1.014600
-0.061604 -0.222669 1.013660
-0.059823 -0.222418 1.012530
-0.058091 -0.222338 1.012160
-0.055930 -0.220565 1.004090
-0.048646 -0.212684 0.960797
-0.048754 -0.211526 0.962937
-0.046834 -0.210216 0.956974
-0.045215 -0.210210 0.956948
-0.043581 -0.210129 0.956579
-0.041951 -0.210069 0.956305
-0.040298 -0.211499 0.955443
-0.040297 -0.209872 0.955409
-0.038597 -0.211029 0.953318
-0.033255 -0.206268 0.939004
-0.031534 -0.205398 0.935043
-0.029857 -0.204736 0.932027
-0.028229 -0.204354 0.930288
-0.026628 -0.204143 0.929327
-0.025031 -0.203930 0.928360
-0.023440 -0.203737 0.927481
-0.021845 -0.203486 0.926337
-0.020263 -0.203331 0.925633
-0.018684 -0.203177 0.924930
-0.017108 -0.203029 0.924256
-0.015536 -0.202901 0.923674
-0.013971 -0.202849 0.923440
-0.012403 -0.202741 0.922945
-0.010842 -0.202733 0.922911
-0.009282 -0.202734 0.922915
-0.007719 -0.202656 0.922560
-0.006154 -0.202490 0.921803
-0.004592 -0.202345 0.921145
-0.003032 -0.202127 0.920152
-0.001475 -0.201919 0.919204
0.000079 -0.201875 0.919007
0.001633 -0.201857 0.918921
0.003187 -0.201899 0.919115
0.004742 -0.201964 0.919411
0.006300 -0.202069 0.919888
0.007858 -0.202158 0.920291
0.009420 -0.202288 0.920885
0.010981 -0.202357 0.921200
0.012540 -0.202382 0.921313
0.014098 -0.202397 0.921383
0.015655 -0.202393 0.921364
0.017215 -0.202415 0.921461
0.018773 -0.202422 0.921494
0.020335 -0.202465 0.921692
0.021898 -0.202504 0.921868
0.023470 -0.202626 0.922423
0.025049 -0.202782 0.923134
0.026646 -0.203055 0.924377
0.028257 -0.203408 0.925983
0.029878 -0.203783 0.927689
0.031491 -0.204073 0.929011
0.033107 -0.204353 0.930285
0.034705 -0.204503 0.930968
0.036290 -0.204566 0.931254
0.037867 -0.204582 0.931328
0.039440 -0.204576 0.931301
0.041006 -0.204534 0.931111
0.042602 -0.204636 0.931571
0.044214 -0.204808 0.932358
0.045840 -0.205032 0.933376
0.047480 -0.205301 0.934599
0.049143 -0.205648 0.936178
0.050797 -0.205939 0.937507
0.052466 -0.206270 0.939010
0.054186 -0.206775 0.941311
0.055967 -0.207478 0.944512
-0.072537 -0.222950 1.022840
-0.070671 -0.222520 1.020860
-0.068815 -0.222100 1.018940
-0.066967 -0.221685 1.017040
-0.065162 -0.221395 1.015700
-0.063377 -0.221156 1.014610
-0.061612 -0.220977 1.013790
-0.059850 -0.220803 1.012990
-0.058132 -0.220780 1.012880
-0.056015 -0.219196 1.005620
-0.046958 -0.209147 0.959514
-0.045232 -0.208666 0.957309
-0.043594 -0.208572 0.956878
-0.041957 -0.208476 0.956436
-0.040301 -0.208272 0.955501
-0.038651 -0.208085 0.954642
-0.036870 -0.208761 0.950350
-0.036897 -0.207301 0.951046
-0.035035 -0.207405 0.944180
-0.035126 -0.206340 0.946635
-0.033383 -0.205462 0.942610
-0.031667 -0.204669 0.938972
-0.029982 -0.204006 0.935927
-0.028339 -0.203569 0.933923
-0.026719 -0.203260 0.932507
-0.025101 -0.202925 0.930969
-0.023492 -0.202616 0.929552
-0.021883 -0.202272 0.927972
-0.020296 -0.202094 0.927154
-0.018717 -0.201963 0.926556
-0.017141 -0.201845 0.926013
-0.015570 -0.201781 0.925719
-0.014006 -0.201790 0.925763
-0.012438 -0.201749 0.925573
-0.010875 -0.201771 0.925677
-0.009312 -0.201818 0.925888
-0.007744 -0.201741 0.925537
-0.006173 -0.201531 0.924574
-0.004605 -0.201316 0.923588
-0.003039 -0.201047 0.922355
-0.001478 -0.200776 0.921109
0.000079 -0.200710 0.920806
0.001635 -0.200654 0.920550
0.003191 -0.200639 0.920483
0.004749 -0.200681 0.920672
0.006310 -0.200824 0.921332
0.007870 -0.200899 0.921675
0.009436 -0.201067 0.922446
0.011002 -0.201191 0.923014
0.012566 -0.201252 0.923293
0.014127 -0.201252 0.923293
0.015689 -0.201269 0.923372
0.017252 -0.201290 0.923469
0.018814 -0.201297 0.923501
0.020380 -0.201345 0.923720
0.021947 -0.201390 0.923925
0.023526 -0.201536 0.924595
0.025114 -0.201735 0.925508
0.026719 -0.202046 0.926934
0.028336 -0.202402 0.928570
0.029958 -0.202752 0.930177
0.031564 -0.202971 0.931179
0.033179 -0.203217 0.932309
0.034777 -0.203345 0.932897
0.036370 -0.203435 0.933307
0.037967 -0.203536 0.933773
0.039564 -0.203636 0.934230
0.041153 -0.203680 0.934431
0.042773 -0.203873 0.935317
0.044413 -0.204143 0.936556
0.046060 -0.204428 0.937862
0.047716 -0.204730 0.939250
0.049380 -0.205044 0.940690
0.051032 -0.205294 0.941836
0.052696 -0.205572 0.943111
0.054464 -0.206231 0.946136
0.063799 -0.212284 0.966392
0.062237 -0.210889 0.967507
0.063843 -0.210792 0.967059
0.065367 -0.212073 0.965429
0.065424 -0.210617 0.966258
0.066874 -0.211675 0.963619
0.066932 -0.210225 0.964457
0.068397 -0.211349 0.962134
0.069027 -0.211648 0.970988
-0.072535 -0.221211 1.022810
-0.070671 -0.220791 1.020870
-0.068823 -0.220397 1.019050
-0.066975 -0.219988 1.017160
-0.065177 -0.219721 1.015930
-0.063384 -0.219461 1.014720
-0.061625 -0.219306 1.014010
-0.059871 -0.219162 1.013340
-0.058157 -0.219158 1.013320
-0.056084 -0.217762 1.006870
-0.047076 -0.208041 0.961920
-0.045248 -0.207115 0.957640
-0.043605 -0.207003 0.957120
-0.041959 -0.206862 0.956468
-0.040300 -0.206650 0.955490
-0.038647 -0.206448 0.954555
-0.036941 -0.205933 0.952172
-0.035215 -0.205254 0.949032
-0.033514 -0.204663 0.946303
-0.031812 -0.204007 0.943267
-0.030126 -0.203395 0.940437
-0.028468 -0.202905 0.938173
-0.026833 -0.202539 0.936480
-0.025193 -0.202082 0.934366
-0.023565 -0.201670 0.932465
-0.021943 -0.201252 0.930531
-0.020348 -0.201028 0.929493
-0.018763 -0.200882 0.928821
-0.017184 -0.200785 0.928370
-0.015612 -0.200745 0.928187
-0.014045 -0.200781 0.928354
-0.012476 -0.200787 0.928382
-0.010909 -0.200843 0.928639
-0.009342 -0.200896 0.928883
-0.007768 -0.200799 0.928437
-0.006191 -0.200557 0.927317
-0.004617 -0.200298 0.926121
-0.003047 -0.200004 0.924762
-0.001482 -0.199731 0.923496
0.000079 -0.199680 0.923263
0.001640 -0.199618 0.922976
0.003199 -0.199561 0.922712
0.004759 -0.199560 0.922706
0.006323 -0.199699 0.923349
0.007887 -0.199758 0.923620
0.009455 -0.199914 0.924343
0.011027 -0.200080 0.925111
0.012598 -0.200181 0.925577
0.014162 -0.200183 0.925590
0.015729 -0.200203 0.925682
0.017295 -0.200222 0.925769
0.018861 -0.200226 0.925784
0.020430 -0.200270 0.925991
0.022003 -0.200336 0.926294
0.023589 -0.200504 0.927072
0.025186 -0.200742 0.928170
0.026794 -0.201031 0.929508
0.028414 -0.201382 0.931131
0.030034 -0.201686 0.932537
0.031638 -0.201862 0.933349
0.033249 -0.202066 0.934296
0.034861 -0.202254 0.935161
0.036468 -0.202396 0.935820
0.038087 -0.202597 0.936750
0.039713 -0.202811 0.937739
0.041325 -0.202943 0.938350
0.042963 -0.203186 0.939471
0.044621 -0.203507 0.940955
0.046285 -0.203826 0.942431
0.047955 -0.204155 0.943954
0.049626 -0.204466 0.945389
0.051295 -0.204747 0.946690
0.052988 -0.205105 0.948344
0.054782 -0.205823 0.951666
0.056654 -0.206783 0.956105
0.060563 -0.209119 0.966903
0.062274 -0.209375 0.968087
0.063885 -0.209291 0.967701
0.065468 -0.209121 0.966915
0.067488 -0.210322 0.972467
-0.072500 -0.219372 1.022320
-0.070645 -0.218978 1.020490
-0.068806 -0.218616 1.018800
-0.066967 -0.218237 1.017040
-0.065170 -0.217976 1.015820
-0.063384 -0.217740 1.014720
-0.061631 -0.217609 1.014110
-0.059885 -0.217493 1.013570
-0.058173 -0.217497 1.013590
-0.056229 -0.216612 1.009460
-0.047118 -0.206596 0.962783
-0.045269 -0.205586 0.958079
-0.043625 -0.205472 0.957547
-0.041970 -0.205297 0.956732
-0.040313 -0.205097 0.955798
-0.038661 -0.204903 0.954896
-0.036993 -0.204608 0.953521
-0.035300 -0.204136 0.951323
-0.033621 -0.203712 0.949343
-0.031943 -0.203241 0.947152
-0.030273 -0.202780 0.945002
-0.028602 -0.202266 0.942608
-0.026957 -0.201880 0.940808
-0.025304 -0.201383 0.938491
-0.023664 -0.200924 0.936352
-0.022032 -0.200478 0.934274
-0.020425 -0.200209 0.933020
-0.018830 -0.200022 0.932150
-0.017242 -0.199886 0.931514
-0.015663 -0.199823 0.931223
-0.014091 -0.199857 0.931380
-0.012517 -0.199869 0.931438
-0.010946 -0.199930 0.931722
-0.009374 -0.200000 0.932045
-0.007794 -0.199896 0.931560
-0.006211 -0.199632 0.930330
-0.004632 -0.199375 0.929134
-0.003057 -0.199087 0.927791
-0.001487 -0.198799 0.926449
0.000080 -0.198767 0.926301
0.001645 -0.198703 0.926002
0.003210 -0.198660 0.925803
0.004775 -0.198670 0.925848
0.006345 -0.198824 0.926568
0.007913 -0.198845 0.926665
0.009486 -0.198987 0.927324
0.011062 -0.199136 0.928018
0.012635 -0.199205 0.928340
0.014204 -0.199190 0.928272
0.015774 -0.199209 0.928361
0.017345 -0.199224 0.928431
0.018913 -0.199205 0.928339
0.020486 -0.199246 0.928531
0.022063 -0.199309 0.928825
0.023648 -0.199434 0.929410
0.025246 -0.199648 0.930407
0.026855 -0.199912 0.931637
0.028474 -0.200221 0.933077
0.030090 -0.200484 0.934300
0.031700 -0.200676 0.935196
0.033322 -0.200919 0.936330
0.034950 -0.201180 0.937545
0.036579 -0.201421 0.938671
0.038226 -0.201739 0.940152
0.039876 -0.202048 0.941593
0.041506 -0.202233 0.942454
0.043160 -0.202517 0.943775
0.044834 -0.202873 0.945438
0.046507 -0.203200 0.946959
0.048194 -0.203563 0.948653
0.049886 -0.203922 0.950326
0.051572 -0.204238 0.951796
0.053313 -0.204744 0.954153
0.055123 -0.205479 0.957579
0.058859 -0.207233 0.965754
0.060691 -0.207916 0.968938
0.062328 -0.207912 0.968917
0.063954 -0.207874 0.968742
0.065552 -0.207750 0.968163
-0.072471 -0.217553 1.021920
-0.070625 -0.217187 1.020200
-0.068796 -0.216857 1.018650
-0.066966 -0.216508 1.017010
-0.065169 -0.216253 1.015810
-0.063384 -0.216020 1.014720
-0.061631 -0.215890 1.014110
-0.059897 -0.215819 1.013780
-0.058197 -0.215870 1.014010
-0.056374 -0.215455 1.012060
-0.047152 -0.205110 0.963470
-0.045289 -0.204054 0.958511
-0.043644 -0.203938 0.957965
-0.041988 -0.203762 0.957139
-0.040335 -0.203585 0.956306
-0.038683 -0.203400 0.955440
-0.037019 -0.203134 0.954189
-0.035348 -0.202803 0.952634
-0.033689 -0.202507 0.951243
-0.032024 -0.202152 0.949579
-0.030369 -0.201822 0.948026
-0.028712 -0.201436 0.946215
-0.027060 -0.201047 0.944384
-0.025402 -0.200567 0.942131
-0.023757 -0.200120 0.940033
-0.022121 -0.199699 0.938052
-0.020505 -0.199411 0.936702
-0.018900 -0.199182 0.935625
-0.017304 -0.199015 0.934840
-0.015716 -0.198920 0.934395
-0.014136 -0.198911 0.934353
-0.012557 -0.198918 0.934386
-0.010981 -0.198992 0.934731
