1688
-0.021156 -0.177891 0.966438
-0.019433 -0.177074 0.962001
-0.017732 -0.176328 0.957945
-0.016087 -0.176049 0.956432
-0.014454 -0.175856 0.955382
-0.012831 -0.175744 0.954775
-0.011212 -0.175670 0.954369
-0.009593 -0.175577 0.953864
-0.007973 -0.175405 0.952929
-0.006355 -0.175226 0.951961
-0.004741 -0.175031 0.950899
-0.003130 -0.174875 0.950052
-0.001523 -0.174762 0.949435
0.000082 -0.174771 0.949489
0.001687 -0.174774 0.949503
0.003292 -0.174780 0.949538
0.004898 -0.174801 0.949648
0.006504 -0.174817 0.949736
0.008108 -0.174783 0.949551
0.009711 -0.174748 0.949359
0.011314 -0.174709 0.949150
0.012915 -0.174669 0.948932
0.014516 -0.174630 0.948723
0.016117 -0.174595 0.948532
0.017721 -0.174595 0.948532
0.019326 -0.174614 0.948631
0.020934 -0.174651 0.948833
0.022543 -0.174690 0.949048
0.024158 -0.174765 0.949452
0.025774 -0.174840 0.949861
0.027389 -0.174897 0.950172
0.029002 -0.174936 0.950382
0.030615 -0.174971 0.950574
0.032222 -0.174971 0.950574
0.033822 -0.174936 0.950382
0.035421 -0.174897 0.950172
0.037018 -0.174857 0.949953
0.038616 -0.174818 0.949743
0.040213 -0.174783 0.949551
0.041818 -0.174783 0.949551
0.043424 -0.174783 0.949551
0.045038 -0.174817 0.949736
0.046663 -0.174891 0.950137
0.048296 -0.174989 0.950669
0.049943 -0.175127 0.951420
0.051669 -0.175528 0.953597
-0.050288 -0.187397 1.027540
-0.048521 -0.187283 1.026920
-0.046746 -0.187127 1.026070
-0.044969 -0.186952 1.025100
-0.043182 -0.186714 1.023800
-0.041410 -0.186531 1.022800
-0.039639 -0.186333 1.021710
-0.037877 -0.186162 1.020770
-0.036067 -0.185730 1.018410
-0.034108 -0.186162 1.011370
-0.034273 -0.185336 1.016240
-0.021228 -0.176851 0.969718
-0.019438 -0.175491 0.962262
-0.017729 -0.174675 0.957788
-0.016086 -0.174416 0.956367
-0.014454 -0.174244 0.955425
-0.012832 -0.174145 0.954882
-0.011214 -0.174091 0.954582
-0.009594 -0.173982 0.953986
-0.007974 -0.173813 0.953062
-0.006356 -0.173633 0.952072
-0.004741 -0.173435 0.950987
-0.003130 -0.173264 0.950049
-0.001523 -0.173153 0.949441
0.000082 -0.173167 0.949517
0.001687 -0.173187 0.949628
0.003293 -0.173193 0.949660
0.004899 -0.173212 0.949764
0.006505 -0.173226 0.949842
0.008109 -0.173190 0.949643
0.009710 -0.173120 0.949257
0.011311 -0.173060 0.948932
0.012911 -0.172997 0.948583
0.014509 -0.172937 0.948259
0.016107 -0.172884 0.947965
0.017710 -0.172884 0.947965
0.019315 -0.172903 0.948067
0.020924 -0.172959 0.948374
0.022538 -0.173037 0.948807
0.024158 -0.173153 0.949443
0.025780 -0.173270 0.950083
0.027402 -0.173369 0.950622
0.029019 -0.173427 0.950942
0.030633 -0.173464 0.951144
0.032241 -0.173464 0.951144
0.033842 -0.173427 0.950942
0.035437 -0.173369 0.950622
0.037031 -0.173305 0.950274
0.038628 -0.173262 0.950038
0.040221 -0.173208 0.949743
0.041823 -0.173192 0.949653
0.043433 -0.173208 0.949743
0.045047 -0.173243 0.949935
0.046669 -0.173302 0.950258
0.048303 -0.173400 0.950793
0.049944 -0.173517 0.951437
0.051651 -0.173850 0.953262
-0.050274 -0.185603 1.027260
-0.048508 -0.185490 1.026630
-0.046729 -0.185321 1.025690
-0.044948 -0.185128 1.024630
-0.043155 -0.184866 1.023170
-0.041370 -0.184619 1.021810
-0.039586 -0.184356 1.020360
-0.037818 -0.184144 1.019180
-0.036082 -0.184076 1.018800
-0.034355 -0.184056 1.018690
-0.032430 -0.184627 1.012360
-0.032584 -0.183780 1.017170
-0.030597 -0.183896 1.008340
-0.030818 -0.183503 1.015630
-0.019454 -0.173999 0.963032
-0.017728 -0.173048 0.957765
-0.016085 -0.172787 0.956325
-0.014455 -0.172626 0.955433
-0.012833 -0.172533 0.954919
-0.011216 -0.172494 0.954699
-0.009596 -0.172387 0.954108
-0.007976 -0.172236 0.953271
-0.006358 -0.172072 0.952365
-0.004744 -0.171909 0.951461
-0.003132 -0.171759 0.950633
-0.001524 -0.171654 0.950050
0.000082 -0.171670 0.950142
0.001688 -0.171690 0.950253
0.003294 -0.171680 0.950198
0.004901 -0.171680 0.950196
0.006508 -0.171708 0.950350
0.008112 -0.171653 0.950045
0.009713 -0.171562 0.949545
0.011313 -0.171483 0.949107
0.012910 -0.171383 0.948553
0.014506 -0.171288 0.948025
0.016102 -0.171215 0.947623
0.017703 -0.171214 0.947616
0.019308 -0.171233 0.947722
0.020919 -0.171308 0.948135
0.022537 -0.171422 0.948768
0.024163 -0.171578 0.949629
0.025791 -0.171734 0.950493
0.027420 -0.171871 0.951252
0.029042 -0.171948 0.951681
0.030657 -0.171985 0.951884
0.032266 -0.171983 0.951874
0.033864 -0.171929 0.951571
0.035457 -0.171853 0.951152
0.037051 -0.171788 0.950793
0.038649 -0.171744 0.950550
0.040243 -0.171689 0.950248
0.041841 -0.171656 0.950061
0.043447 -0.171655 0.950055
0.045062 -0.171689 0.950248
0.046684 -0.171748 0.950573
0.048315 -0.171832 0.951035
0.049946 -0.171912 0.951477
0.051635 -0.172180 0.952965
-0.052283 -0.184826 1.032640
-0.050245 -0.183755 1.026660
-0.048480 -0.183644 1.026040
-0.046697 -0.183456 1.024990
-0.044913 -0.183245 1.023810
-0.043110 -0.182941 1.022110
-0.041312 -0.182629 1.020370
-0.039516 -0.182303 1.018540
-0.037741 -0.182047 1.017120
-0.035996 -0.181919 1.016400
-0.034263 -0.181837 1.015950
-0.032556 -0.181897 1.016280
-0.030852 -0.181980 1.016740
-0.028988 -0.182792 1.011700
-0.029071 -0.181594 1.014580
-0.027134 -0.181826 1.006350
-0.027276 -0.181060 1.011600
-0.016085 -0.171170 0.956345
-0.014457 -0.171036 0.955596
-0.012835 -0.170942 0.955073
-0.011218 -0.170914 0.954915
-0.009598 -0.170802 0.954291
-0.007977 -0.170656 0.953474
-0.006360 -0.170495 0.952575
-0.004746 -0.170387 0.951972
-0.003135 -0.170297 0.951468
-0.001526 -0.170266 0.951297
0.000082 -0.170337 0.951689
0.001691 -0.170389 0.951980
0.003300 -0.170359 0.951817
0.004908 -0.170324 0.951621
0.006516 -0.170300 0.951484
0.008119 -0.170191 0.950875
0.009719 -0.170047 0.950072
0.011317 -0.169932 0.949428
0.012912 -0.169797 0.948677
0.014506 -0.169685 0.948050
0.016102 -0.169612 0.947641
0.017704 -0.169610 0.947630
0.019308 -0.169628 0.947733
0.020921 -0.169720 0.948241
0.022542 -0.169852 0.948981
0.024173 -0.170042 0.950041
0.025811 -0.170251 0.951210
0.027449 -0.170440 0.952265
0.029079 -0.170553 0.952898
0.030702 -0.170622 0.953284
0.032313 -0.170619 0.953267
0.033910 -0.170547 0.952863
0.035498 -0.170438 0.952253
0.037087 -0.170342 0.951717
0.038678 -0.170264 0.951281
0.040270 -0.170193 0.950886
0.041865 -0.170143 0.950606
0.043471 -0.170139 0.950583
0.045087 -0.170172 0.950769
0.046705 -0.170213 0.951001
0.048326 -0.170259 0.951257
0.049941 -0.170283 0.951392
0.051547 -0.170273 0.951336
-0.051976 -0.182000 1.026580
-0.050205 -0.181872 1.025850
-0.048431 -0.181721 1.025000
-0.046639 -0.181492 1.023710
-0.044846 -0.181239 1.022280
-0.043032 -0.180879 1.020250
-0.041227 -0.180527 1.018270
-0.039429 -0.180177 1.016290
-0.037648 -0.179879 1.014610
-0.035896 -0.179693 1.013570
-0.034160 -0.179573 1.012890
-0.032436 -0.179512 1.012540
-0.030711 -0.179435 1.012110
-0.028979 -0.179302 1.011360
-0.027231 -0.179054 1.009960
-0.025406 -0.179928 1.005280
-0.025425 -0.178359 1.006040
-0.012861 -0.169671 0.957036
-0.011237 -0.169580 0.956520
-0.009612 -0.169433 0.955693
-0.007979 -0.169076 0.953677
-0.006362 -0.168954 0.952990
-0.004750 -0.168924 0.952821
-0.003139 -0.168913 0.952759
-0.001529 -0.168946 0.952943
0.000082 -0.169069 0.953639
0.001695 -0.169151 0.954101
0.003307 -0.169119 0.953918
0.004918 -0.169049 0.953526
0.006527 -0.168972 0.953092
0.008130 -0.168806 0.952156
0.009729 -0.168622 0.951116
0.011326 -0.168453 0.950167
0.012921 -0.168305 0.949327
0.014516 -0.168193 0.948698
0.016113 -0.168118 0.948276
0.017716 -0.168116 0.948262
0.019323 -0.168152 0.948468
0.020944 -0.168296 0.949281
0.022574 -0.168481 0.950323
0.024215 -0.168721 0.951675
0.025858 -0.168948 0.952959
0.027503 -0.169154 0.954116
0.029136 -0.169269 0.954767
0.030763 -0.169340 0.955166
0.032373 -0.169320 0.955052
0.033973 -0.169246 0.954637
0.035563 -0.169134 0.954005
0.037151 -0.169020 0.953363
0.038738 -0.168910 0.952740
0.040327 -0.168821 0.952242
0.041928 -0.168784 0.952029
0.043541 -0.168798 0.952108
0.045200 -0.168984 0.953157
0.046868 -0.169187 0.954306
-0.053959 -0.181090 1.031300
-0.051916 -0.180051 1.025390
-0.050136 -0.179885 1.024440
-0.048348 -0.179675 1.023240
-0.046556 -0.179438 1.021900
-0.044755 -0.179145 1.020230
-0.042940 -0.178768 1.018080
-0.041131 -0.178384 1.015890
-0.039332 -0.178016 1.013800
-0.037543 -0.177663 1.011790
-0.035787 -0.177436 1.010500
-0.034048 -0.177276 1.009580
-0.032323 -0.177174 1.009000
-0.030596 -0.177053 1.008310
-0.028862 -0.176871 1.007280
-0.027104 -0.176515 1.005250
-0.025347 -0.176112 1.002960
-0.023592 -0.175671 1.000440
-0.011257 -0.168259 0.958233
-0.009627 -0.168089 0.957262
-0.007993 -0.167747 0.955314
-0.006376 -0.167705 0.955078
-0.004760 -0.167652 0.954774
-0.003147 -0.167702 0.955058
-0.001533 -0.167779 0.955497
0.000082 -0.167924 0.956327
0.001700 -0.168011 0.956820
0.003317 -0.167977 0.956625
0.004931 -0.167888 0.956118
0.006543 -0.167753 0.955350
0.008146 -0.167511 0.953972
0.009744 -0.167265 0.952573
0.011339 -0.167041 0.951297
0.012934 -0.166860 0.950267
0.014531 -0.166751 0.949646
0.016131 -0.166695 0.949328
0.017739 -0.166726 0.949504
0.019354 -0.166817 0.950020
0.020986 -0.167018 0.951163
0.022626 -0.167259 0.952539
0.024277 -0.167538 0.954126
0.025925 -0.167764 0.955413
0.027574 -0.167968 0.956576
0.029211 -0.168084 0.957234
0.030843 -0.168159 0.957662
0.032459 -0.168142 0.957568
0.034062 -0.168066 0.957136
0.035652 -0.167932 0.956370
0.037242 -0.167813 0.955692
0.038827 -0.167681 0.954941
0.040420 -0.167591 0.954427
0.042024 -0.167554 0.954216
0.043641 -0.167569 0.954300
0.045336 -0.167870 0.956019
0.047050 -0.168219 0.958004
0.048895 -0.170633 0.962459
0.049154 -0.169895 0.967547
0.050960 -0.172111 0.970795
-0.053611 -0.178185 1.024650
-0.051841 -0.178057 1.023920
-0.050051 -0.177847 1.022710
-0.048249 -0.177578 1.021160
-0.046460 -0.177337 1.019770
-0.044657 -0.177023 1.017970
-0.042841 -0.176634 1.015730
-0.041032 -0.176239 1.013460
-0.039234 -0.175860 1.011290
-0.037446 -0.175491 1.009160
-0.035682 -0.175209 1.007540
-0.033940 -0.175006 1.006370
-0.032205 -0.174827 1.005340
-0.030474 -0.174645 1.004300
-0.028736 -0.174399 1.002880
-0.026989 -0.174066 1.000970
-0.025246 -0.173720 0.998978
-0.023515 -0.173404 0.997158
-0.021834 -0.175136 0.997394
-0.021783 -0.173038 0.995054
-0.020068 -0.172758 0.993442
-0.012985 -0.168034 0.966281
-0.011304 -0.167322 0.962185
-0.009665 -0.167119 0.961020
-0.008016 -0.166601 0.958036
-0.006398 -0.166651 0.958324
-0.004779 -0.166685 0.958524
-0.003159 -0.166736 0.958816
-0.001539 -0.166781 0.959074
0.000083 -0.166912 0.959825
0.001706 -0.166965 0.960133
0.003328 -0.166915 0.959842
0.004947 -0.166791 0.959134
0.006562 -0.166619 0.958140
0.008167 -0.166316 0.956398
0.009766 -0.166027 0.954740
0.011361 -0.165749 0.953138
0.012956 -0.165534 0.951903
0.014557 -0.165442 0.951373
0.016163 -0.165423 0.951263
0.017781 -0.165509 0.951759
0.019409 -0.165674 0.952709
0.021053 -0.165935 0.954211
0.022700 -0.166187 0.955659
0.024360 -0.166487 0.957384
0.026013 -0.166710 0.958667
0.027665 -0.166895 0.959729
0.029306 -0.167006 0.960366
0.030947 -0.167098 0.960898
0.032566 -0.167069 0.960728
0.034171 -0.166976 0.960196
0.035765 -0.166837 0.959399
0.037366 -0.166748 0.958881
0.038961 -0.166637 0.958243
0.040576 -0.166616 0.958124
0.042200 -0.166632 0.958214
0.043838 -0.166700 0.958611
0.045560 -0.167073 0.960750
0.047309 -0.167515 0.963295
-0.053524 -0.176161 1.022990
-0.051746 -0.175999 1.022040
-0.049943 -0.175732 1.020490
-0.048143 -0.175461 1.018920
-0.046354 -0.175210 1.017460
-0.044546 -0.174862 1.015440
-0.042730 -0.174457 1.013090
-0.040925 -0.174067 1.010830
-0.039133 -0.173697 1.008680
-0.037350 -0.173334 1.006570
-0.035586 -0.173033 1.004820
-0.033840 -0.172790 1.003410
-0.032099 -0.172552 1.002030
-0.030357 -0.172278 1.000440
-0.028613 -0.171963 0.998610
-0.026883 -0.171695 0.997050
-0.025162 -0.171452 0.995639
-0.023451 -0.171251 0.994472
-0.021743 -0.171041 0.993252
-0.020054 -0.170954 0.992749
-0.018359 -0.170797 0.991837
-0.009719 -0.166411 0.966369
-0.008058 -0.165848 0.963096
-0.006427 -0.165777 0.962685
-0.004798 -0.165733 0.962428
-0.003172 -0.165757 0.962566
-0.001545 -0.165768 0.962635
0.000083 -0.165892 0.963352
0.001712 -0.165925 0.963546
0.003340 -0.165876 0.963260
0.004964 -0.165733 0.962430
0.006583 -0.165527 0.961231
0.008191 -0.165190 0.959278
0.009794 -0.164866 0.957392
0.011391 -0.164566 0.955650
0.012992 -0.164381 0.954579
0.014603 -0.164344 0.954362
0.016218 -0.164367 0.954495
0.017846 -0.164495 0.955240
0.019485 -0.164698 0.956416
0.021136 -0.164963 0.957957
0.022785 -0.165184 0.959238
0.024448 -0.165463 0.960863
0.026104 -0.165664 0.962027
0.027755 -0.165808 0.962862
0.029399 -0.165900 0.963396
0.031048 -0.166008 0.964026
0.032672 -0.165979 0.963860
0.034286 -0.165905 0.963428
0.035892 -0.165800 0.962820
0.037508 -0.165749 0.962524
0.039112 -0.165650 0.961946
0.040748 -0.165692 0.962189
0.042394 -0.165764 0.962610
0.044050 -0.165871 0.963233
0.045789 -0.166276 0.965585
0.047568 -0.166789 0.968563
-0.055508 -0.175231 1.027700
-0.053440 -0.174153 1.021380
-0.051652 -0.173949 1.020180
-0.049846 -0.173666 1.018520
-0.048042 -0.173368 1.016780
-0.046248 -0.173087 1.015120
-0.044433 -0.172704 1.012880
-0.042621 -0.172299 1.010510
-0.040821 -0.171913 1.008240
-0.039038 -0.171569 1.006230
-0.037260 -0.171217 1.004160
-0.035497 -0.170898 1.002290
-0.033750 -0.170633 1.000740
-0.032006 -0.170355 0.999107
-0.030262 -0.170049 0.997308
-0.028533 -0.169792 0.995801
-0.026820 -0.169607 0.994719
-0.025113 -0.169434 0.993705
-0.023416 -0.169309 0.992972
-0.021718 -0.169158 0.992086
-0.020027 -0.169047 0.991434
-0.018334 -0.168888 0.990503
-0.016638 -0.168668 0.989213
-0.008105 -0.165168 0.968686
-0.006460 -0.164978 0.967569
-0.004819 -0.164827 0.966681
-0.003184 -0.164785 0.966438
-0.001550 -0.164716 0.966034
0.000083 -0.164779 0.966404
0.001717 -0.164757 0.966274
0.003349 -0.164722 0.966068
0.004978 -0.164580 0.965236
0.006603 -0.164395 0.964147
0.008218 -0.164096 0.962396
0.009827 -0.163794 0.960626
0.011431 -0.163515 0.958990
0.013040 -0.163365 0.958108
0.014659 -0.163349 0.958014
0.016281 -0.163380 0.958196
0.017918 -0.163532 0.959086
0.019563 -0.163732 0.960262
0.021218 -0.163972 0.961666
0.022870 -0.164164 0.962797
0.024533 -0.164398 0.964169
0.026185 -0.164542 0.965014
0.027832 -0.164633 0.965545
0.029475 -0.164688 0.965870
0.031124 -0.164777 0.966390
0.032756 -0.164766 0.966326
0.034382 -0.164729 0.966111
0.036001 -0.164665 0.965736
0.037636 -0.164674 0.965788
0.039259 -0.164634 0.965552
0.040917 -0.164740 0.966175
0.042581 -0.164856 0.966855
0.044254 -0.165002 0.967709
0.046007 -0.165422 0.970175
0.047794 -0.165932 0.973165
0.049728 -0.168559 0.978841
0.049935 -0.167597 0.982927
-0.055111 -0.172249 1.020360
-0.053348 -0.172127 1.019640
-0.051556 -0.171898 1.018280
-0.049759 -0.171638 1.016740
-0.047960 -0.171350 1.015030
-0.046163 -0.171052 1.013270
-0.044351 -0.170670 1.011000
-0.042540 -0.170261 1.008580
-0.040734 -0.169844 1.006110
-0.038953 -0.169492 1.004030
-0.037180 -0.169147 1.001980
-0.035420 -0.168835 1.000130
-0.033676 -0.168570 0.998562
-0.031936 -0.168293 0.996925
-0.030199 -0.168009 0.995238
-0.028477 -0.167776 0.993857
-0.026774 -0.167631 0.993000
-0.025076 -0.167500 0.992224
-0.023387 -0.167416 0.991728
-0.021692 -0.167276 0.990900
-0.020004 -0.167170 0.990270
-0.018312 -0.167006 0.989299
-0.016617 -0.166781 0.987968
-0.014918 -0.166460 0.986066
-0.009827 -0.164942 0.977072
-0.008153 -0.164503 0.974472
-0.006494 -0.164216 0.972771
-0.004842 -0.163952 0.971206
-0.003198 -0.163819 0.970421
-0.001555 -0.163656 0.969452
0.000083 -0.163627 0.969280
0.001721 -0.163522 0.968660
0.003357 -0.163471 0.968356
0.004991 -0.163362 0.967712
0.006622 -0.163230 0.966932
0.008243 -0.162961 0.965338
0.009859 -0.162704 0.963817
0.011473 -0.162481 0.962495
0.013091 -0.162369 0.961832
0.014718 -0.162377 0.961877
0.016351 -0.162445 0.962282
0.017994 -0.162593 0.963157
0.019641 -0.162749 0.964079
0.021289 -0.162890 0.964916
0.022934 -0.162985 0.965482
0.024585 -0.163110 0.966217
0.026232 -0.163197 0.966736
0.027875 -0.163249 0.967046
0.029517 -0.163286 0.967262
0.031166 -0.163357 0.967681
0.032806 -0.163379 0.967810
0.034436 -0.163350 0.967643
0.036063 -0.163311 0.967413
0.037710 -0.163359 0.967693
0.039349 -0.163371 0.967767
0.041024 -0.163529 0.968703
0.042698 -0.163667 0.969517
0.044377 -0.163817 0.970406
0.046095 -0.164092 0.972037
0.047839 -0.164435 0.974071
0.049564 -0.164698 0.975627
-0.055048 -0.170323 1.019180
-0.053278 -0.170175 1.018300
-0.051495 -0.169972 1.017080
-0.049712 -0.169755 1.015780
-0.047919 -0.169487 1.014180
-0.046109 -0.169137 1.012080
-0.044292 -0.168731 1.009660
-0.042473 -0.168288 1.007010
-0.040666 -0.167857 1.004420
-0.038885 -0.167496 1.002270
-0.037119 -0.167176 1.000350
-0.035362 -0.166866 0.998497
-0.033618 -0.166588 0.996832
-0.031878 -0.166300 0.995112
-0.030148 -0.166039 0.993549
-0.028436 -0.165848 0.992405
-0.026736 -0.165710 0.991576
-0.025042 -0.165596 0.990898
-0.023355 -0.165509 0.990373
-0.021660 -0.165351 0.989427
-0.019970 -0.165213 0.988602
-0.018281 -0.165050 0.987626
-0.016591 -0.164847 0.986414
-0.014901 -0.164595 0.984908
-0.013219 -0.164390 0.983680
-0.011513 -0.165433 0.979980
-0.011528 -0.163997 0.981327
-0.009850 -0.163674 0.979396
-0.008178 -0.163352 0.977468
-0.006515 -0.163079 0.975837
-0.004858 -0.162828 0.974334
-0.003206 -0.162625 0.973117
-0.001559 -0.162388 0.971701
0.000084 -0.162289 0.971105
0.001724 -0.162183 0.970475
0.003363 -0.162118 0.970083
0.005001 -0.162031 0.969563
0.006637 -0.161952 0.969091
0.008265 -0.161756 0.967919
0.009889 -0.161561 0.966749
0.011513 -0.161414 0.965872
0.013141 -0.161357 0.965528
0.014776 -0.161380 0.965668
0.016415 -0.161444 0.966053
0.018058 -0.161535 0.966599
0.019702 -0.161616 0.967082
0.021343 -0.161661 0.967353
0.022978 -0.161662 0.967359
0.024619 -0.161697 0.967566
0.026263 -0.161747 0.967867
0.027899 -0.161749 0.967877
0.029536 -0.161749 0.967877
0.031181 -0.161799 0.968173
0.032820 -0.161806 0.968217
0.034451 -0.161782 0.968073
0.036088 -0.161781 0.968070
0.037739 -0.161843 0.968440
0.039381 -0.161865 0.968569
0.041069 -0.162064 0.969761
0.042754 -0.162238 0.970801
0.044445 -0.162420 0.971890
0.046142 -0.162609 0.973021
0.047853 -0.162834 0.974367
0.049528 -0.162924 0.974905
-0.055337 -0.169483 1.024550
-0.053229 -0.168293 1.017360
-0.051454 -0.168112 1.016260
-0.049673 -0.167900 1.014980
-0.047885 -0.167650 1.013460
-0.046066 -0.167265 1.011140
-0.044241 -0.166827 1.008490
-0.042415 -0.166351 1.005620
-0.040605 -0.165904 1.002920
-0.038821 -0.165528 1.000640
-0.037058 -0.165210 0.998719
-0.035308 -0.164922 0.996979
-0.033571 -0.164667 0.995437
-0.031841 -0.164422 0.993952
-0.030120 -0.164202 0.992625
-0.028413 -0.164035 0.991616
-0.026712 -0.163882 0.990689
-0.025016 -0.163747 0.989872
-0.023325 -0.163620 0.989108
-0.021627 -0.163425 0.987929
-0.019936 -0.163254 0.986894
-0.018251 -0.163110 0.986021
-0.016566 -0.162926 0.984912
-0.014882 -0.162724 0.983691
-0.013207 -0.162570 0.982756
-0.011528 -0.162324 0.981269
-0.009854 -0.162076 0.979769
-0.008188 -0.161884 0.978612
-0.006523 -0.161639 0.977128
-0.004865 -0.161407 0.975726
-0.003211 -0.161184 0.974376
-0.001561 -0.160939 0.972896
0.000084 -0.160801 0.972065
0.001726 -0.160714 0.971538
0.003367 -0.160654 0.971173
0.005007 -0.160602 0.970859
0.006647 -0.160557 0.970591
0.008280 -0.160417 0.969740
0.009911 -0.160278 0.968900
0.011544 -0.160202 0.968440
0.013180 -0.160197 0.968410
0.014820 -0.160217 0.968536
0.016462 -0.160262 0.968804
0.018102 -0.160281 0.968922
0.019739 -0.160274 0.968877
0.021371 -0.160229 0.968608
0.023000 -0.160175 0.968279
0.024632 -0.160141 0.968076
0.026269 -0.160141 0.968076
0.027899 -0.160107 0.967870
0.029526 -0.160055 0.967555
0.031164 -0.160067 0.967627
0.032797 -0.160056 0.967559
0.034427 -0.160029 0.967395
0.036066 -0.160045 0.967492
0.037715 -0.160100 0.967829
0.039352 -0.160105 0.967854
0.041029 -0.160263 0.968811
0.042716 -0.160446 0.969917
0.044389 -0.160568 0.970654
0.046069 -0.160706 0.971491
0.047757 -0.160857 0.972400
0.049408 -0.160880 0.972540
-0.053524 -0.167491 1.022990
-0.051420 -0.166279 1.015590
-0.049645 -0.166085 1.014400
-0.047853 -0.165820 1.012780
-0.046035 -0.165438 1.010450
-0.044206 -0.164988 1.007700
-0.042371 -0.164479 1.004590
-0.040559 -0.164017 1.001770
-0.038772 -0.163623 0.999365
-0.037007 -0.163290 0.997332
-0.035260 -0.163008 0.995605
-0.033529 -0.162775 0.994184
-0.031804 -0.162551 0.992816
-0.030095 -0.162385 0.991804
-0.028391 -0.162226 0.990832
-0.026688 -0.162060 0.989820
-0.024989 -0.161890 0.988777
-0.023292 -0.161716 0.987719
-0.021591 -0.161484 0.986302
-0.019899 -0.161283 0.985074
-0.018218 -0.161145 0.984232
-0.016539 -0.160998 0.983329
-0.014862 -0.160842 0.982379
-0.013193 -0.160736 0.981734
-0.011524 -0.160608 0.980948
-0.009856 -0.160443 0.979943
-0.008192 -0.160299 0.979063
-0.006528 -0.160091 0.977790
-0.004868 -0.159877 0.976485
-0.003212 -0.159618 0.974903
-0.001562 -0.159374 0.973414
0.000084 -0.159205 0.972381
0.001727 -0.159121 0.971866
0.003368 -0.159062 0.971508
0.005010 -0.159045 0.971406
0.006651 -0.159019 0.971243
0.008289 -0.158929 0.970692
0.009924 -0.158843 0.970167
0.011562 -0.158806 0.969942
0.013201 -0.158804 0.969928
0.014841 -0.158806 0.969942
0.016483 -0.158827 0.970071
0.018119 -0.158794 0.969871
0.019752 -0.158737 0.969521
0.021380 -0.158657 0.969036
0.023008 -0.158583 0.968582
0.024634 -0.158516 0.968172
0.026266 -0.158483 0.967973
0.027893 -0.158431 0.967650
0.029512 -0.158341 0.967106
0.031139 -0.158298 0.966841
0.032763 -0.158247 0.966530
0.034386 -0.158200 0.966244
0.036015 -0.158182 0.966130
0.037655 -0.158209 0.966295
0.039289 -0.158209 0.966294
0.040950 -0.158314 0.966940
0.042628 -0.158477 0.967936
0.044298 -0.158597 0.968665
0.045972 -0.158721 0.969426
0.047640 -0.158821 0.970033
0.049275 -0.158803 0.969926
0.051426 -0.162059 0.979670
-0.051390 -0.164462 1.015000
-0.049616 -0.164271 1.013820
-0.047831 -0.164026 1.012310
-0.046014 -0.163649 1.009980
-0.044186 -0.163206 1.007250
-0.042348 -0.162686 1.004040
-0.040530 -0.162205 1.001070
-0.038736 -0.161777 0.998427
-0.036968 -0.161430 0.996284
-0.035223 -0.161152 0.994567
-0.033498 -0.160942 0.993274
-0.031778 -0.160738 0.992013
-0.030075 -0.160595 0.991129
-0.028371 -0.160437 0.990159
-0.026665 -0.160240 0.988941
-0.024960 -0.160032 0.987659
-0.023260 -0.159821 0.986355
-0.021559 -0.159571 0.984815
-0.019869 -0.159374 0.983594
-0.018191 -0.159241 0.982774
-0.016516 -0.159114 0.981989
-0.014845 -0.158994 0.981252
-0.013179 -0.158909 0.980723
-0.011515 -0.158819 0.980172
-0.009851 -0.158709 0.979490
-0.008190 -0.158616 0.978918
-0.006528 -0.158427 0.977749
-0.004869 -0.158247 0.976640
-0.003213 -0.157991 0.975064
-0.001562 -0.157752 0.973588
0.000084 -0.157586 0.972560
0.001727 -0.157504 0.972056
0.003369 -0.157430 0.971601
0.005011 -0.157429 0.971595
0.006653 -0.157419 0.971532
0.008291 -0.157334 0.971006
0.009930 -0.157283 0.970691
0.011569 -0.157266 0.970584
0.013210 -0.157264 0.970577
0.014851 -0.157266 0.970584
0.016492 -0.157267 0.970595
0.018125 -0.157201 0.970185
0.019756 -0.157126 0.969721
0.021382 -0.157030 0.969132
0.023005 -0.156926 0.968486
0.024632 -0.156858 0.968069
0.026260 -0.156808 0.967761
0.027883 -0.156737 0.967324
0.029495 -0.156612 0.966551
0.031113 -0.156533 0.966062
0.032724 -0.156426 0.965404
0.034338 -0.156345 0.964900
0.035961 -0.156308 0.964676
0.037596 -0.156323 0.964764
0.039223 -0.156310 0.964687
0.040872 -0.156380 0.965117
0.042546 -0.156534 0.966068
0.044206 -0.156630 0.966663
0.045873 -0.156743 0.967356
0.047533 -0.156823 0.967850
0.049158 -0.156788 0.967638
0.050898 -0.158750 0.969604
0.050759 -0.156681 0.966973
0.052915 -0.159895 0.976593
0.052379 -0.156635 0.966694
-0.051364 -0.162661 1.014500
-0.049592 -0.162474 1.013330
-0.047813 -0.162251 1.011940
-0.046002 -0.161896 1.009720
-0.044175 -0.161459 1.007000
-0.042338 -0.160946 1.003800
-0.040521 -0.160469 1.000820
-0.038721 -0.160025 0.998057
-0.036950 -0.159663 0.995799
-0.035202 -0.159372 0.993980
-0.033479 -0.159166 0.992697
-0.031757 -0.158950 0.991349
-0.030055 -0.158808 0.990466
-0.028349 -0.158634 0.989381
-0.026638 -0.158404 0.987944
-0.024929 -0.158159 0.986415
-0.023226 -0.157917 0.984906
-0.021524 -0.157651 0.983251
-0.019838 -0.157458 0.982046
-0.018163 -0.157331 0.981252
-0.016494 -0.157237 0.980664
-0.014828 -0.157151 0.980128
-0.013164 -0.157067 0.979608
-0.011503 -0.156996 0.979167
-0.009842 -0.156905 0.978598
-0.008183 -0.156814 0.978030
-0.006522 -0.156627 0.976864
-0.004866 -0.156482 0.975958
-0.003211 -0.156251 0.974519
-0.001562 -0.156051 0.973270
0.000084 -0.155890 0.972265
0.001727 -0.155837 0.971935
0.003368 -0.155761 0.971460
0.005010 -0.155760 0.971454
0.006653 -0.155754 0.971415
0.008292 -0.155702 0.971091
0.009932 -0.155669 0.970891
0.011573 -0.155669 0.970891
0.013214 -0.155669 0.970891
0.014856 -0.155669 0.970891
0.016495 -0.155653 0.970787
0.018127 -0.155570 0.970270
0.019755 -0.155480 0.969706
0.021382 -0.155386 0.969121
0.023005 -0.155282 0.968471
0.024632 -0.155215 0.968058
0.026257 -0.155149 0.967644
0.027877 -0.155062 0.967103
0.029485 -0.154920 0.966218
0.031099 -0.154824 0.965615
0.032699 -0.154669 0.964653
0.034311 -0.154583 0.964117
0.035928 -0.154532 0.963795
0.037558 -0.154531 0.963787
0.039180 -0.154503 0.963614
0.040822 -0.154552 0.963919
0.042487 -0.154683 0.964738
0.044144 -0.154774 0.965308
0.045809 -0.154884 0.965990
0.047458 -0.154936 0.966319
0.049085 -0.154916 0.966188
0.050678 -0.154793 0.965425
0.052290 -0.154734 0.965057
0.054413 -0.157793 0.973841
0.053900 -0.154670 0.964657
-0.051340 -0.160864 1.014010
-0.049569 -0.160681 1.012860
-0.047796 -0.160476 1.011560
-0.045995 -0.160161 1.009580
-0.044170 -0.159734 1.006880
-0.042330 -0.159213 1.003600
-0.040508 -0.158724 1.000520
-0.038700 -0.158249 0.997523
-0.036922 -0.157854 0.995034
-0.035171 -0.157548 0.993109
-0.033453 -0.157361 0.991925
-0.031736 -0.157165 0.990694
-0.030032 -0.157009 0.989707
-0.028321 -0.156799 0.988387
-0.026607 -0.156547 0.986798
-0.024897 -0.156287 0.985158
-0.023194 -0.156033 0.983555
-0.021498 -0.155790 0.982024
-0.019815 -0.155617 0.980934
-0.018142 -0.155489 0.980129
-0.016476 -0.155398 0.979553
-0.014811 -0.155313 0.979019
-0.013151 -0.155246 0.978596
-0.011491 -0.155177 0.978158
-0.009832 -0.155086 0.977584
-0.008174 -0.154995 0.977014
-0.006516 -0.154844 0.976061
-0.004862 -0.154706 0.975193
-0.003209 -0.154514 0.973983
-0.001561 -0.154337 0.972864
0.000084 -0.154193 0.971956
0.001726 -0.154123 0.971518
0.003367 -0.154063 0.971136
0.005009 -0.154061 0.971127
0.006651 -0.154073 0.971199
0.008291 -0.154039 0.970987
0.009931 -0.154008 0.970794
0.011572 -0.154007 0.970787
0.013211 -0.153992 0.970688
0.014851 -0.153976 0.970587
0.016488 -0.153943 0.970381
0.018121 -0.153874 0.969950
0.019747 -0.153769 0.969288
0.021375 -0.153694 0.968812
0.023000 -0.153607 0.968263
0.024629 -0.153557 0.967949
0.026251 -0.153476 0.967436
0.027874 -0.153405 0.966994
0.029479 -0.153251 0.966021
0.031087 -0.153126 0.965230
0.032682 -0.152957 0.964165
0.034293 -0.152870 0.963617
0.035906 -0.152802 0.963191
0.037534 -0.152799 0.963173
0.039158 -0.152785 0.963081
0.040791 -0.152801 0.963183
0.042445 -0.152896 0.963781
0.044091 -0.152953 0.964142
0.045743 -0.153029 0.964618
0.047381 -0.153051 0.964758
0.049010 -0.153045 0.964721
0.050607 -0.152940 0.964063
0.052228 -0.152915 0.963903
0.053847 -0.152886 0.963716
0.055970 -0.155896 0.972301
0.055485 -0.152910 0.963872
-0.051644 -0.160088 1.020010
-0.049552 -0.158910 1.012510
-0.047784 -0.158724 1.011320
-0.045990 -0.158430 1.009460
-0.044170 -0.158028 1.006890
-0.042335 -0.157534 1.003740
-0.040509 -0.157033 1.000550
-0.038700 -0.156556 0.997512
-0.036916 -0.156144 0.994889
-0.035162 -0.155824 0.992845
-0.033441 -0.155624 0.991571
-0.031722 -0.155414 0.990237
-0.030008 -0.155207 0.988919
-0.028291 -0.154961 0.987350
-0.026573 -0.154676 0.985531
-0.024862 -0.154402 0.983790
-0.023162 -0.154155 0.982215
-0.021471 -0.153934 0.980805
-0.019793 -0.153778 0.979810
-0.018122 -0.153654 0.979019
-0.016457 -0.153564 0.978447
-0.014795 -0.153479 0.977907
-0.013136 -0.153415 0.977500
-0.011478 -0.153344 0.977049
-0.009821 -0.153256 0.976483
-0.008164 -0.153151 0.975814
-0.006509 -0.153016 0.974957
-0.004857 -0.152899 0.974209
-0.003207 -0.152745 0.973230
-0.001560 -0.152589 0.972236
0.000084 -0.152478 0.971530
0.001725 -0.152409 0.971087
0.003366 -0.152363 0.970794
0.005007 -0.152365 0.970806
0.006650 -0.152394 0.970995
0.008289 -0.152363 0.970794
0.009928 -0.152330 0.970587
0.011568 -0.152312 0.970470
0.013206 -0.152278 0.970256
0.014841 -0.152231 0.969956
0.016477 -0.152197 0.969735
0.018109 -0.152129 0.969308
0.019734 -0.152027 0.968656
0.021363 -0.151969 0.968284
0.022990 -0.151900 0.967847
0.024619 -0.151853 0.967546
0.026241 -0.151774 0.967045
0.027862 -0.151703 0.966593
0.029467 -0.151551 0.965620
0.031074 -0.151428 0.964840
0.032673 -0.151279 0.963887
0.034286 -0.151208 0.963438
0.035899 -0.151140 0.963003
0.037522 -0.151121 0.962883
0.039146 -0.151105 0.962778
0.040773 -0.151105 0.962778
0.042414 -0.151152 0.963081
0.044058 -0.151205 0.963416
0.045704 -0.151261 0.963777
0.047339 -0.151281 0.963904
0.048967 -0.151277 0.963879
0.050573 -0.151207 0.963427
0.052194 -0.151183 0.963279
0.053812 -0.151153 0.963087
0.055442 -0.151158 0.963118
0.057135 -0.152965 0.964215
0.057088 -0.151206 0.963427
0.058802 -0.153062 0.964830
0.058747 -0.151285 0.963927
0.060454 -0.153116 0.965167
0.060392 -0.151322 0.964163
0.062108 -0.153170 0.965507
0.062043 -0.151375 0.964503
0.064263 -0.154425 0.973421
0.063695 -0.151424 0.964813
-0.049547 -0.157176 1.012400
-0.047779 -0.156991 1.011210
-0.045985 -0.156703 1.009350
-0.044171 -0.156324 1.006910
-0.042341 -0.155853 1.003870
-0.040510 -0.155341 1.000570
-0.038699 -0.154862 0.997495
-0.036911 -0.154435 0.994742
-0.035149 -0.154085 0.992490
-0.033425 -0.153873 0.991122
-0.031704 -0.153648 0.989674
-0.029980 -0.153390 0.988010
-0.028264 -0.153141 0.986410
-0.026544 -0.152839 0.984463
-0.024836 -0.152574 0.982755
-0.023141 -0.152348 0.981298
-0.021453 -0.152147 0.980005
-0.019777 -0.151994 0.979018
-0.018107 -0.151870 0.978219
-0.016442 -0.151765 0.977546
-0.014780 -0.151668 0.976917
-0.013123 -0.151603 0.976499
-0.011465 -0.151519 0.975962
-0.009810 -0.151432 0.975396
-0.008155 -0.151325 0.974711
-0.006502 -0.151208 0.973956
-0.004852 -0.151106 0.973301
-0.003205 -0.150989 0.972548
-0.001559 -0.150852 0.971664
0.000084 -0.150776 0.971176
0.001725 -0.150723 0.970831
0.003365 -0.150681 0.970563
0.005006 -0.150685 0.970585
0.006648 -0.150716 0.970785
0.008287 -0.150669 0.970484
0.009924 -0.150619 0.970163
0.011564 -0.150612 0.970117
0.013199 -0.150561 0.969791
0.014834 -0.150513 0.969482
0.016469 -0.150477 0.969249
0.018099 -0.150410 0.968816
0.019722 -0.150295 0.968075
0.021353 -0.150255 0.967820
0.022977 -0.150176 0.967306
0.024603 -0.150116 0.966919
0.026223 -0.150036 0.966409
0.027844 -0.149964 0.965946
0.029447 -0.149814 0.964977
0.031060 -0.149724 0.964400
0.032665 -0.149608 0.963649
0.034282 -0.149556 0.963314
0.035899 -0.149506 0.962994
0.037522 -0.149488 0.962880
0.039146 -0.149473 0.962778
0.040773 -0.149473 0.962778
0.042410 -0.149503 0.962975
0.044048 -0.149537 0.963191
0.045687 -0.149572 0.963416
0.047316 -0.149575 0.963435
0.048944 -0.149572 0.963416
0.050551 -0.149506 0.962995
0.052166 -0.149470 0.962761
0.053776 -0.149422 0.962453
0.055397 -0.149406 0.962350
0.057024 -0.149406 0.962352
0.058675 -0.149468 0.962746
0.060318 -0.149504 0.962978
0.061967 -0.149556 0.963316
0.063617 -0.149605 0.963633
0.065313 -0.151394 0.964623
0.065239 -0.149589 0.963531
0.066914 -0.151327 0.964196
0.066838 -0.149524 0.963108
0.069058 -0.152462 0.971427
0.068435 -0.149455 0.962662
-0.049542 -0.155444 1.012300
-0.047774 -0.155260 1.011100
-0.045984 -0.154990 1.009340
-0.044176 -0.154632 1.007010
-0.042346 -0.154170 1.004000
-0.040519 -0.153679 1.000800
-0.038708 -0.153205 0.997716
-0.036915 -0.152764 0.994842
-0.035146 -0.152388 0.992391
-0.033418 -0.152158 0.990894
-0.031689 -0.151901 0.989222
-0.029959 -0.151609 0.987319
-0.028238 -0.151329 0.985497
-0.026519 -0.151031 0.983556
-0.024814 -0.150772 0.981866
-0.023120 -0.150552 0.980435
-0.021437 -0.150370 0.979250
-0.019761 -0.150218 0.978258
-0.018091 -0.150079 0.977355
-0.016425 -0.149959 0.976571
-0.014763 -0.149844 0.975828
-0.013106 -0.149763 0.975301
-0.011451 -0.149681 0.974761
-0.009798 -0.149593 0.974193
-0.008145 -0.149491 0.973525
-0.006496 -0.149404 0.972957
-0.004848 -0.149317 0.972394
-0.003202 -0.149220 0.971760
-0.001558 -0.149103 0.971002
0.000084 -0.149047 0.970635
0.001724 -0.149011 0.970398
0.003364 -0.148971 0.970141
0.005004 -0.148975 0.970166
0.006645 -0.149005 0.970360
0.008283 -0.148956 0.970041
0.009919 -0.148905 0.969707
0.011559 -0.148912 0.969755
0.013195 -0.148864 0.969442
0.014826 -0.148786 0.968936
0.016458 -0.148733 0.968591
0.018083 -0.148632 0.967932
0.019700 -0.148489 0.966998
0.021330 -0.148451 0.966752
0.022959 -0.148418 0.966539
0.024583 -0.148360 0.966159
0.026205 -0.148293 0.965724
0.027826 -0.148234 0.965341
0.029431 -0.148099 0.964463
0.031044 -0.148016 0.963918
0.032656 -0.147936 0.963399
0.034277 -0.147903 0.963183
0.035898 -0.147871 0.962975
0.037522 -0.147855 0.962873
0.039146 -0.147841 0.962778
0.040773 -0.147841 0.962778
0.042405 -0.147855 0.962873
0.044038 -0.147871 0.962975
0.045671 -0.147887 0.963081
0.047299 -0.147888 0.963088
0.048927 -0.147887 0.963081
0.050534 -0.147825 0.962674
0.052143 -0.147774 0.962343
0.053746 -0.147706 0.961903
0.055353 -0.147657 0.961586
0.056972 -0.147639 0.961468
0.058616 -0.147687 0.961777
0.060258 -0.147725 0.962025
0.061906 -0.147777 0.962365
0.063554 -0.147825 0.962678
0.065168 -0.147795 0.962479
0.066771 -0.147743 0.962145
0.068373 -0.147688 0.961786
-0.049522 -0.153668 1.011900
-0.047753 -0.153478 1.010650
-0.045968 -0.153226 1.008990
-0.044165 -0.152889 1.006770
-0.042342 -0.152451 1.003880
-0.040521 -0.151986 1.000820
-0.038714 -0.151537 0.997863
-0.036920 -0.151100 0.994990
-0.035147 -0.150709 0.992416
-0.033411 -0.150447 0.990688
-0.031675 -0.150156 0.988774
-0.029939 -0.149835 0.986659
-0.028216 -0.149541 0.984724
-0.026499 -0.149248 0.982795
-0.024793 -0.148979 0.981021
-0.023103 -0.148777 0.979694
-0.021421 -0.148597 0.978509
-0.019744 -0.148431 0.977414
-0.018073 -0.148277 0.976400
-0.016407 -0.148140 0.975497
-0.014745 -0.148007 0.974622
-0.013090 -0.147923 0.974071
-0.011437 -0.147842 0.973532
-0.009787 -0.147773 0.973083
-0.008137 -0.147689 0.972529
-0.006490 -0.147619 0.972066
-0.004844 -0.147553 0.971630
-0.003200 -0.147473 0.971103
-0.001557 -0.147361 0.970367
0.000083 -0.147336 0.970202
0.001723 -0.147317 0.970080
0.003363 -0.147279 0.969827
0.005002 -0.147282 0.969846
0.006643 -0.147305 0.970002
0.008279 -0.147241 0.969575
0.009914 -0.147175 0.969145
0.011552 -0.147173 0.969128
0.013185 -0.147113 0.968736
0.014813 -0.147022 0.968134
0.016442 -0.146950 0.967659
0.018063 -0.146831 0.966877
0.019678 -0.146685 0.965917
0.021306 -0.146647 0.965665
0.022936 -0.146630 0.965557
0.024561 -0.146588 0.965278
0.026184 -0.146537 0.964940
0.027807 -0.146494 0.964657
0.029414 -0.146379 0.963898
0.031027 -0.146299 0.963374
0.032642 -0.146238 0.962975
0.034266 -0.146223 0.962873
0.035891 -0.146208 0.962778
0.037518 -0.146208 0.962778
0.039146 -0.146208 0.962778
0.040773 -0.146208 0.962778
0.042401 -0.146208 0.962778
0.044029 -0.146208 0.962778
0.045656 -0.146208 0.962778
0.047284 -0.146208 0.962778
0.048907 -0.146194 0.962683
0.050513 -0.146132 0.962273
0.052121 -0.146079 0.961925
0.053726 -0.146023 0.961557
0.055333 -0.145973 0.961225
0.056952 -0.145957 0.961125
0.058590 -0.145990 0.961342
0.060223 -0.146010 0.961474
0.061858 -0.146032 0.961614
0.063491 -0.146049 0.961729
0.065103 -0.146018 0.961525
0.066712 -0.145983 0.961293
0.068319 -0.145945 0.961040
0.070551 -0.148854 0.969380
0.069927 -0.145909 0.960808
-0.049488 -0.151849 1.011210
-0.047718 -0.151656 1.009930
-0.045937 -0.151414 1.008310
-0.044144 -0.151111 1.006290
-0.042331 -0.150713 1.003640
-0.040521 -0.150291 1.000830
-0.038723 -0.149883 0.998115
-0.036934 -0.149470 0.995363
-0.035159 -0.149078 0.992756
-0.033418 -0.148799 0.990896
-0.031674 -0.148477 0.988752
-0.029935 -0.148143 0.986529
-0.028209 -0.147836 0.984482
-0.026492 -0.147546 0.982553
-0.024784 -0.147263 0.980669
-0.023095 -0.147064 0.979345
-0.021411 -0.146870 0.978050
-0.019735 -0.146702 0.976934
-0.018060 -0.146520 0.975719
-0.016394 -0.146366 0.974694
-0.014731 -0.146218 0.973709
-0.013076 -0.146118 0.973046
-0.011425 -0.146036 0.972499
-0.009777 -0.145986 0.972165
-0.008130 -0.145922 0.971741
-0.006485 -0.145874 0.971418
-0.004842 -0.145840 0.971196
-0.003199 -0.145778 0.970777
-0.001557 -0.145683 0.970149
0.000083 -0.145672 0.970075
0.001723 -0.145670 0.970063
0.003363 -0.145632 0.969809
0.005002 -0.145620 0.969728
0.006641 -0.145625 0.969763
0.008276 -0.145543 0.969216
0.009910 -0.145480 0.968796
0.011548 -0.145481 0.968799
0.013182 -0.145440 0.968527
0.014812 -0.145362 0.968012
0.016441 -0.145302 0.967612
0.018062 -0.145179 0.966793
0.019678 -0.145048 0.965920
0.021306 -0.145011 0.965674
0.022934 -0.144982 0.965481
0.024557 -0.144928 0.965116
0.026180 -0.144881 0.964804
0.027800 -0.144825 0.964436
0.029411 -0.144729 0.963797
0.031027 -0.144667 0.963381
0.032646 -0.144622 0.963081
0.034270 -0.144606 0.962975
0.035894 -0.144591 0.962873
0.037518 -0.144576 0.962778
0.039146 -0.144576 0.962778
0.040773 -0.144576 0.962778
0.042401 -0.144576 0.962778
0.044029 -0.144576 0.962778
0.045656 -0.144576 0.962778
0.047284 -0.144576 0.962778
0.048902 -0.144547 0.962581
0.050502 -0.144469 0.962065
0.052103 -0.144400 0.961603
0.053708 -0.144344 0.961233
0.055315 -0.144298 0.960921
0.056935 -0.144286 0.960843
0.058572 -0.144317 0.961054
0.060204 -0.144334 0.961165
0.061828 -0.144333 0.961156
0.063453 -0.144332 0.961153
0.065064 -0.144302 0.960953
0.066674 -0.144270 0.960738
0.068282 -0.144237 0.960515
0.069890 -0.144204 0.960300
0.071529 -0.145864 0.960507
0.071499 -0.144175 0.960104
-0.048111 -0.151179 1.018240
-0.046265 -0.150774 1.015510
-0.044117 -0.149314 1.005680
-0.042306 -0.148923 1.003040
-0.040510 -0.148555 1.000560
-0.038725 -0.148195 0.998142
-0.036939 -0.147802 0.995496
-0.035160 -0.147400 0.992787
-0.033418 -0.147121 0.990909
-0.031668 -0.146771 0.988554
-0.029929 -0.146440 0.986320
-0.028199 -0.146119 0.984158
-0.026486 -0.145846 0.982323
-0.024775 -0.145551 0.980335
-0.023086 -0.145353 0.979000
-0.021400 -0.145142 0.977580
-0.019725 -0.144976 0.976461
-0.018048 -0.144764 0.975035
-0.016381 -0.144598 0.973913
-0.014718 -0.144434 0.972812
-0.013064 -0.144335 0.972146
-0.011414 -0.144257 0.971619
-0.009770 -0.144226 0.971407
-0.008126 -0.144195 0.971199
-0.006483 -0.144179 0.971091
-0.004841 -0.144163 0.970987
-0.003198 -0.144103 0.970584
-0.001556 -0.144009 0.969950
0.000083 -0.143982 0.969770
0.001723 -0.143965 0.969654
0.003361 -0.143914 0.969311
0.004999 -0.143902 0.969226
0.006638 -0.143907 0.969260
0.008272 -0.143839 0.968803
0.009907 -0.143791 0.968482
0.011547 -0.143820 0.968676
0.013182 -0.143794 0.968503
0.014814 -0.143745 0.968174
0.016444 -0.143689 0.967796
0.018068 -0.143587 0.967108
0.019685 -0.143461 0.966259
0.021313 -0.143424 0.966010
0.022939 -0.143381 0.965720
0.024562 -0.143325 0.965339
0.026186 -0.143279 0.965034
0.027808 -0.143228 0.964690
0.029422 -0.143149 0.964157
0.031042 -0.143101 0.963833
0.032664 -0.143068 0.963614
0.034285 -0.143037 0.963399
0.035909 -0.143019 0.963278
0.037530 -0.142989 0.963078
0.039154 -0.142974 0.962978
0.040778 -0.142960 0.962880
0.042405 -0.142958 0.962873
0.044029 -0.142944 0.962778
0.045656 -0.142944 0.962778
0.047284 -0.142944 0.962778
0.048901 -0.142914 0.962571
0.050501 -0.142836 0.962048
0.052096 -0.142751 0.961478
0.053702 -0.142699 0.961125
0.055310 -0.142656 0.960833
0.056926 -0.142634 0.960691
0.058557 -0.142650 0.960796
0.060185 -0.142659 0.960857
0.061800 -0.142639 0.960724
0.063417 -0.142622 0.960609
0.065034 -0.142607 0.960507
0.066644 -0.142578 0.960311
0.068253 -0.142547 0.960105
0.069868 -0.142531 0.959992
0.071477 -0.142503 0.959804
0.073722 -0.145358 0.967984
0.073092 -0.142489 0.959713
-0.044097 -0.147541 1.005220
-0.042290 -0.147166 1.002660
-0.040498 -0.146817 1.000280
-0.038715 -0.146468 0.997905
-0.036933 -0.146093 0.995346
-0.035160 -0.145716 0.992780
-0.033422 -0.145457 0.991017
-0.031668 -0.145097 0.988567
-0.029929 -0.144768 0.986321
-0.028199 -0.144451 0.984163
-0.026486 -0.144180 0.982317
-0.024775 -0.143887 0.980323
-0.023084 -0.143677 0.978891
-0.021397 -0.143466 0.977453
-0.019720 -0.143287 0.976233
-0.018042 -0.143062 0.974699
-0.016373 -0.142883 0.973477
-0.014711 -0.142720 0.972366
-0.013057 -0.142609 0.971611
-0.011408 -0.142533 0.971091
-0.009765 -0.142517 0.970987
-0.008123 -0.142503 0.970891
-0.006482 -0.142503 0.970891
-0.004840 -0.142503 0.970891
-0.003198 -0.142444 0.970491
-0.001556 -0.142350 0.969845
0.000083 -0.142322 0.969661
0.001722 -0.142302 0.969524
0.003360 -0.142253 0.969185
0.004999 -0.142255 0.969200
0.006638 -0.142263 0.969257
0.008272 -0.142196 0.968802
0.009907 -0.142149 0.968478
0.011545 -0.142163 0.968575
0.013180 -0.142138 0.968400
0.014813 -0.142095 0.968112
0.016444 -0.142043 0.967759
0.018068 -0.141949 0.967118
0.019688 -0.141842 0.966389
0.021315 -0.141795 0.966068
0.022943 -0.141763 0.965847
0.024567 -0.141718 0.965539
0.026193 -0.141682 0.965300
0.027818 -0.141647 0.965055
0.029439 -0.141598 0.964726
0.031057 -0.141538 0.964317
0.032676 -0.141491 0.963993
0.034294 -0.141440 0.963649
0.035918 -0.141420 0.963511
0.037539 -0.141390 0.963305
0.039163 -0.141375 0.963208
0.040787 -0.141359 0.963099
0.042414 -0.141356 0.963078
0.044033 -0.141326 0.962873
0.045656 -0.141312 0.962778
0.047284 -0.141312 0.962778
0.048896 -0.141268 0.962477
0.050496 -0.141190 0.961947
0.052091 -0.141106 0.961373
0.053696 -0.141055 0.961023
0.055305 -0.141013 0.960738
0.056926 -0.141005 0.960683
0.058550 -0.141006 0.960691
0.060171 -0.141000 0.960647
0.061780 -0.140965 0.960412
0.063390 -0.140934 0.960198
0.065007 -0.140920 0.960104
0.066616 -0.140891 0.959908
0.068224 -0.140860 0.959695
0.069837 -0.140842 0.959573
0.071445 -0.140812 0.959371
0.073052 -0.140784 0.959181
-0.042273 -0.145408 1.002260
-0.040475 -0.145038 0.999709
-0.038697 -0.144708 0.997435
-0.036921 -0.144356 0.995005
-0.035158 -0.144027 0.992742
-0.033425 -0.143792 0.991118
-0.031671 -0.143436 0.988665
-0.029932 -0.143111 0.986428
-0.028205 -0.142812 0.984364
-0.026489 -0.142533 0.982440
-0.024778 -0.142245 0.980458
-0.023089 -0.142051 0.979117
-0.021403 -0.141843 0.977686
-0.019723 -0.141651 0.976364
-0.018044 -0.141428 0.974826
-0.016374 -0.141234 0.973489
-0.014709 -0.141057 0.972269
-0.013055 -0.140946 0.971504
-0.011407 -0.140871 0.970987
-0.009764 -0.140857 0.970891
-0.008123 -0.140857 0.970891
-0.006482 -0.140857 0.970891
-0.004840 -0.140857 0.970891
-0.003198 -0.140799 0.970488
-0.001556 -0.140704 0.969836
0.000083 -0.140675 0.969635
0.001722 -0.140654 0.969492
0.003361 -0.140619 0.969246
0.004999 -0.140623 0.969279
0.006638 -0.140634 0.969350
0.008273 -0.140570 0.968910
0.009907 -0.140508 0.968486
0.011544 -0.140508 0.968486
0.013179 -0.140483 0.968312
0.014815 -0.140471 0.968231
0.016450 -0.140453 0.968103
0.018080 -0.140405 0.967777
0.019704 -0.140316 0.967158
0.021331 -0.140268 0.966829
0.022955 -0.140205 0.966393
0.024576 -0.140128 0.965864
0.026199 -0.140077 0.965515
0.027825 -0.140043 0.965278
0.029450 -0.140012 0.965062
0.031072 -0.139968 0.964762
0.032695 -0.139935 0.964535
0.034310 -0.139871 0.964095
0.035934 -0.139850 0.963949
0.037555 -0.139819 0.963733
0.039177 -0.139793 0.963555
0.040797 -0.139762 0.963338
0.042424 -0.139756 0.963297
0.044038 -0.139709 0.962975
0.045656 -0.139680 0.962778
0.047284 -0.139680 0.962778
0.048896 -0.139637 0.962480
0.050496 -0.139561 0.961953
0.052092 -0.139479 0.961389
0.053696 -0.139425 0.961018
0.055303 -0.139381 0.960714
0.056917 -0.139356 0.960542
0.058541 -0.139356 0.960542
0.060163 -0.139352 0.960515
0.061773 -0.139321 0.960300
0.063384 -0.139292 0.960104
0.065007 -0.139292 0.960104
0.066609 -0.139249 0.959804
0.068208 -0.139201 0.959472
0.069812 -0.139164 0.959220
0.071410 -0.139118 0.958902
0.073009 -0.139077 0.958618
-0.036902 -0.142597 0.994502
-0.035152 -0.142319 0.992566
-0.033427 -0.142118 0.991164
-0.031682 -0.141806 0.988986
-0.029945 -0.141499 0.986848
-0.028218 -0.141207 0.984806
-0.026499 -0.140917 0.982786
-0.024790 -0.140649 0.980915
-0.023100 -0.140456 0.979568
-0.021413 -0.140254 0.978159
-0.019731 -0.140049 0.976732
-0.018053 -0.139843 0.975294
-0.016379 -0.139633 0.973832
-0.014713 -0.139442 0.972499
-0.013057 -0.139316 0.971619
-0.011408 -0.139240 0.971091
-0.009764 -0.139211 0.970891
-0.008123 -0.139211 0.970891
-0.006482 -0.139211 0.970891
-0.004840 -0.139211 0.970891
-0.003198 -0.139153 0.970481
-0.001556 -0.139059 0.969828
0.000083 -0.139031 0.969630
0.001722 -0.139013 0.969506
0.003361 -0.138992 0.969363
0.005000 -0.139013 0.969507
0.006641 -0.139037 0.969672
0.008277 -0.138989 0.969339
0.009912 -0.138940 0.968998
0.011551 -0.138953 0.969088
0.013187 -0.138928 0.968915
0.014824 -0.138915 0.968826
0.016461 -0.138912 0.968801
0.018095 -0.138879 0.968569
0.019720 -0.138790 0.967949
0.021348 -0.138740 0.967600
0.022971 -0.138661 0.967050
0.024587 -0.138554 0.966308
0.026209 -0.138491 0.965865
0.027832 -0.138445 0.965546
0.029459 -0.138417 0.965353
0.031085 -0.138390 0.965164
0.032712 -0.138373 0.965044
0.034324 -0.138296 0.964504
0.035949 -0.138275 0.964358
0.037572 -0.138246 0.964159
0.039195 -0.138222 0.963988
0.040812 -0.138179 0.963690
0.042438 -0.138170 0.963624
0.044047 -0.138106 0.963183
0.045661 -0.138062 0.962873
0.047284 -0.138048 0.962778
0.048901 -0.138020 0.962578
0.050506 -0.137959 0.962154
0.052103 -0.137878 0.961594
0.053702 -0.137812 0.961128
0.055303 -0.137750 0.960700
0.056909 -0.137708 0.960405
0.058527 -0.137694 0.960310
0.060150 -0.137693 0.960300
0.061767 -0.137678 0.960198
0.063384 -0.137665 0.960104
0.065000 -0.137651 0.960009
0.066595 -0.137593 0.959601
0.068185 -0.137529 0.959154
0.069780 -0.137476 0.958784
0.071369 -0.137414 0.958358
0.072966 -0.137371 0.958057
0.075239 -0.140212 0.966442
0.074593 -0.137384 0.958146
-0.036885 -0.140847 0.994046
-0.035144 -0.140603 0.992327
-0.033422 -0.140419 0.991030
-0.031685 -0.140146 0.989100
-0.029955 -0.139876 0.987199
-0.028228 -0.139588 0.985165
-0.026511 -0.139316 0.983244
-0.024806 -0.139079 0.981573
-0.023116 -0.138889 0.980232
-0.021430 -0.138704 0.978928
-0.019746 -0.138504 0.977511
-0.018067 -0.138298 0.976063
-0.016390 -0.138075 0.974488
-0.014721 -0.137871 0.973047
-0.013061 -0.137715 0.971945
-0.011411 -0.137624 0.971303
-0.009765 -0.137579 0.970987
-0.008123 -0.137566 0.970891
-0.006482 -0.137566 0.970891
-0.004840 -0.137566 0.970891
-0.003197 -0.137494 0.970385
-0.001556 -0.137415 0.969828
0.000083 -0.137389 0.969646
0.001722 -0.137375 0.969542
0.003361 -0.137357 0.969418
0.005002 -0.137405 0.969754
0.006642 -0.137430 0.969933
0.008280 -0.137395 0.969687
0.009917 -0.137362 0.969457
0.011557 -0.137375 0.969542
0.013192 -0.137335 0.969260
0.014828 -0.137306 0.969061
0.016463 -0.137286 0.968918
0.018095 -0.137239 0.968586
0.019720 -0.137152 0.967969
0.021347 -0.137089 0.967524
0.022969 -0.137007 0.966950
0.024584 -0.136899 0.966188
0.026205 -0.136837 0.965745
0.027829 -0.136792 0.965427
0.029459 -0.136780 0.965347
0.031088 -0.136768 0.965259
0.032719 -0.136767 0.965251
0.034336 -0.136707 0.964829
0.035965 -0.136701 0.964785
0.037592 -0.136685 0.964676
0.039216 -0.136662 0.964510
0.040834 -0.136620 0.964215
0.042461 -0.136611 0.964150
0.044071 -0.136547 0.963702
0.045685 -0.136502 0.963381
0.047309 -0.136487 0.963278
0.048927 -0.136459 0.963081
0.050533 -0.136400 0.962667
0.052131 -0.136323 0.962120
0.053721 -0.136229 0.961457
0.055309 -0.136139 0.960819
0.056909 -0.136079 0.960402
0.058520 -0.136051 0.960198
0.060137 -0.136037 0.960104
0.061761 -0.136037 0.960104
0.063384 -0.136037 0.960104
0.065000 -0.136023 0.960002
0.066588 -0.135951 0.959496
0.068171 -0.135873 0.958945
0.069757 -0.135805 0.958466
0.071331 -0.135717 0.957845
0.072913 -0.135648 0.957354
0.074523 -0.135632 0.957247
0.076229 -0.137413 0.958348
0.076148 -0.135645 0.957334
