1689
0.061643 -0.093544 0.958280
0.063272 -0.093557 0.958416
0.064920 -0.093597 0.958827
0.066571 -0.093640 0.959261
0.068223 -0.093681 0.959687
0.069906 -0.093762 0.960517
0.071586 -0.093836 0.961273
0.073271 -0.093912 0.962053
0.074978 -0.094014 0.963097
0.076683 -0.094107 0.964054
0.078383 -0.094193 0.964927
0.080138 -0.094338 0.966412
0.081910 -0.094498 0.968053
0.083709 -0.094681 0.969928
0.085569 -0.094925 0.972430
0.087475 -0.095211 0.975361
0.089362 -0.095465 0.977966
0.091235 -0.095696 0.980325
0.093058 -0.095866 0.982073
-0.063287 -0.094623 0.986470
-0.061581 -0.094564 0.985857
-0.059879 -0.094509 0.985274
-0.058159 -0.094421 0.984356
-0.056451 -0.094347 0.983591
-0.054756 -0.094292 0.983021
-0.053065 -0.094240 0.982469
-0.051369 -0.094176 0.981811
-0.049676 -0.094112 0.981142
-0.047988 -0.094056 0.980556
-0.046314 -0.094022 0.980200
-0.044642 -0.093991 0.979879
-0.042977 -0.093972 0.979681
-0.041316 -0.093961 0.979570
-0.039639 -0.093911 0.979041
-0.037958 -0.093847 0.978379
-0.036282 -0.093792 0.977803
-0.034606 -0.093729 0.977143
-0.032932 -0.093667 0.976501
-0.031274 -0.093644 0.976256
-0.029613 -0.093611 0.975915
-0.027957 -0.093589 0.975691
-0.026313 -0.093608 0.975884
-0.024669 -0.093632 0.976133
-0.023030 -0.093677 0.976600
-0.021403 -0.093781 0.977685
-0.019783 -0.093938 0.979330
-0.018161 -0.094113 0.981152
-0.016537 -0.094309 0.983198
-0.014906 -0.094511 0.985298
-0.013266 -0.094691 0.987174
-0.011615 -0.094837 0.988696
-0.009953 -0.094929 0.989652
-0.008289 -0.095033 0.990742
0.003419 -0.094590 0.986124
0.005078 -0.094443 0.984594
0.006736 -0.094350 0.983620
0.008389 -0.094242 0.982494
0.010031 -0.094064 0.980635
0.011663 -0.093850 0.978412
0.013289 -0.093654 0.976359
0.014901 -0.093413 0.973848
0.016507 -0.093185 0.971473
0.018112 -0.092996 0.969502
0.019711 -0.092806 0.967528
0.021308 -0.092639 0.965778
0.022910 -0.092512 0.964463
0.024513 -0.092411 0.963404
0.026116 -0.092320 0.962460
0.027724 -0.092257 0.961800
0.029333 -0.092203 0.961236
0.030944 -0.092162 0.960808
0.032562 -0.092143 0.960609
0.034183 -0.092134 0.960519
0.035803 -0.092125 0.960420
0.037422 -0.092114 0.960313
0.039041 -0.092104 0.960207
0.040656 -0.092085 0.960011
0.042275 -0.092075 0.959909
0.043888 -0.092056 0.959703
0.045482 -0.091999 0.959107
0.047068 -0.091928 0.958376
0.048674 -0.091902 0.958098
0.050287 -0.091889 0.957967
0.051909 -0.091894 0.958014
0.053548 -0.091927 0.958365
0.055196 -0.091975 0.958858
0.056823 -0.091985 0.958959
0.058439 -0.091976 0.958869
0.060072 -0.091995 0.959065
0.061707 -0.092014 0.959268
0.063343 -0.092035 0.959483
0.064993 -0.092075 0.959905
0.066638 -0.092106 0.960225
0.068285 -0.092138 0.960559
0.069954 -0.092196 0.961168
0.071619 -0.092249 0.961715
0.073294 -0.092311 0.962365
0.075011 -0.092421 0.963515
0.076718 -0.092516 0.964499
0.078438 -0.092622 0.965604
0.080211 -0.092785 0.967299
0.081992 -0.092950 0.969023
0.083792 -0.093129 0.970889
0.085660 -0.093376 0.973467
0.087551 -0.093639 0.976210
0.089411 -0.093858 0.978496
0.091263 -0.094062 0.980621
0.093839 -0.094992 0.990318
-0.063304 -0.092976 0.986734
-0.061596 -0.092917 0.986105
-0.059882 -0.092844 0.985331
-0.058144 -0.092729 0.984109
-0.056430 -0.092646 0.983228
-0.054736 -0.092592 0.982663
-0.053041 -0.092532 0.982026
-0.051346 -0.092471 0.981375
-0.049653 -0.092408 0.980704
-0.047966 -0.092352 0.980111
-0.046288 -0.092309 0.979656
-0.044613 -0.092270 0.979245
-0.042944 -0.092242 0.978939
-0.041280 -0.092220 0.978711
-0.039599 -0.092159 0.978059
-0.037915 -0.092086 0.977286
-0.036241 -0.092029 0.976689
-0.034566 -0.091967 0.976023
-0.032895 -0.091906 0.975380
-0.031238 -0.091883 0.975133
-0.029576 -0.091842 0.974704
-0.027919 -0.091812 0.974383
-0.026277 -0.091830 0.974572
-0.024635 -0.091852 0.974806
-0.022996 -0.091887 0.975180
-0.021371 -0.091988 0.976247
-0.019753 -0.092140 0.977862
-0.018134 -0.092312 0.979682
-0.016511 -0.092496 0.981645
-0.014886 -0.092715 0.983966
-0.013254 -0.092931 0.986258
-0.011609 -0.093116 0.988218
-0.009952 -0.093242 0.989561
-0.008292 -0.093379 0.991012
0.003417 -0.092857 0.985468
0.005077 -0.092750 0.984336
0.006736 -0.092683 0.983620
0.008389 -0.092576 0.982494
0.010033 -0.092420 0.980837
0.011666 -0.092222 0.978730
0.013295 -0.092040 0.976802
0.014912 -0.091832 0.974595
0.016523 -0.091629 0.972438
0.018130 -0.091444 0.970471
0.019731 -0.091258 0.968506
0.021329 -0.091092 0.966739
0.022928 -0.090949 0.965222
0.024529 -0.090838 0.964045
0.026131 -0.090740 0.962999
0.027740 -0.090677 0.962338
0.029350 -0.090624 0.961778
0.030962 -0.090585 0.961356
0.032587 -0.090584 0.961350
0.034213 -0.090586 0.961371
0.035839 -0.090588 0.961390
0.037459 -0.090576 0.961269
0.039079 -0.090564 0.961135
0.040686 -0.090525 0.960721
0.042301 -0.090505 0.960507
0.043911 -0.090476 0.960206
0.045515 -0.090438 0.959797
0.047107 -0.090379 0.959172
0.048715 -0.090354 0.958905
0.050330 -0.090343 0.958791
0.051953 -0.090348 0.958841
0.053589 -0.090372 0.959095
0.055234 -0.090411 0.959507
0.056862 -0.090420 0.959608
0.058484 -0.090420 0.959608
0.060119 -0.090439 0.959804
0.061755 -0.090459 0.960019
0.063399 -0.090489 0.960337
0.065052 -0.090529 0.960765
0.066684 -0.090541 0.960887
0.068331 -0.090570 0.961196
0.069984 -0.090607 0.961589
0.071643 -0.090648 0.962031
0.073318 -0.090709 0.962679
0.075051 -0.090837 0.964032
0.076777 -0.090951 0.965239
0.078517 -0.091076 0.966569
0.080292 -0.091237 0.968274
0.082083 -0.091408 0.970091
0.083884 -0.091584 0.971962
0.085740 -0.091811 0.974372
0.087615 -0.092051 0.976919
0.089463 -0.092253 0.979063
0.091294 -0.092432 0.980962
-0.065040 -0.091400 0.987776
-0.063328 -0.091338 0.987109
-0.061617 -0.091276 0.986438
-0.059890 -0.091186 0.985465
-0.058146 -0.091063 0.984133
-0.056429 -0.090977 0.983212
-0.054724 -0.090907 0.982446
-0.053023 -0.090837 0.981697
-0.051324 -0.090768 0.980945
-0.049636 -0.090713 0.980352
-0.047950 -0.090660 0.979780
-0.046273 -0.090619 0.979342
-0.044599 -0.090582 0.978935
-0.042930 -0.090551 0.978605
-0.041256 -0.090509 0.978153
-0.039567 -0.090428 0.977272
-0.037880 -0.090345 0.976378
-0.036203 -0.090280 0.975673
-0.034527 -0.090210 0.974914
-0.032858 -0.090151 0.974278
-0.031203 -0.090130 0.974049
-0.029544 -0.090091 0.973627
-0.027888 -0.090061 0.973303
-0.026245 -0.090068 0.973387
-0.024603 -0.090079 0.973507
-0.022965 -0.090111 0.973848
-0.021340 -0.090199 0.974802
-0.019722 -0.090339 0.976312
-0.018107 -0.090516 0.978224
-0.016488 -0.090707 0.980292
-0.014866 -0.090925 0.982643
-0.013237 -0.091148 0.985054
-0.011600 -0.091366 0.987408
-0.009947 -0.091516 0.989029
-0.008290 -0.091678 0.990786
0.003414 -0.091116 0.984713
0.005076 -0.091057 0.984074
0.006735 -0.091006 0.983522
0.008388 -0.090901 0.982388
0.010034 -0.090766 0.980930
0.011669 -0.090583 0.978951
0.013301 -0.090426 0.977251
0.014924 -0.090251 0.975359
0.016540 -0.090070 0.973404
0.018149 -0.089888 0.971444
0.019755 -0.089725 0.969671
0.021353 -0.089554 0.967826
0.022951 -0.089403 0.966199
0.024554 -0.089293 0.965006
0.026154 -0.089185 0.963841
0.027759 -0.089106 0.962991
0.029370 -0.089056 0.962443
0.030987 -0.089026 0.962118
0.032614 -0.089027 0.962134
0.034245 -0.089039 0.962261
0.035872 -0.089041 0.962281
0.037494 -0.089029 0.962156
0.039111 -0.089006 0.961910
0.040714 -0.088956 0.961367
0.042320 -0.088917 0.960945
0.043930 -0.088887 0.960620
0.045534 -0.088848 0.960196
0.047126 -0.088790 0.959567
0.048736 -0.088766 0.959313
0.050356 -0.088765 0.959297
0.051986 -0.088778 0.959444
0.053623 -0.088802 0.959703
0.055274 -0.088849 0.960209
0.056903 -0.088858 0.960307
0.058527 -0.088858 0.960303
0.060156 -0.088867 0.960405
0.061794 -0.088887 0.960626
0.063435 -0.088911 0.960876
0.065088 -0.088951 0.961307
0.066721 -0.088961 0.961423
0.068367 -0.088987 0.961707
0.070020 -0.089023 0.962086
0.071680 -0.089064 0.962530
0.073358 -0.089125 0.963197
0.075100 -0.089261 0.964662
0.076836 -0.089383 0.965985
0.078579 -0.089509 0.967337
0.080357 -0.089667 0.969050
0.082150 -0.089837 0.970881
0.083954 -0.090011 0.972767
0.085804 -0.090227 0.975101
0.087680 -0.090462 0.977643
0.089518 -0.090650 0.979671
0.091347 -0.090821 0.981526
-0.065081 -0.089781 0.988385
-0.063370 -0.089724 0.987760
-0.061651 -0.089653 0.986983
-0.059913 -0.089549 0.985839
-0.058161 -0.089417 0.984385
-0.056437 -0.089323 0.983345
-0.054720 -0.089233 0.982360
-0.053011 -0.089153 0.981481
-0.051311 -0.089083 0.980704
-0.049624 -0.089029 0.980111
-0.047939 -0.088979 0.979557
-0.046268 -0.088950 0.979236
-0.044594 -0.088912 0.978827
-0.042915 -0.088863 0.978279
-0.041232 -0.088799 0.977583
-0.039539 -0.088708 0.976581
-0.037849 -0.088618 0.975582
-0.036171 -0.088546 0.974798
-0.034496 -0.088478 0.974044
-0.032828 -0.088420 0.973407
-0.031172 -0.088390 0.973073
-0.029514 -0.088351 0.972649
-0.027860 -0.088322 0.972326
-0.026218 -0.088328 0.972393
-0.024577 -0.088338 0.972498
-0.022939 -0.088359 0.972740
-0.021311 -0.088427 0.973489
-0.019693 -0.088554 0.974882
-0.018080 -0.088727 0.976781
-0.016464 -0.088914 0.978843
-0.014848 -0.089146 0.981400
-0.013222 -0.089377 0.983940
-0.011589 -0.089611 0.986520
-0.009941 -0.089790 0.988485
-0.008288 -0.089984 0.990618
-0.006626 -0.090148 0.992433
0.003417 -0.089532 0.985648
0.005076 -0.089401 0.984206
0.006736 -0.089348 0.983625
0.008389 -0.089245 0.982484
0.010036 -0.089121 0.981124
0.011673 -0.088952 0.979268
0.013308 -0.088820 0.977812
0.014935 -0.088661 0.976056
0.016555 -0.088501 0.974295
0.018167 -0.088332 0.972439
0.019777 -0.088180 0.970769
0.021378 -0.088013 0.968929
0.022977 -0.087865 0.967300
0.024579 -0.087747 0.965992
0.026177 -0.087630 0.964710
0.027780 -0.087542 0.963738
0.029390 -0.087484 0.963098
0.031011 -0.087463 0.962875
0.032643 -0.087474 0.962996
0.034279 -0.087496 0.963235
0.035905 -0.087491 0.963177
0.037528 -0.087478 0.963038
0.039142 -0.087446 0.962679
0.040742 -0.087388 0.962039
0.042341 -0.087331 0.961414
0.043946 -0.087290 0.960962
0.045545 -0.087241 0.960424
0.047137 -0.087183 0.959787
0.048747 -0.087161 0.959549
0.050374 -0.087168 0.959628
0.052010 -0.087191 0.959875
0.053651 -0.087222 0.960218
0.055304 -0.087268 0.960727
0.056934 -0.087277 0.960827
0.058558 -0.087277 0.960822
0.060188 -0.087286 0.960918
0.061827 -0.087305 0.961136
0.063468 -0.087328 0.961379
0.065116 -0.087359 0.961724
0.066750 -0.087369 0.961839
0.068389 -0.087385 0.962011
0.070043 -0.087421 0.962403
0.071711 -0.087471 0.962954
0.073414 -0.087560 0.963935
0.075168 -0.087705 0.965536
0.076914 -0.087835 0.966967
0.078666 -0.087966 0.968406
0.080437 -0.088113 0.970022
0.082223 -0.088269 0.971746
0.084029 -0.088441 0.973636
0.085880 -0.088653 0.975973
0.087741 -0.088867 0.978323
0.089569 -0.089040 0.980232
0.092149 -0.089941 0.990146
-0.065127 -0.088168 0.989087
-0.063414 -0.088112 0.988457
-0.061695 -0.088042 0.987678
-0.059954 -0.087939 0.986519
-0.058194 -0.087798 0.984943
-0.056457 -0.087688 0.983703
-0.054731 -0.087587 0.982572
-0.053011 -0.087489 0.981475
-0.051304 -0.087408 0.980567
-0.049617 -0.087356 0.979985
-0.047934 -0.087308 0.979441
-0.046264 -0.087281 0.979138
-0.044589 -0.087244 0.978721
-0.042901 -0.087176 0.977960
-0.041209 -0.087093 0.977033
-0.039512 -0.086993 0.975909
-0.037819 -0.086895 0.974807
-0.036140 -0.086819 0.973954
-0.034470 -0.086760 0.973299
-0.032806 -0.086711 0.972747
-0.031150 -0.086679 0.972390
-0.029493 -0.086641 0.971963
-0.027843 -0.086622 0.971740
-0.026200 -0.086620 0.971723
-0.024558 -0.086620 0.971723
-0.022918 -0.086631 0.971848
-0.021289 -0.086688 0.972487
-0.019669 -0.086795 0.973683
-0.018057 -0.086961 0.975552
-0.016444 -0.087153 0.977702
-0.014832 -0.087391 0.980373
-0.013213 -0.087646 0.983233
-0.011584 -0.087895 0.986026
-0.009940 -0.088105 0.988379
-0.008291 -0.088330 0.990903
-0.006631 -0.088536 0.993214
-0.004962 -0.088727 0.995365
0.003429 -0.088148 0.988865
0.005087 -0.087924 0.986350
0.006744 -0.087784 0.984783
0.008395 -0.087635 0.983111
0.010042 -0.087503 0.981632
0.011679 -0.087339 0.979796
0.013318 -0.087222 0.978476
0.014948 -0.087085 0.976945
0.016572 -0.086939 0.975307
0.018188 -0.086782 0.973538
0.019800 -0.086633 0.971874
0.021402 -0.086470 0.970042
0.023001 -0.086317 0.968324
0.024602 -0.086188 0.966880
0.026201 -0.086071 0.965568
0.027805 -0.085984 0.964586
0.029415 -0.085926 0.963935
0.031041 -0.085915 0.963814
0.032674 -0.085926 0.963935
0.034313 -0.085948 0.964190
0.035937 -0.085934 0.964024
0.037558 -0.085913 0.963796
0.039168 -0.085871 0.963322
0.040769 -0.085814 0.962678
0.042361 -0.085741 0.961859
0.043966 -0.085700 0.961406
0.045569 -0.085659 0.960943
0.047168 -0.085611 0.960410
0.048780 -0.085592 0.960189
0.050413 -0.085609 0.960379
0.052049 -0.085630 0.960613
0.053687 -0.085651 0.960858
0.055336 -0.085690 0.961287
0.056967 -0.085699 0.961387
0.058593 -0.085699 0.961389
0.060223 -0.085706 0.961468
0.061861 -0.085724 0.961672
0.063503 -0.085745 0.961905
0.065144 -0.085764 0.962127
0.066779 -0.085775 0.962248
0.068412 -0.085783 0.962339
0.070075 -0.085828 0.962840
0.071752 -0.085887 0.963504
0.073474 -0.085996 0.964719
0.075238 -0.086149 0.966437
0.077003 -0.086295 0.968078
0.078756 -0.086423 0.969510
0.080526 -0.086564 0.971098
0.082312 -0.086716 0.972800
0.084110 -0.086874 0.974578
0.085953 -0.087073 0.976802
0.087806 -0.087273 0.979044
0.089626 -0.087434 0.980850
-0.065156 -0.086530 0.989534
-0.063446 -0.086479 0.988947
-0.061716 -0.086398 0.988027
-0.059975 -0.086296 0.986862
-0.058208 -0.086150 0.985187
-0.056471 -0.086040 0.983934
-0.054732 -0.085923 0.982592
-0.053011 -0.085826 0.981475
-0.051298 -0.085736 0.980458
-0.049612 -0.085686 0.979879
-0.047929 -0.085639 0.979342
-0.046264 -0.085621 0.979138
-0.044585 -0.085576 0.978624
-0.042892 -0.085500 0.977747
-0.041195 -0.085408 0.976698
-0.039497 -0.085307 0.975549
-0.037806 -0.085212 0.974465
-0.036127 -0.085139 0.973623
-0.034458 -0.085082 0.972969
-0.032794 -0.085031 0.972390
-0.031135 -0.084991 0.971927
-0.029476 -0.084945 0.971407
-0.027828 -0.084927 0.971199
-0.026186 -0.084926 0.971188
-0.024544 -0.084926 0.971188
-0.022905 -0.084936 0.971303
-0.021274 -0.084982 0.971831
-0.019651 -0.085067 0.972798
-0.018039 -0.085220 0.974551
-0.016427 -0.085407 0.976691
-0.014817 -0.085641 0.979370
-0.013203 -0.085912 0.982467
-0.011578 -0.086184 0.985579
-0.009941 -0.086432 0.988414
-0.008294 -0.086683 0.991285
-0.006636 -0.086917 0.993958
-0.004967 -0.087115 0.996227
-0.003290 -0.087300 0.998340
0.003438 -0.086719 0.991693
0.005099 -0.086450 0.988618
0.006754 -0.086245 0.986267
0.008403 -0.086057 0.984122
0.010052 -0.085926 0.982621
0.011692 -0.085772 0.980863
0.013332 -0.085658 0.979562
0.014967 -0.085535 0.978151
0.016592 -0.085391 0.976505
0.018210 -0.085236 0.974729
0.019822 -0.085082 0.972973
0.021426 -0.084921 0.971128
0.023027 -0.084770 0.969402
0.024629 -0.084643 0.967955
0.026227 -0.084518 0.966529
0.027829 -0.084423 0.965439
0.029438 -0.084357 0.964684
0.031065 -0.084347 0.964572
0.032697 -0.084349 0.964588
0.034336 -0.084371 0.964840
0.035961 -0.084355 0.964657
0.037582 -0.084333 0.964413
0.039189 -0.084283 0.963833
0.040791 -0.084227 0.963191
0.042383 -0.084155 0.962368
0.043990 -0.084116 0.961925
0.045599 -0.084084 0.961564
0.047204 -0.084048 0.961149
0.048818 -0.084030 0.960946
0.050454 -0.084048 0.961150
0.052091 -0.084068 0.961374
0.053725 -0.084081 0.961527
0.055374 -0.084118 0.961943
0.057013 -0.084136 0.962155
0.058646 -0.084145 0.962256
0.060278 -0.084153 0.962352
0.061911 -0.084161 0.962447
0.063539 -0.084162 0.962452
0.065173 -0.084171 0.962559
0.066808 -0.084181 0.962667
0.068443 -0.084190 0.962772
0.070122 -0.084252 0.963486
0.071823 -0.084337 0.964452
0.073556 -0.084454 0.965794
0.075325 -0.084608 0.967550
0.077100 -0.084761 0.969297
0.078845 -0.084875 0.970610
0.080600 -0.084996 0.971992
0.082378 -0.085136 0.973586
0.084167 -0.085280 0.975237
0.086002 -0.085465 0.977353
0.087854 -0.085660 0.979584
0.089674 -0.085817 0.981381
-0.065180 -0.084884 0.989895
-0.063473 -0.084839 0.989369
-0.061737 -0.084752 0.988361
-0.059995 -0.084651 0.987185
-0.058227 -0.084507 0.985504
-0.056483 -0.084390 0.984143
-0.054738 -0.084267 0.982701
-0.053017 -0.084171 0.981580
-0.051299 -0.084076 0.980475
-0.049612 -0.084025 0.979885
-0.047924 -0.083971 0.979248
-0.046254 -0.083944 0.978935
-0.044575 -0.083899 0.978410
-0.042878 -0.083815 0.977429
-0.041173 -0.083708 0.976185
-0.039476 -0.083609 0.975024
-0.037785 -0.083515 0.973933
-0.036104 -0.083434 0.972994
-0.034436 -0.083379 0.972351
-0.032776 -0.083338 0.971866
-0.031118 -0.083298 0.971407
-0.029463 -0.083262 0.970987
-0.027819 -0.083254 0.970891
-0.026178 -0.083254 0.970891
-0.024536 -0.083254 0.970891
-0.022898 -0.083262 0.970987
-0.021263 -0.083289 0.971303
-0.019636 -0.083353 0.972050
-0.018025 -0.083502 0.973776
-0.016416 -0.083692 0.976003
-0.014808 -0.083934 0.978818
-0.013198 -0.084220 0.982155
-0.011576 -0.084498 0.985398
-0.009940 -0.084752 0.988356
-0.008296 -0.085021 0.991500
-0.006638 -0.085262 0.994307
-0.004969 -0.085464 0.996665
-0.003291 -0.085646 0.998787
-0.001605 -0.087452 1.000080
-0.001605 -0.085765 1.000180
0.000086 -0.087287 0.998192
0.000086 -0.085701 0.999428
0.001771 -0.085471 0.996747
0.003446 -0.085237 0.994016
0.005110 -0.084952 0.990693
0.006765 -0.084706 0.987819
0.008413 -0.084490 0.985299
0.010061 -0.084341 0.983568
0.011703 -0.084190 0.981802
0.013345 -0.084077 0.980481
0.014982 -0.083963 0.979163
0.016608 -0.083814 0.977424
0.018229 -0.083669 0.975730
0.019842 -0.083516 0.973939
0.021447 -0.083357 0.972090
0.023047 -0.083201 0.970269
0.024653 -0.083085 0.968915
0.026253 -0.082962 0.967488
0.027857 -0.082869 0.966406
0.029468 -0.082806 0.965663
0.031100 -0.082804 0.965639
0.032730 -0.082797 0.965560
0.034370 -0.082816 0.965780
0.035992 -0.082791 0.965488
0.037610 -0.082760 0.965134
0.039214 -0.082702 0.964451
0.040817 -0.082646 0.963798
0.042406 -0.082567 0.962882
0.044014 -0.082530 0.962445
0.045624 -0.082501 0.962103
0.047236 -0.082475 0.961809
0.048853 -0.082460 0.961627
0.050490 -0.082478 0.961834
0.052127 -0.082495 0.962041
0.053766 -0.082514 0.962262
0.055416 -0.082550 0.962678
0.057063 -0.082578 0.963003
0.058710 -0.082605 0.963316
0.060352 -0.082623 0.963529
0.061981 -0.082623 0.963532
0.063596 -0.082605 0.963323
0.065223 -0.082603 0.963295
0.066857 -0.082610 0.963383
0.068495 -0.082621 0.963510
0.070192 -0.082701 0.964443
0.071911 -0.082803 0.965631
0.073653 -0.082927 0.967080
0.075417 -0.083069 0.968737
0.077186 -0.083210 0.970382
0.078926 -0.083315 0.971602
0.080682 -0.083433 0.972979
0.082462 -0.083570 0.974575
0.084245 -0.083705 0.976146
0.086090 -0.083894 0.978353
0.087942 -0.084084 0.980568
0.089756 -0.084230 0.982270
-0.066913 -0.083279 0.990771
-0.065211 -0.083245 0.990365
-0.063498 -0.083194 0.989758
-0.061757 -0.083103 0.988670
-0.060008 -0.082996 0.987405
-0.058239 -0.082855 0.985719
-0.056489 -0.082731 0.984251
-0.054744 -0.082610 0.982805
-0.053017 -0.082507 0.981586
-0.051299 -0.082414 0.980473
-0.049607 -0.082356 0.979792
-0.047914 -0.082293 0.979042
-0.046238 -0.082257 0.978605
-0.044555 -0.082203 0.977968
-0.042854 -0.082112 0.976889
-0.041155 -0.082016 0.975743
-0.039462 -0.081927 0.974687
-0.037776 -0.081844 0.973698
-0.036095 -0.081766 0.972763
-0.034431 -0.081720 0.972214
-0.032772 -0.081680 0.971740
-0.031115 -0.081642 0.971295
-0.029461 -0.081608 0.970891
-0.027819 -0.081608 0.970891
-0.026178 -0.081608 0.970891
-0.024536 -0.081608 0.970891
-0.022895 -0.081608 0.970891
-0.021258 -0.081625 0.971091
-0.019631 -0.081686 0.971813
-0.018018 -0.081821 0.973424
-0.016410 -0.082010 0.975664
-0.014807 -0.082264 0.978697
-0.013200 -0.082565 0.982268
-0.011578 -0.082840 0.985548
-0.009943 -0.083098 0.988618
-0.008299 -0.083372 0.991871
-0.006641 -0.083613 0.994738
-0.004971 -0.083811 0.997091
-0.003292 -0.083985 0.999167
-0.001605 -0.084094 1.000460
0.000086 -0.084079 1.000290
0.001774 -0.083924 0.998440
0.003454 -0.083728 0.996104
0.005121 -0.083461 0.992928
0.006779 -0.083200 0.989833
0.008428 -0.082961 0.986988
0.010076 -0.082797 0.985036
0.011719 -0.082639 0.983157
0.013361 -0.082518 0.981712
0.014999 -0.082398 0.980290
0.016626 -0.082249 0.978519
0.018247 -0.082098 0.976721
0.019859 -0.081938 0.974808
0.021466 -0.081782 0.972953
0.023068 -0.081627 0.971118
0.024676 -0.081516 0.969796
0.026282 -0.081414 0.968577
0.027894 -0.081340 0.967700
0.029511 -0.081286 0.967057
0.031145 -0.081285 0.967038
0.032777 -0.081277 0.966951
0.034415 -0.081287 0.967065
0.036035 -0.081253 0.966659
0.037652 -0.081214 0.966201
0.039254 -0.081149 0.965428
0.040849 -0.081076 0.964559
0.042434 -0.080989 0.963524
0.044038 -0.080943 0.962978
0.045646 -0.080908 0.962555
0.047259 -0.080883 0.962262
0.048886 -0.080884 0.962273
0.050528 -0.080909 0.962572
0.052172 -0.080935 0.962875
0.053823 -0.080969 0.963288
0.055482 -0.081013 0.963810
0.057142 -0.081058 0.964343
0.058800 -0.081096 0.964798
0.060446 -0.081116 0.965034
0.062072 -0.081108 0.964941
0.063687 -0.081088 0.964698
0.065301 -0.081066 0.964445
0.066930 -0.081065 0.964431
0.068571 -0.081078 0.964582
0.070272 -0.081159 0.965541
0.071994 -0.081260 0.966745
0.073737 -0.081380 0.968179
0.075495 -0.081511 0.969729
0.077262 -0.081646 0.971343
0.079003 -0.081748 0.972555
0.080779 -0.081882 0.974144
0.082573 -0.082028 0.975883
0.084369 -0.082171 0.977580
0.086209 -0.082349 0.979703
0.088045 -0.082518 0.981717
0.090593 -0.083335 0.991434
-0.066929 -0.081620 0.991021
-0.065233 -0.081593 0.990692
-0.063515 -0.081538 0.990020
-0.061778 -0.081455 0.989013
-0.060022 -0.081342 0.987638
-0.058259 -0.081211 0.986046
-0.056502 -0.081081 0.984476
-0.054756 -0.080961 0.983018
-0.053022 -0.080852 0.981687
-0.051305 -0.080760 0.980573
-0.049602 -0.080687 0.979682
-0.047903 -0.080615 0.978812
-0.046222 -0.080569 0.978251
-0.044537 -0.080514 0.977582
-0.042838 -0.080425 0.976511
-0.041144 -0.080342 0.975494
-0.039457 -0.080265 0.974558
-0.037775 -0.080191 0.973665
-0.036094 -0.080114 0.972735
-0.034431 -0.080069 0.972189
-0.032772 -0.080032 0.971731
-0.031115 -0.079996 0.971292
-0.029461 -0.079962 0.970891
-0.027819 -0.079962 0.970891
-0.026178 -0.079962 0.970891
-0.024536 -0.079962 0.970891
-0.022895 -0.079962 0.970891
-0.021256 -0.079971 0.970987
-0.019629 -0.080030 0.971706
-0.018016 -0.080162 0.973314
-0.016410 -0.080356 0.975662
-0.014809 -0.080616 0.978821
-0.013205 -0.080928 0.982610
-0.011583 -0.081207 0.986001
-0.009948 -0.081467 0.989156
-0.008303 -0.081734 0.992394
-0.006644 -0.081961 0.995151
-0.004973 -0.082153 0.997494
-0.003294 -0.082323 0.999558
-0.001606 -0.082427 1.000810
0.000086 -0.082454 1.001140
0.001777 -0.082362 1.000030
0.003460 -0.082199 0.998047
0.005134 -0.081976 0.995341
0.006795 -0.081720 0.992224
0.008445 -0.081460 0.989068
0.010094 -0.081273 0.986801
0.011739 -0.081109 0.984806
0.013381 -0.080972 0.983142
0.015021 -0.080852 0.981696
0.016647 -0.080690 0.979725
0.018268 -0.080533 0.977822
0.019879 -0.080366 0.975792
0.021488 -0.080212 0.973918
0.023088 -0.080053 0.971990
0.024701 -0.079953 0.970776
0.026312 -0.079862 0.969674
0.027929 -0.079800 0.968917
0.029551 -0.079757 0.968394
0.031188 -0.079756 0.968383
0.032822 -0.079748 0.968291
0.034459 -0.079749 0.968297
0.036081 -0.079715 0.967891
0.037696 -0.079670 0.967336
0.039295 -0.079597 0.966452
0.040887 -0.079516 0.965466
0.042472 -0.079428 0.964398
0.044072 -0.079372 0.963721
0.045680 -0.079336 0.963279
0.047294 -0.079311 0.962976
0.048927 -0.079319 0.963081
0.050566 -0.079337 0.963294
0.052217 -0.079371 0.963710
0.053871 -0.079408 0.964154
0.055544 -0.079469 0.964895
0.057215 -0.079524 0.965569
0.058888 -0.079579 0.966230
0.060543 -0.079607 0.966573
0.062171 -0.079599 0.966480
0.063781 -0.079570 0.966119
0.065396 -0.079547 0.965848
0.067027 -0.079545 0.965824
0.068671 -0.079558 0.965983
0.070383 -0.079648 0.967070
0.072107 -0.079747 0.968271
0.073837 -0.079847 0.969495
0.075586 -0.079963 0.970899
0.077346 -0.080086 0.972393
0.079081 -0.080178 0.973511
0.080869 -0.080320 0.975233
0.082677 -0.080475 0.977115
0.084478 -0.080618 0.978846
0.086311 -0.080785 0.980873
0.088174 -0.080972 0.983151
-0.066948 -0.079963 0.991301
-0.065247 -0.079931 0.990908
-0.063524 -0.079872 0.990172
-0.061793 -0.079798 0.989250
-0.060037 -0.079687 0.987874
-0.058280 -0.079568 0.986409
-0.056522 -0.079441 0.984829
-0.054770 -0.079314 0.983258
-0.053028 -0.079196 0.981792
-0.051298 -0.079088 0.980457
-0.049585 -0.079000 0.979356
-0.047881 -0.078920 0.978374
-0.046195 -0.078865 0.977687
-0.044507 -0.078803 0.976916
-0.042813 -0.078724 0.975944
-0.041125 -0.078652 0.975046
-0.039445 -0.078588 0.974254
-0.037772 -0.078534 0.973590
-0.036095 -0.078468 0.972763
-0.034431 -0.078424 0.972214
-0.032772 -0.078385 0.971740
-0.031115 -0.078349 0.971295
-0.029461 -0.078317 0.970891
-0.027819 -0.078317 0.970891
-0.026178 -0.078317 0.970891
-0.024536 -0.078317 0.970891
-0.022895 -0.078317 0.970891
-0.021254 -0.078317 0.970891
-0.019627 -0.078375 0.971612
-0.018014 -0.078505 0.973224
-0.016411 -0.078704 0.975695
-0.014811 -0.078968 0.978967
-0.013208 -0.079282 0.982863
-0.011587 -0.079563 0.986344
-0.009951 -0.079817 0.989486
-0.008304 -0.080060 0.992504
-0.006643 -0.080263 0.995022
-0.004972 -0.080451 0.997353
-0.003293 -0.080610 0.999317
-0.001605 -0.080712 1.000590
0.000086 -0.080749 1.001040
0.001778 -0.080712 1.000590
0.003463 -0.080574 0.998875
0.005140 -0.080387 0.996551
0.006806 -0.080170 0.993866
0.008462 -0.079939 0.991002
0.010113 -0.079746 0.988610
0.011761 -0.079591 0.986690
0.013405 -0.079448 0.984917
0.015045 -0.079313 0.983243
0.016671 -0.079145 0.981160
0.018290 -0.078973 0.979031
0.019900 -0.078794 0.976808
0.021510 -0.078641 0.974908
0.023112 -0.078485 0.972974
0.024726 -0.078386 0.971753
0.026337 -0.078292 0.970581
0.027958 -0.078239 0.969925
0.029583 -0.078198 0.969416
0.031221 -0.078197 0.969411
0.032858 -0.078191 0.969331
0.034500 -0.078199 0.969430
0.036127 -0.078173 0.969114
0.037744 -0.078129 0.968565
0.039345 -0.078057 0.967676
0.040934 -0.077969 0.966577
0.042519 -0.077879 0.965465
0.044107 -0.077800 0.964481
0.045706 -0.077747 0.963822
0.047310 -0.077705 0.963305
0.048948 -0.077720 0.963494
0.050584 -0.077731 0.963633
0.052249 -0.077784 0.964290
0.053922 -0.077846 0.965056
0.055615 -0.077933 0.966130
0.057295 -0.077996 0.966921
0.058983 -0.078066 0.967787
0.060646 -0.078102 0.968230
0.062276 -0.078093 0.968114
0.063889 -0.078064 0.967760
0.065507 -0.078042 0.967485
0.067142 -0.078042 0.967484
0.068796 -0.078062 0.967736
0.070502 -0.078141 0.968711
0.072228 -0.078236 0.969892
0.073960 -0.078334 0.971100
0.075702 -0.078438 0.972397
0.077450 -0.078544 0.973705
0.079194 -0.078641 0.974907
0.080987 -0.078782 0.976659
0.082791 -0.078927 0.978460
0.084614 -0.079085 0.980417
0.086475 -0.079271 0.982726
0.088352 -0.079465 0.985129
-0.065270 -0.078280 0.991263
-0.063547 -0.078222 0.990529
-0.061826 -0.078163 0.989784
-0.060070 -0.078056 0.988426
-0.058320 -0.077949 0.987081
-0.056555 -0.077817 0.985405
-0.054800 -0.077692 0.983815
-0.053051 -0.077565 0.982216
-0.051314 -0.077450 0.980759
-0.049590 -0.077346 0.979443
-0.047885 -0.077267 0.978440
-0.046184 -0.077189 0.977448
-0.044487 -0.077111 0.976469
-0.042793 -0.077035 0.975498
-0.041112 -0.076974 0.974727
-0.039433 -0.076913 0.973960
-0.037769 -0.076879 0.973522
-0.036097 -0.076822 0.972800
-0.034433 -0.076778 0.972247
-0.032773 -0.076739 0.971759
-0.031115 -0.076703 0.971303
-0.029461 -0.076671 0.970891
-0.027819 -0.076671 0.970891
-0.026178 -0.076671 0.970891
-0.024536 -0.076671 0.970891
-0.022895 -0.076671 0.970891
-0.021254 -0.076671 0.970891
-0.019629 -0.076735 0.971709
-0.018018 -0.076871 0.973427
-0.016418 -0.077084 0.976118
-0.014820 -0.077360 0.979611
-0.013217 -0.077669 0.983532
-0.011594 -0.077936 0.986906
-0.009956 -0.078174 0.989923
-0.008306 -0.078395 0.992722
-0.006642 -0.078569 0.994928
-0.004971 -0.078743 0.997131
-0.003292 -0.078897 0.999077
-0.001605 -0.078998 1.000370
0.000086 -0.079037 1.000850
0.001778 -0.079054 1.001060
0.003466 -0.078950 0.999747
0.005146 -0.078796 0.997803
0.006817 -0.078609 0.995436
0.008478 -0.078406 0.992859
0.010131 -0.078208 0.990357
0.011783 -0.078065 0.988541
0.013430 -0.077924 0.986761
0.015072 -0.077790 0.985057
0.016702 -0.077622 0.982937
0.018320 -0.077437 0.980593
0.019929 -0.077251 0.978238
0.021539 -0.077092 0.976224
0.023138 -0.076922 0.974069
0.024751 -0.076817 0.972739
0.026365 -0.076730 0.971637
0.027992 -0.076686 0.971079
0.029612 -0.076631 0.970387
0.031255 -0.076637 0.970468
0.032893 -0.076630 0.970373
0.034537 -0.076638 0.970479
0.036163 -0.076608 0.970095
0.037793 -0.076588 0.969841
0.039397 -0.076518 0.968957
0.040988 -0.076431 0.967852
0.042571 -0.076335 0.966641
0.044151 -0.076242 0.965456
0.045742 -0.076173 0.964583
0.047341 -0.076121 0.963932
0.048980 -0.076136 0.964124
0.050613 -0.076141 0.964177
0.052290 -0.076210 0.965049
0.053976 -0.076287 0.966027
0.055678 -0.076382 0.967229
0.057367 -0.076453 0.968136
0.059064 -0.076531 0.969116
0.060729 -0.076565 0.969548
0.062367 -0.076564 0.969536
0.063997 -0.076553 0.969391
0.065613 -0.076526 0.969055
0.067258 -0.076533 0.969148
0.068920 -0.076560 0.969490
0.070622 -0.076628 0.970353
0.072336 -0.076707 0.971343
0.074085 -0.076817 0.972740
0.075832 -0.076921 0.974059
0.077583 -0.077025 0.975372
0.079347 -0.077137 0.976791
0.081160 -0.077290 0.978735
0.082959 -0.077425 0.980443
0.084792 -0.077586 0.982480
0.086683 -0.077793 0.985097
0.088598 -0.078013 0.987881
-0.065277 -0.076607 0.991366
-0.063556 -0.076554 0.990669
-0.061846 -0.076510 0.990101
-0.060098 -0.076416 0.988888
-0.058355 -0.076321 0.987667
-0.056595 -0.076200 0.986097
-0.054832 -0.076068 0.984385
-0.053076 -0.075935 0.982672
-0.051332 -0.075814 0.981101
-0.049601 -0.075704 0.979671
-0.047890 -0.075617 0.978556
-0.046184 -0.075532 0.977452
-0.044477 -0.075440 0.976258
-0.042787 -0.075370 0.975358
-0.041110 -0.075319 0.974689
-0.039437 -0.075269 0.974050
-0.037781 -0.075253 0.973834
-0.036116 -0.075212 0.973310
-0.034451 -0.075169 0.972756
-0.032786 -0.075124 0.972171
-0.031125 -0.075081 0.971611
-0.029467 -0.075041 0.971091
-0.027822 -0.075033 0.970987
-0.026178 -0.075025 0.970891
-0.024536 -0.075025 0.970891
-0.022895 -0.075025 0.970891
-0.021256 -0.075033 0.970987
-0.019635 -0.075111 0.972005
-0.018028 -0.075261 0.973943
-0.016432 -0.075494 0.976959
-0.014835 -0.075775 0.980597
-0.013230 -0.076079 0.984528
-0.011604 -0.076332 0.987797
-0.009963 -0.076548 0.990592
-0.008308 -0.076731 0.992965
-0.006643 -0.076890 0.995031
-0.004971 -0.077043 0.997005
-0.003291 -0.077185 0.998843
-0.001605 -0.077293 1.000230
0.000086 -0.077348 1.000950
0.001779 -0.077400 1.001620
0.003469 -0.077327 1.000680
0.005153 -0.077204 0.999088
0.006828 -0.077045 0.997035
0.008494 -0.076871 0.994777
0.010151 -0.076680 0.992304
0.011809 -0.076558 0.990721
0.013460 -0.076420 0.988943
0.015102 -0.076271 0.987020
0.016733 -0.076096 0.984755
0.018351 -0.075904 0.982267
0.019959 -0.075706 0.979699
0.021568 -0.075541 0.977564
0.023169 -0.075371 0.975373
0.024783 -0.075267 0.974017
0.026400 -0.075180 0.972901
0.028031 -0.075145 0.972447
0.029656 -0.075097 0.971823
0.031305 -0.075111 0.972007
0.032941 -0.075095 0.971801
0.034584 -0.075096 0.971810
0.036213 -0.075066 0.971426
0.037846 -0.075049 0.971198
0.039449 -0.074975 0.970243
0.041047 -0.074897 0.969239
0.042633 -0.074805 0.968041
0.044206 -0.074697 0.966645
0.045797 -0.074628 0.965749
0.047397 -0.074576 0.965079
0.049038 -0.074590 0.965262
0.050673 -0.074595 0.965328
0.052363 -0.074678 0.966398
0.054046 -0.074746 0.967275
0.055750 -0.074838 0.968473
0.057442 -0.074909 0.969393
0.059140 -0.074985 0.970376
0.060802 -0.075012 0.970721
0.062443 -0.075012 0.970720
0.064082 -0.075009 0.970684
0.065709 -0.074993 0.970473
0.067357 -0.075002 0.970588
0.069022 -0.075028 0.970925
0.070725 -0.075093 0.971769
0.072442 -0.075170 0.972764
0.074195 -0.075280 0.974190
0.075964 -0.075401 0.975754
0.077737 -0.075521 0.977305
0.079530 -0.075655 0.979041
0.081355 -0.075813 0.981088
0.083149 -0.075937 0.982689
0.084993 -0.076101 0.984815
0.086911 -0.076323 0.987685
0.088868 -0.076571 0.990889
-0.065262 -0.074909 0.991135
-0.063550 -0.074866 0.990564
-0.061854 -0.074841 0.990224
-0.060119 -0.074765 0.989224
-0.058383 -0.074684 0.988153
-0.056628 -0.074572 0.986672
-0.054864 -0.074442 0.984952
-0.053106 -0.074313 0.983242
-0.051358 -0.074188 0.981584
-0.049626 -0.074079 0.980152
-0.047908 -0.073987 0.978924
-0.046195 -0.073893 0.977688
-0.044487 -0.073801 0.976473
-0.042800 -0.073739 0.975653
-0.041123 -0.073689 0.974988
-0.039449 -0.073642 0.974363
-0.037794 -0.073625 0.974148
-0.036127 -0.073586 0.973623
-0.034462 -0.073544 0.973073
-0.032794 -0.073494 0.972408
-0.031133 -0.073452 0.971848
-0.029473 -0.073411 0.971311
-0.027825 -0.073394 0.971091
-0.026178 -0.073379 0.970891
-0.024536 -0.073379 0.970891
-0.022895 -0.073379 0.970891
-0.021258 -0.073394 0.971091
-0.019641 -0.073488 0.972327
-0.018042 -0.073668 0.974708
-0.016453 -0.073932 0.978197
-0.014858 -0.074225 0.982086
-0.013250 -0.074523 0.986022
-0.011620 -0.074759 0.989146
-0.009973 -0.074943 0.991583
-0.008312 -0.075082 0.993417
-0.006644 -0.075213 0.995160
-0.004970 -0.075336 0.996785
-0.003290 -0.075457 0.998380
-0.001604 -0.075553 0.999650
0.000086 -0.075625 1.000600
0.001780 -0.075710 1.001720
0.003471 -0.075665 1.001130
0.005157 -0.075570 0.999875
0.006836 -0.075439 0.998144
0.008507 -0.075295 0.996232
0.010166 -0.075111 0.993797
0.011831 -0.075017 0.992566
0.013487 -0.074892 0.990901
0.015132 -0.074745 0.988961
0.016763 -0.074564 0.986571
0.018384 -0.074375 0.984061
0.019991 -0.074164 0.981276
0.021603 -0.074001 0.979118
0.023203 -0.073827 0.976811
0.024819 -0.073723 0.975440
0.026433 -0.073624 0.974129
0.028064 -0.073583 0.973591
0.029694 -0.073544 0.973067
0.031351 -0.073572 0.973446
0.032989 -0.073556 0.973229
0.034640 -0.073566 0.973362
0.036281 -0.073557 0.973240
0.037914 -0.073533 0.972925
0.039516 -0.073453 0.971871
0.041117 -0.073379 0.970888
0.042709 -0.073294 0.969768
0.044280 -0.073181 0.968269
0.045874 -0.073113 0.967363
0.047476 -0.073061 0.966684
0.049115 -0.073069 0.966786
0.050748 -0.073066 0.966750
0.052428 -0.073131 0.967602
0.054100 -0.073180 0.968253
0.055799 -0.073261 0.969326
0.057486 -0.073323 0.970142
0.059186 -0.073397 0.971130
0.060850 -0.073424 0.971485
0.062504 -0.073438 0.971665
0.064146 -0.073436 0.971648
0.065795 -0.073444 0.971748
0.067448 -0.073455 0.971889
0.069128 -0.073495 0.972416
0.070834 -0.073559 0.973272
0.072568 -0.073649 0.974457
0.074328 -0.073760 0.975931
0.076117 -0.073896 0.977725
0.077906 -0.074024 0.979428
0.079730 -0.074181 0.981501
0.081554 -0.074332 0.983492
0.083346 -0.074447 0.985014
0.085220 -0.074630 0.987434
0.087182 -0.074881 0.990762
0.089172 -0.075147 0.994274
-0.063550 -0.073187 0.990565
-0.061862 -0.073171 0.990354
-0.060139 -0.073112 0.989549
-0.058410 -0.073042 0.988604
-0.056660 -0.072940 0.987226
-0.054900 -0.072821 0.985606
-0.053143 -0.072696 0.983919
-0.051388 -0.072567 0.982166
-0.049655 -0.072460 0.980729
-0.047931 -0.072361 0.979381
-0.046203 -0.072248 0.977849
-0.044484 -0.072141 0.976404
-0.042801 -0.072087 0.975676
-0.041120 -0.072032 0.974927
-0.039448 -0.071988 0.974330
-0.037795 -0.071978 0.974194
-0.036136 -0.071952 0.973850
-0.034470 -0.071912 0.973309
-0.032803 -0.071865 0.972667
-0.031141 -0.071823 0.972107
-0.029480 -0.071781 0.971540
-0.027828 -0.071756 0.971199
-0.026178 -0.071733 0.970891
-0.024536 -0.071733 0.970891
-0.022895 -0.071733 0.970891
-0.021261 -0.071756 0.971199
-0.019643 -0.071843 0.972377
-0.018055 -0.072068 0.975414
-0.016473 -0.072362 0.979394
-0.014880 -0.072669 0.983557
-0.013270 -0.072961 0.987504
-0.011638 -0.073192 0.990629
-0.009980 -0.073315 0.992299
-0.008313 -0.073408 0.993557
-0.006642 -0.073511 0.994949
-0.004967 -0.073605 0.996218
-0.003287 -0.073706 0.997587
-0.001603 -0.073806 0.998936
0.000086 -0.073885 1.000000
0.001779 -0.073986 1.001370
0.003471 -0.073960 1.001030
0.005158 -0.073891 1.000100
0.006839 -0.073780 0.998588
0.008513 -0.073664 0.997017
0.010177 -0.073503 0.994837
0.011848 -0.073437 0.993947
0.013509 -0.073336 0.992584
0.015160 -0.073202 0.990764
0.016795 -0.073031 0.988459
0.018420 -0.072846 0.985954
0.020030 -0.072640 0.983156
0.021642 -0.072473 0.980899
0.023247 -0.072308 0.978668
0.024867 -0.072208 0.977310
0.026487 -0.072120 0.976121
0.028128 -0.072095 0.975788
0.029768 -0.072073 0.975487
0.031434 -0.072111 0.976001
0.033078 -0.072099 0.975838
0.034731 -0.072107 0.975939
0.036376 -0.072096 0.975795
0.038004 -0.072055 0.975247
0.039602 -0.071962 0.973986
0.041201 -0.071881 0.972883
0.042791 -0.071789 0.971639
0.044360 -0.071670 0.970029
0.045957 -0.071603 0.969126
0.047569 -0.071562 0.968572
0.049207 -0.071564 0.968591
0.050836 -0.071552 0.968433
0.052502 -0.071590 0.968956
0.054168 -0.071627 0.969457
0.055850 -0.071683 0.970212
0.057531 -0.071735 0.970906
0.059232 -0.071807 0.971886
0.060904 -0.071840 0.972334
0.062573 -0.071869 0.972731
0.064236 -0.071890 0.973008
0.065902 -0.071914 0.973329
0.067566 -0.071933 0.973587
0.069258 -0.071981 0.974238
0.070959 -0.072036 0.974990
0.072689 -0.072117 0.976087
0.074460 -0.072234 0.977662
0.076255 -0.072369 0.979492
0.078071 -0.072518 0.981513
0.079928 -0.072698 0.983944
0.081778 -0.072864 0.986190
0.083603 -0.073002 0.988058
0.085520 -0.073213 0.990917
0.087510 -0.073477 0.994490
0.089492 -0.073725 0.997850
-0.061870 -0.071503 0.990491
-0.060158 -0.071458 0.989872
-0.058435 -0.071398 0.989038
-0.056691 -0.071306 0.987769
-0.054937 -0.071197 0.986261
-0.053179 -0.071076 0.984584
-0.051422 -0.070949 0.982828
-0.049688 -0.070845 0.981379
-0.047957 -0.070739 0.979909
-0.046222 -0.070620 0.978264
-0.044503 -0.070515 0.976815
-0.042820 -0.070464 0.976110
-0.041139 -0.070411 0.975371
-0.039466 -0.070368 0.974774
-0.037812 -0.070358 0.974632
-0.036151 -0.070332 0.974274
-0.034485 -0.070293 0.973737
-0.032818 -0.070248 0.973106
-0.031155 -0.070207 0.972545
-0.029490 -0.070158 0.971866
-0.027834 -0.070125 0.971407
-0.026181 -0.070095 0.970987
-0.024536 -0.070088 0.970891
-0.022895 -0.070088 0.970891
-0.021261 -0.070110 0.971206
-0.019641 -0.070188 0.972288
-0.018067 -0.070461 0.976064
-0.016494 -0.070793 0.980654
-0.014906 -0.071123 0.985234
-0.013295 -0.071416 0.989297
-0.011660 -0.071651 0.992544
-0.009992 -0.071720 0.993500
-0.008318 -0.071770 0.994191
-0.006644 -0.071838 0.995138
-0.004965 -0.071897 0.995957
-0.003285 -0.071969 0.996954
-0.001601 -0.072050 0.998078
0.000086 -0.072114 0.998957
0.001777 -0.072209 1.000270
0.003468 -0.072207 1.000250
0.005156 -0.072164 0.999650
0.006837 -0.072072 0.998381
0.008515 -0.071991 0.997254
0.010183 -0.071865 0.995512
0.011860 -0.071824 0.994946
0.013526 -0.071743 0.993816
0.015184 -0.071635 0.992322
0.016828 -0.071493 0.990359
0.018459 -0.071328 0.988079
0.020077 -0.071141 0.985488
0.021695 -0.070985 0.983316
0.023307 -0.070831 0.981195
0.024929 -0.070727 0.979752
0.026556 -0.070649 0.978664
0.028198 -0.070618 0.978237
0.029849 -0.070611 0.978142
0.031523 -0.070658 0.978792
0.033179 -0.070659 0.978806
0.034837 -0.070668 0.978923
0.036490 -0.070663 0.978858
0.038117 -0.070611 0.978146
0.039707 -0.070498 0.976571
0.041304 -0.070406 0.975307
0.042888 -0.070300 0.973827
0.044455 -0.070174 0.972089
0.046056 -0.070111 0.971210
0.047677 -0.070080 0.970786
0.049309 -0.070066 0.970596
0.050940 -0.070053 0.970413
0.052595 -0.070072 0.970679
0.054241 -0.070079 0.970772
0.055907 -0.070110 0.971202
0.057588 -0.070158 0.971868
0.059285 -0.070222 0.972756
0.060965 -0.070262 0.973313
0.062657 -0.070315 0.974035
0.064343 -0.070358 0.974643
0.066030 -0.070400 0.975220
0.067712 -0.070434 0.975691
0.069408 -0.070482 0.976357
0.071112 -0.070534 0.977081
0.072838 -0.070607 0.978083
0.074611 -0.070720 0.979646
0.076409 -0.070852 0.981476
0.078254 -0.071020 0.983812
0.080134 -0.071213 0.986482
0.082027 -0.071409 0.989199
0.083889 -0.071571 0.991442
0.085826 -0.071789 0.994462
0.087805 -0.072033 0.997843
0.089772 -0.072259 1.000970
0.092195 -0.074547 1.008970
0.091719 -0.072460 1.003750
-0.061862 -0.069814 0.990353
-0.060164 -0.069786 0.989960
-0.058447 -0.069734 0.989227
-0.056716 -0.069663 0.988218
-0.054969 -0.069567 0.986845
-0.053210 -0.069448 0.985161
-0.051452 -0.069323 0.983391
-0.049714 -0.069218 0.981905
-0.047973 -0.069100 0.980233
-0.046237 -0.068984 0.978580
-0.044521 -0.068889 0.977230
-0.042838 -0.068839 0.976520
-0.041157 -0.068788 0.975793
-0.039487 -0.068753 0.975300
-0.037833 -0.068742 0.975154
-0.036171 -0.068718 0.974802
-0.034504 -0.068680 0.974266
-0.032836 -0.068635 0.973634
-0.031172 -0.068596 0.973073
-0.029503 -0.068541 0.972293
-0.027843 -0.068501 0.971726
-0.026186 -0.068463 0.971196
-0.024539 -0.068449 0.970987
-0.022895 -0.068442 0.970891
-0.021261 -0.068464 0.971199
-0.019637 -0.068527 0.972093
-0.018080 -0.068856 0.976761
-0.016519 -0.069235 0.982138
-0.014938 -0.069605 0.987387
-0.013328 -0.069917 0.991815
-0.011684 -0.070111 0.994572
-0.010003 -0.070115 0.994622
-0.008322 -0.070116 0.994637
-0.006643 -0.070142 0.995012
-0.004963 -0.070169 0.995389
-0.003282 -0.070214 0.996036
-0.001600 -0.070292 0.997131
0.000086 -0.070345 0.997889
0.001775 -0.070431 0.999107
0.003465 -0.070444 0.999295
0.005152 -0.070418 0.998926
0.006834 -0.070346 0.997908
0.008514 -0.070292 0.997142
0.010187 -0.070201 0.995845
0.011866 -0.070177 0.995503
0.013539 -0.070122 0.994719
0.015201 -0.070033 0.993469
0.016854 -0.069921 0.991878
0.018494 -0.069784 0.989934
0.020121 -0.069625 0.987675
0.021746 -0.069480 0.985615
0.023366 -0.069345 0.983698
0.024992 -0.069242 0.982244
0.026624 -0.069166 0.981158
0.028275 -0.069148 0.980906
0.029949 -0.069186 0.981439
0.031638 -0.069251 0.982363
0.033314 -0.069281 0.982798
0.034991 -0.069311 0.983224
0.036654 -0.069313 0.983245
0.038273 -0.069235 0.982144
0.039859 -0.069106 0.980315
0.041443 -0.068984 0.978585
0.043012 -0.068847 0.976639
0.044568 -0.068701 0.974568
0.046169 -0.068632 0.973582
0.047795 -0.068603 0.973176
0.049425 -0.068583 0.972889
0.051064 -0.068575 0.972773
0.052710 -0.068576 0.972801
0.054342 -0.068561 0.972581
0.055993 -0.068570 0.972701
0.057671 -0.068609 0.973261
0.059357 -0.068656 0.973935
0.061046 -0.068704 0.974613
0.062751 -0.068767 0.975500
0.064458 -0.068829 0.976382
0.066171 -0.068893 0.977297
0.067871 -0.068942 0.977990
0.069592 -0.069009 0.978939
0.071323 -0.069083 0.979987
0.073069 -0.069167 0.981182
0.074848 -0.069279 0.982759
0.076664 -0.069419 0.984754
0.078525 -0.069592 0.987210
0.080414 -0.069784 0.989925
0.082320 -0.069981 0.992728
0.084199 -0.070149 0.995102
0.086135 -0.070356 0.998039
0.088065 -0.070550 1.000800
0.089981 -0.070726 1.003290
0.091883 -0.070885 1.005550
-0.061862 -0.068135 0.990353
-0.060170 -0.068116 0.990070
-0.058459 -0.068072 0.989432
-0.056738 -0.068013 0.988586
-0.055001 -0.067933 0.987420
-0.053247 -0.067824 0.985839
-0.051487 -0.067702 0.984064
-0.049743 -0.067592 0.982464
-0.047999 -0.067476 0.980774
-0.046262 -0.067362 0.979111
-0.044546 -0.067270 0.977775
-0.042858 -0.067215 0.976980
-0.041180 -0.067171 0.976339
-0.039508 -0.067135 0.975825
-0.037850 -0.067120 0.975602
-0.036188 -0.067096 0.975254
-0.034520 -0.067060 0.974725
-0.032851 -0.067015 0.974076
-0.031186 -0.066976 0.973511
-0.029517 -0.066923 0.972740
-0.027853 -0.066877 0.972073
-0.026195 -0.066840 0.971525
-0.024544 -0.066817 0.971196
-0.022898 -0.066803 0.970991
-0.021258 -0.066810 0.971099
-0.019629 -0.066851 0.971695
-0.018093 -0.067247 0.977449
-0.016546 -0.067680 0.983744
-0.014965 -0.068055 0.989194
-0.013360 -0.068395 0.994128
-0.011704 -0.068545 0.996306
-0.010013 -0.068494 0.995570
-0.008327 -0.068470 0.995219
-0.006643 -0.068457 0.995028
-0.004960 -0.068451 0.994943
-0.003279 -0.068471 0.995242
-0.001598 -0.068537 0.996197
0.000086 -0.068574 0.996737
0.001773 -0.068648 0.997810
0.003461 -0.068673 0.998176
0.005149 -0.068685 0.998341
0.006834 -0.068657 0.997940
0.008518 -0.068632 0.997577
0.010196 -0.068574 0.996734
0.011878 -0.068557 0.996486
0.013552 -0.068503 0.995707
0.015218 -0.068428 0.994604
0.016881 -0.068349 0.993469
0.018531 -0.068241 0.991896
0.020173 -0.068124 0.990189
0.021806 -0.067997 0.988344
0.023434 -0.067873 0.986540
0.025069 -0.067785 0.985258
0.026713 -0.067730 0.984467
0.028374 -0.067721 0.984339
0.030065 -0.067782 0.985214
0.031767 -0.067861 0.986368
0.033455 -0.067901 0.986945
0.035142 -0.067938 0.987490
0.036816 -0.067947 0.987613
0.038440 -0.067865 0.986424
0.040036 -0.067744 0.984667
0.041613 -0.067602 0.982608
0.043163 -0.067428 0.980083
0.044703 -0.067252 0.977524
0.046291 -0.067159 0.976167
0.047906 -0.067110 0.975450
0.049527 -0.067071 0.974894
0.051173 -0.067069 0.974860
0.052818 -0.067064 0.974790
0.054452 -0.067048 0.974550
0.056095 -0.067042 0.974469
0.057786 -0.067093 0.975206
0.059476 -0.067139 0.975876
0.061182 -0.067201 0.976779
0.062905 -0.067278 0.977891
0.064640 -0.067363 0.979137
0.066366 -0.067435 0.980183
0.068080 -0.067491 0.980996
0.069827 -0.067578 0.982253
0.071576 -0.067660 0.983454
0.073339 -0.067753 0.984805
0.075134 -0.067871 0.986521
0.076973 -0.068023 0.988722
0.078834 -0.068187 0.991105
0.080724 -0.068368 0.993745
0.082629 -0.068555 0.996458
0.084514 -0.068718 0.998823
0.086428 -0.068897 1.001430
0.088311 -0.069046 1.003590
0.090185 -0.069182 1.005570
0.092056 -0.069311 1.007450
-0.060178 -0.066445 0.990189
-0.058467 -0.066404 0.989570
-0.056751 -0.066353 0.988817
-0.055022 -0.066284 0.987791
-0.053278 -0.066192 0.986420
-0.051517 -0.066073 0.984639
-0.049772 -0.065965 0.983039
-0.048027 -0.065852 0.981353
-0.046289 -0.065741 0.979686
-0.044569 -0.065645 0.978265
-0.042879 -0.065590 0.977448
-0.041195 -0.065540 0.976703
-0.039523 -0.065505 0.976177
-0.037864 -0.065490 0.975956
-0.036205 -0.065475 0.975722
-0.034533 -0.065432 0.975093
-0.032866 -0.065394 0.974527
-0.031200 -0.065356 0.973955
-0.029530 -0.065305 0.973192
-0.027864 -0.065254 0.972442
-0.026204 -0.065216 0.971873
-0.024550 -0.065186 0.971418
-0.022900 -0.065165 0.971107
-0.021256 -0.065158 0.971000
-0.019618 -0.065168 0.971153
-0.018088 -0.065575 0.977221
-0.014996 -0.066513 0.991190
-0.013385 -0.066839 0.996058
-0.011720 -0.066947 0.997673
-0.010023 -0.066878 0.996634
-0.008333 -0.066829 0.995912
-0.006644 -0.066784 0.995242
-0.004960 -0.066755 0.994809
-0.003278 -0.066753 0.994771
-0.001597 -0.066802 0.995505
0.000086 -0.066823 0.995816
0.001771 -0.066879 0.996650
0.003457 -0.066916 0.997202
0.005147 -0.066964 0.997916
0.006836 -0.066980 0.998157
0.008526 -0.067005 0.998523
0.010212 -0.066993 0.998346
0.011898 -0.066982 0.998192
0.013575 -0.066927 0.997374
0.015250 -0.066880 0.996662
0.016920 -0.066821 0.995791
0.018581 -0.066740 0.994586
0.020237 -0.066656 0.993330
0.021880 -0.066547 0.991707
0.023509 -0.066411 0.989683
0.025152 -0.066331 0.988492
0.026809 -0.066299 0.988008
0.028487 -0.066315 0.988251
0.030190 -0.066386 0.989308
0.031901 -0.066467 0.990513
0.033590 -0.066495 0.990937
0.035277 -0.066517 0.991261
0.036947 -0.066508 0.991118
0.038577 -0.066429 0.989947
0.040181 -0.066313 0.988226
0.041756 -0.066163 0.985986
0.043290 -0.065960 0.982965
0.044807 -0.065748 0.979792
0.046382 -0.065633 0.978090
0.048014 -0.065604 0.977647
0.049641 -0.065569 0.977133
0.051287 -0.065562 0.977031
0.052949 -0.065575 0.977221
0.054588 -0.065559 0.976983
0.056230 -0.065548 0.976818
0.057932 -0.065605 0.977667
0.059637 -0.065663 0.978526
0.061361 -0.065737 0.979640
0.063096 -0.065820 0.980872
0.064845 -0.065912 0.982247
0.066569 -0.065974 0.983172
0.068314 -0.066055 0.984371
0.070079 -0.066151 0.985798
0.071848 -0.066245 0.987200
0.073642 -0.066357 0.988873
0.075467 -0.066493 0.990896
0.077293 -0.066622 0.992825
0.079144 -0.066768 0.994993
0.081024 -0.066932 0.997440
0.082916 -0.067098 0.999914
0.084792 -0.067245 1.002100
0.086659 -0.067380 1.004110
0.088514 -0.067500 1.005900
0.090380 -0.067624 1.007750
0.092236 -0.067736 1.009420
-0.060187 -0.064777 0.990353
-0.058465 -0.064724 0.989540
-0.056746 -0.064672 0.988736
-0.055018 -0.064604 0.987709
-0.053283 -0.064526 0.986515
-0.051531 -0.064421 0.984898
-0.049791 -0.064324 0.983417
-0.048050 -0.064220 0.981826
-0.046321 -0.064124 0.980359
-0.044604 -0.064037 0.979033
-0.042913 -0.063985 0.978233
-0.041231 -0.063941 0.977563
-0.039561 -0.063912 0.977128
-0.037900 -0.063897 0.976900
-0.036237 -0.063877 0.976586
-0.034564 -0.063835 0.975945
