1711
0.126397 -0.222193 0.945809
0.127976 -0.222158 0.945660
0.129558 -0.222129 0.945540
0.131135 -0.222092 0.945380
0.132793 -0.222193 0.945809
0.134452 -0.222292 0.946231
0.136097 -0.222366 0.946549
0.137771 -0.222484 0.947050
0.139462 -0.222628 0.947664
0.141146 -0.222758 0.948215
0.142830 -0.222885 0.948755
0.144511 -0.223003 0.949260
0.146146 -0.223050 0.949458
0.147826 -0.223162 0.949935
0.149497 -0.223259 0.950349
-0.014031 -0.216300 0.927420
-0.012459 -0.216227 0.927107
-0.010884 -0.216086 0.926499
-0.009310 -0.215895 0.925680
-0.007732 -0.215547 0.924189
-0.006156 -0.215067 0.922129
-0.004586 -0.214528 0.919822
-0.003025 -0.214117 0.918059
-0.001470 -0.213667 0.916128
0.000079 -0.213401 0.914987
0.001624 -0.213243 0.914309
0.003168 -0.213125 0.913803
0.004709 -0.212951 0.913056
0.006251 -0.212878 0.912747
0.007788 -0.212729 0.912107
0.009323 -0.212556 0.911363
0.010858 -0.212456 0.910935
0.012392 -0.212341 0.910444
0.013928 -0.212298 0.910258
0.015470 -0.212346 0.910465
0.017015 -0.212418 0.910771
0.018557 -0.212443 0.910880
0.020104 -0.212520 0.911209
0.021647 -0.212541 0.911301
0.023182 -0.212488 0.911073
0.024717 -0.212446 0.910895
0.026248 -0.212374 0.910583
0.027767 -0.212219 0.909921
0.029281 -0.212045 0.909175
0.030799 -0.211912 0.908605
0.032321 -0.211821 0.908214
0.033836 -0.211696 0.907678
0.035370 -0.211691 0.907657
0.036904 -0.211690 0.907651
0.038432 -0.211652 0.907488
0.039950 -0.211565 0.907118
0.041460 -0.211446 0.906608
0.042951 -0.211242 0.905732
0.044435 -0.211017 0.904767
0.045925 -0.210837 0.903996
0.047409 -0.210640 0.903152
0.048905 -0.210507 0.902579
0.050400 -0.210377 0.902021
0.051908 -0.210310 0.901736
0.053431 -0.210305 0.901715
0.054989 -0.210434 0.902266
0.056607 -0.210778 0.903743
0.064964 -0.213132 0.913833
0.066498 -0.213099 0.913694
0.068032 -0.213065 0.913545
0.069587 -0.213097 0.913683
0.071118 -0.213056 0.913511
0.072705 -0.213183 0.914053
0.074296 -0.213314 0.914616
0.075899 -0.213473 0.915297
0.077511 -0.213652 0.916064
0.079173 -0.213957 0.917372
0.080796 -0.214149 0.918196
0.082439 -0.214385 0.919205
0.084090 -0.214632 0.920264
0.085694 -0.214753 0.920785
0.087331 -0.214951 0.921633
0.089088 -0.215432 0.923698
0.090886 -0.215993 0.926102
0.092822 -0.216860 0.929817
0.100568 -0.220050 0.943494
0.102230 -0.220194 0.944112
0.103960 -0.220479 0.945335
0.105694 -0.220762 0.946551
0.107415 -0.221011 0.947618
0.109118 -0.221217 0.948498
0.110831 -0.221435 0.949434
0.112419 -0.221400 0.949286
0.113974 -0.221305 0.948877
0.115541 -0.221234 0.948572
0.117082 -0.221115 0.948062
0.118643 -0.221036 0.947725
0.120190 -0.220936 0.947296
0.121754 -0.220867 0.947001
0.123341 -0.220843 0.946895
0.124917 -0.220799 0.946709
0.126425 -0.220638 0.946017
0.127976 -0.220554 0.945657
0.129528 -0.220475 0.945319
0.131075 -0.220389 0.944949
0.132718 -0.220464 0.945272
0.134376 -0.220563 0.945697
0.136024 -0.220643 0.946041
0.137697 -0.220762 0.946548
0.139387 -0.220904 0.947158
0.141068 -0.221029 0.947692
0.142767 -0.221178 0.948333
0.144463 -0.221321 0.948946
0.146116 -0.221394 0.949260
0.147812 -0.221531 0.949846
0.149470 -0.221609 0.950179
-0.014031 -0.214733 0.927439
-0.012460 -0.214678 0.927201
-0.010885 -0.214524 0.926538
-0.009311 -0.214357 0.925814
-0.007735 -0.214045 0.924468
-0.006159 -0.213610 0.922590
-0.004589 -0.213121 0.920477
-0.003028 -0.212780 0.919006
-0.001472 -0.212381 0.917283
0.000079 -0.212166 0.916354
0.001627 -0.212013 0.915691
0.003173 -0.211897 0.915193
0.004716 -0.211721 0.914429
0.006261 -0.211665 0.914189
0.007800 -0.211495 0.913456
0.009337 -0.211340 0.912785
0.010874 -0.211220 0.912268
0.012409 -0.211101 0.911755
0.013948 -0.211061 0.911579
0.015496 -0.211150 0.911966
0.017044 -0.211228 0.912302
0.018590 -0.211276 0.912510
0.020140 -0.211355 0.912849
0.021683 -0.211353 0.912841
0.023218 -0.211275 0.912507
0.024753 -0.211211 0.912229
0.026284 -0.211117 0.911822
0.027804 -0.210959 0.911142
0.029320 -0.210783 0.910382
0.030843 -0.210673 0.909904
0.032371 -0.210605 0.909611
0.033895 -0.210523 0.909257
0.035432 -0.210520 0.909243
0.036969 -0.210519 0.909242
0.038491 -0.210438 0.908889
0.040007 -0.210328 0.908415
0.041510 -0.210165 0.907710
0.042995 -0.209920 0.906654
0.044471 -0.209656 0.905513
0.045954 -0.209436 0.904562
0.047434 -0.209218 0.903622
0.048925 -0.209064 0.902953
0.050425 -0.208954 0.902478
0.051935 -0.208890 0.902202
0.053471 -0.208931 0.902379
0.055041 -0.209101 0.903114
0.056670 -0.209477 0.904739
0.058348 -0.210013 0.907052
0.060018 -0.212034 0.909125
0.060067 -0.210663 0.909860
0.061775 -0.211245 0.912374
0.063382 -0.213008 0.913301
0.063406 -0.211539 0.913645
0.065007 -0.211724 0.914446
0.066553 -0.211725 0.914448
0.068105 -0.211742 0.914524
0.069670 -0.211802 0.914781
0.071199 -0.211749 0.914551
0.072775 -0.211835 0.914922
0.074351 -0.211919 0.915287
0.075939 -0.212032 0.915773
0.077538 -0.212172 0.916380
0.079209 -0.212499 0.917790
0.080851 -0.212736 0.918815
0.082519 -0.213033 0.920098
0.084199 -0.213348 0.921458
0.085840 -0.213554 0.922349
0.087519 -0.213848 0.923616
0.089322 -0.214428 0.926122
0.091151 -0.215050 0.928807
0.093066 -0.215848 0.932257
0.094997 -0.216658 0.935755
0.096977 -0.219145 0.939617
0.096971 -0.217537 0.939552
0.098748 -0.217955 0.941357
0.100498 -0.218298 0.942838
0.102276 -0.218693 0.944543
0.104019 -0.219001 0.945873
0.105776 -0.219327 0.947281
0.107577 -0.219735 0.949044
0.109350 -0.220074 0.950509
0.111012 -0.220183 0.950979
0.112609 -0.220162 0.950890
0.114171 -0.220075 0.950514
0.115712 -0.219951 0.949977
0.117241 -0.219806 0.949349
0.118790 -0.219703 0.948906
0.120329 -0.219583 0.948386
0.121869 -0.219469 0.947894
0.123442 -0.219417 0.947669
0.124991 -0.219323 0.947266
0.126473 -0.219117 0.946373
0.127996 -0.218985 0.945804
0.129530 -0.218875 0.945331
0.131033 -0.218717 0.944647
0.132645 -0.218741 0.944752
0.134287 -0.218815 0.945072
0.135921 -0.218873 0.945321
0.137579 -0.218969 0.945736
0.139266 -0.219107 0.946332
0.140944 -0.219228 0.946855
0.142641 -0.219378 0.947500
0.144369 -0.219569 0.948326
0.146053 -0.219691 0.948855
0.147768 -0.219855 0.949562
0.149441 -0.219956 0.949998
-0.012456 -0.213034 0.926888
-0.010882 -0.212889 0.926259
-0.009310 -0.212753 0.925664
-0.007736 -0.212518 0.924645
-0.006163 -0.212156 0.923067
-0.004593 -0.211745 0.921280
-0.003032 -0.211498 0.920207
-0.001474 -0.211173 0.918790
0.000079 -0.210983 0.917965
0.001630 -0.210830 0.917299
0.003179 -0.210715 0.916797
0.004724 -0.210515 0.915929
0.006271 -0.210463 0.915701
0.007813 -0.210291 0.914952
0.009353 -0.210137 0.914285
0.010893 -0.210032 0.913827
0.012432 -0.209935 0.913406
0.013975 -0.209914 0.913315
0.015527 -0.210030 0.913817
0.017080 -0.210130 0.914255
0.018630 -0.210181 0.914475
0.020182 -0.210239 0.914728
0.021723 -0.210194 0.914532
0.023256 -0.210070 0.913994
0.024786 -0.209939 0.913421
0.026309 -0.209776 0.912715
0.027828 -0.209594 0.911923
0.029345 -0.209418 0.911157
0.030872 -0.209326 0.910756
0.032405 -0.209281 0.910558
0.033937 -0.209240 0.910379
0.035476 -0.209238 0.910372
0.037015 -0.209237 0.910370
0.038535 -0.209136 0.909926
0.040052 -0.209024 0.909441
0.041553 -0.208841 0.908645
0.043039 -0.208596 0.907581
0.044517 -0.208333 0.906434
0.045996 -0.208093 0.905389
0.047472 -0.207854 0.904350
0.048964 -0.207696 0.903662
0.050465 -0.207586 0.903182
0.051971 -0.207503 0.902825
0.053508 -0.207545 0.903005
0.055088 -0.207748 0.903888
0.056710 -0.208093 0.905389
0.058388 -0.208618 0.907674
0.060091 -0.209205 0.910226
0.061797 -0.209774 0.912706
0.063430 -0.210071 0.913995
0.065042 -0.210287 0.914936
0.066594 -0.210305 0.915014
0.068154 -0.210345 0.915188
0.069723 -0.210409 0.915467
0.071266 -0.210397 0.915415
0.072844 -0.210484 0.915794
0.074415 -0.210548 0.916070
0.076003 -0.210658 0.916551
0.077612 -0.210819 0.917251
0.079279 -0.211131 0.918606
0.080933 -0.211393 0.919747
0.082619 -0.211730 0.921215
0.084318 -0.212086 0.922763
0.085990 -0.212361 0.923962
0.087711 -0.212749 0.925647
0.089540 -0.213377 0.928379
0.091362 -0.213969 0.930957
0.093246 -0.214683 0.934061
0.095125 -0.215361 0.937015
0.096994 -0.215997 0.939781
0.098746 -0.216353 0.941328
0.100452 -0.216602 0.942414
0.102255 -0.217047 0.944348
0.104128 -0.217626 0.946866
0.106012 -0.218207 0.949395
0.107896 -0.218774 0.951861
0.109724 -0.219211 0.953764
0.111414 -0.219363 0.954423
0.112968 -0.219249 0.953927
0.114510 -0.219112 0.953332
0.116018 -0.218917 0.952483
0.117511 -0.218699 0.951537
0.119013 -0.218503 0.950685
0.120518 -0.218318 0.949879
0.122032 -0.218154 0.949165
0.123581 -0.218057 0.948741
0.125104 -0.217915 0.948126
0.126560 -0.217662 0.947023
0.128054 -0.217481 0.946237
0.129547 -0.217302 0.945456
0.131007 -0.217073 0.944461
0.132574 -0.217025 0.944251
0.134185 -0.217048 0.944352
0.135785 -0.217054 0.944378
0.137427 -0.217125 0.944687
0.139110 -0.217260 0.945275
0.140801 -0.217404 0.945901
0.142513 -0.217575 0.946646
0.144270 -0.217812 0.947675
0.145987 -0.217984 0.948425
0.147734 -0.218195 0.949343
0.149423 -0.218318 0.949878
-0.010877 -0.211223 0.925837
-0.009307 -0.211115 0.925362
-0.007736 -0.210944 0.924615
-0.006165 -0.210672 0.923421
-0.004597 -0.210355 0.922031
-0.003036 -0.210224 0.921460
-0.001477 -0.209968 0.920338
0.000079 -0.209816 0.919671
0.001633 -0.209679 0.919069
0.003185 -0.209580 0.918634
0.004733 -0.209363 0.917684
0.006283 -0.209313 0.917463
0.007828 -0.209143 0.916721
0.009371 -0.208993 0.916061
0.010914 -0.208890 0.915610
0.012458 -0.208817 0.915289
0.014004 -0.208798 0.915209
0.015558 -0.208895 0.915634
0.017114 -0.208995 0.916072
0.018667 -0.209045 0.916288
0.020218 -0.209060 0.916354
0.021760 -0.208990 0.916049
0.023291 -0.208838 0.915383
0.024815 -0.208639 0.914510
0.026332 -0.208411 0.913511
0.027849 -0.208203 0.912599
0.029364 -0.208006 0.911736
0.030889 -0.207899 0.911265
0.032423 -0.207856 0.911079
0.033960 -0.207835 0.910987
0.035500 -0.207835 0.910987
0.037040 -0.207835 0.910987
0.038565 -0.207753 0.910626
0.040083 -0.207642 0.910140
0.041586 -0.207462 0.909352
0.043072 -0.207220 0.908291
0.044555 -0.206976 0.907220
0.046031 -0.206715 0.906076
0.047507 -0.206475 0.905024
0.048995 -0.206295 0.904238
0.050496 -0.206184 0.903752
0.052004 -0.206103 0.903395
0.053547 -0.206164 0.903662
0.055136 -0.206393 0.904666
0.056756 -0.206723 0.906114
0.058431 -0.207233 0.908348
0.060123 -0.207771 0.910708
0.061820 -0.208304 0.913042
0.063472 -0.208658 0.914594
0.065085 -0.208874 0.915542
0.066652 -0.208935 0.915809
0.068219 -0.208992 0.916060
0.069790 -0.209060 0.916356
0.071344 -0.209072 0.916408
0.072930 -0.209178 0.916873
0.074508 -0.209258 0.917225
0.076099 -0.209367 0.917702
0.077710 -0.209528 0.918406
0.079373 -0.209822 0.919695
0.081044 -0.210121 0.921008
0.082743 -0.210483 0.922593
0.084455 -0.210862 0.924256
0.086149 -0.211186 0.925674
0.087917 -0.211676 0.927822
0.089735 -0.212265 0.930406
0.091561 -0.212853 0.932983
0.093394 -0.213437 0.935543
0.095223 -0.213994 0.937981
0.097000 -0.214417 0.939838
0.098707 -0.214674 0.940964
0.100412 -0.214918 0.942033
0.102238 -0.215411 0.944193
0.104161 -0.216089 0.947165
0.106274 -0.217134 0.951745
0.111825 -0.218548 0.957943
0.113396 -0.218455 0.957538
0.114902 -0.218241 0.956599
0.116388 -0.217995 0.955521
0.117845 -0.217703 0.954238
0.119300 -0.217414 0.952974
0.120767 -0.217156 0.951844
0.122232 -0.216900 0.950720
0.123741 -0.216728 0.949967
0.125224 -0.216514 0.949030
0.126641 -0.216196 0.947635
0.128098 -0.215950 0.946558
0.129576 -0.215747 0.945665
0.131007 -0.215471 0.944458
0.132531 -0.215353 0.943940
0.134108 -0.215323 0.943807
0.135676 -0.215279 0.943617
0.137286 -0.215303 0.943723
0.138940 -0.215394 0.944118
0.140630 -0.215537 0.944746
0.142354 -0.215729 0.945589
0.144128 -0.215993 0.946745
0.145862 -0.216190 0.947610
0.147639 -0.216446 0.948733
0.149341 -0.216589 0.949359
0.152314 -0.220177 0.957967
0.151043 -0.216729 0.949973
-0.010875 -0.209624 0.925706
-0.009305 -0.209509 0.925199
-0.007736 -0.209390 0.924673
-0.006168 -0.209196 0.923816
-0.004601 -0.208970 0.922818
-0.003040 -0.208916 0.922581
-0.001479 -0.208723 0.921729
0.000079 -0.208592 0.921148
0.001635 -0.208451 0.920525
0.003190 -0.208372 0.920175
0.004742 -0.208180 0.919330
0.006294 -0.208132 0.919117
0.007842 -0.207965 0.918382
0.009388 -0.207833 0.917795
0.010935 -0.207736 0.917371
0.012483 -0.207690 0.917166
0.014034 -0.207699 0.917204
0.015593 -0.207812 0.917704
0.017151 -0.207883 0.918018
0.018705 -0.207906 0.918119
0.020254 -0.207878 0.917996
0.021796 -0.207786 0.917588
0.023325 -0.207590 0.916724
0.024846 -0.207347 0.915650
0.026362 -0.207093 0.914528
0.027877 -0.206863 0.913513
0.029391 -0.206648 0.912566
0.030918 -0.206544 0.912107
0.032456 -0.206524 0.912015
0.033992 -0.206485 0.911845
0.035530 -0.206464 0.911753
0.037071 -0.206462 0.911743
0.038597 -0.206381 0.911387
0.040117 -0.206274 0.910913
0.041625 -0.206119 0.910227
0.043118 -0.205899 0.909256
0.044603 -0.205659 0.908196
0.046080 -0.205399 0.907047
0.047558 -0.205160 0.905991
0.049042 -0.204961 0.905114
0.050540 -0.204830 0.904536
0.052049 -0.204748 0.904175
0.053593 -0.204811 0.904451
0.055184 -0.205040 0.905463
0.056805 -0.205365 0.906897
0.058480 -0.205866 0.909109
0.060171 -0.206394 0.911441
0.061871 -0.206925 0.913789
0.063526 -0.207285 0.915376
0.065142 -0.207504 0.916343
0.066711 -0.207565 0.916613
0.068279 -0.207622 0.916864
0.069844 -0.207667 0.917064
0.071400 -0.207683 0.917136
0.072989 -0.207791 0.917612
0.074576 -0.207892 0.918058
0.076167 -0.207999 0.918529
0.077779 -0.208156 0.919224
0.079450 -0.208465 0.920587
0.081138 -0.208802 0.922075
0.082856 -0.209205 0.923858
0.084589 -0.209630 0.925731
0.086322 -0.210037 0.927530
0.088105 -0.210551 0.929801
0.089910 -0.211098 0.932214
0.091718 -0.211634 0.934581
0.093514 -0.212123 0.936742
0.095285 -0.212542 0.938594
0.097009 -0.212842 0.939919
0.098695 -0.213052 0.940843
0.100368 -0.213227 0.941618
0.110628 -0.217756 0.961616
0.112271 -0.217790 0.961768
0.113788 -0.217582 0.960851
0.115258 -0.217291 0.959565
0.116709 -0.216972 0.958157
0.118127 -0.216602 0.956523
0.119543 -0.216238 0.954914
0.120969 -0.215903 0.953436
0.122394 -0.215574 0.951983
0.123874 -0.215349 0.950989
0.125318 -0.215068 0.949748
0.126708 -0.214702 0.948133
0.128138 -0.214413 0.946854
0.129602 -0.214187 0.945855
0.131006 -0.213869 0.944452
0.132488 -0.213685 0.943638
0.134034 -0.213605 0.943287
0.135569 -0.213512 0.942874
0.137149 -0.213489 0.942776
0.138788 -0.213559 0.943082
0.140475 -0.213700 0.943708
0.142198 -0.213892 0.944553
0.143985 -0.214176 0.945806
0.145734 -0.214396 0.946778
0.147512 -0.214653 0.947916
0.149213 -0.214796 0.948548
0.150928 -0.214954 0.949244
-0.006170 -0.207703 0.924140
-0.004604 -0.207530 0.923373
-0.003042 -0.207520 0.923326
-0.001480 -0.207376 0.922686
0.000079 -0.207246 0.922106
0.001637 -0.207090 0.921413
0.003194 -0.207016 0.921083
0.004747 -0.206848 0.920339
0.006301 -0.206801 0.920130
0.007853 -0.206692 0.919644
0.009402 -0.206580 0.919146
0.010955 -0.206549 0.919007
0.012508 -0.206549 0.919009
0.014064 -0.206580 0.919146
0.015624 -0.206670 0.919545
0.017182 -0.206712 0.919733
0.018733 -0.206668 0.919534
0.020279 -0.206577 0.919129
0.021821 -0.206464 0.918628
0.023350 -0.206250 0.917676
0.024869 -0.205989 0.916515
0.026384 -0.205716 0.915300
0.027900 -0.205485 0.914273
0.029415 -0.205272 0.913324
0.030944 -0.205170 0.912873
0.032487 -0.205170 0.912873
0.034024 -0.205131 0.912696
0.035559 -0.205087 0.912502
0.037101 -0.205081 0.912477
0.038628 -0.205002 0.912123
0.040150 -0.204899 0.911666
0.041669 -0.204788 0.911174
0.043168 -0.204591 0.910296
0.044655 -0.204355 0.909245
0.046138 -0.204117 0.908185
0.047619 -0.203881 0.907137
0.049100 -0.203665 0.906177
0.050599 -0.203533 0.905585
0.052108 -0.203449 0.905214
0.053655 -0.203512 0.905494
0.055244 -0.203726 0.906448
0.056856 -0.204012 0.907717
0.058525 -0.204482 0.909811
0.060210 -0.204983 0.912038
0.061904 -0.205486 0.914276
0.063568 -0.205869 0.915980
0.065193 -0.206110 0.917054
0.066762 -0.206170 0.917320
0.068336 -0.206239 0.917626
0.069895 -0.206263 0.917732
0.071453 -0.206281 0.917814
0.073043 -0.206390 0.918301
0.074640 -0.206513 0.918846
0.076240 -0.206640 0.919410
0.077854 -0.206797 0.920108
0.079534 -0.207121 0.921552
0.081231 -0.207477 0.923137
0.082953 -0.207882 0.924937
0.084684 -0.208292 0.926764
0.086426 -0.208717 0.928653
0.088187 -0.209169 0.930666
0.089982 -0.209687 0.932968
0.091792 -0.210219 0.935336
0.093579 -0.210683 0.937398
0.095324 -0.211038 0.938980
0.097034 -0.211305 0.940168
0.100321 -0.211533 0.941181
0.108771 -0.217294 0.959577
0.111068 -0.216986 0.965443
0.112612 -0.216816 0.964687
0.114101 -0.216546 0.963488
0.115550 -0.216210 0.961991
0.116988 -0.215863 0.960447
0.118393 -0.215466 0.958680
0.119796 -0.215075 0.956940
0.121186 -0.214671 0.955143
0.122559 -0.214249 0.953265
0.123973 -0.213908 0.951747
0.125348 -0.213510 0.949977
0.126696 -0.213076 0.948045
0.128099 -0.212744 0.946569
0.129550 -0.212498 0.945476
0.130953 -0.212182 0.944070
0.132433 -0.211996 0.943243
0.133963 -0.211895 0.942791
0.135497 -0.211800 0.942371
0.137061 -0.211755 0.942172
0.138696 -0.211820 0.942460
0.140379 -0.211956 0.943064
0.142100 -0.212145 0.943905
0.143872 -0.212406 0.945065
0.145634 -0.212645 0.946130
0.147395 -0.212878 0.947165
0.149095 -0.213019 0.947795
0.150796 -0.213158 0.948415
0.153760 -0.216684 0.956884
0.152451 -0.213231 0.948739
-0.006170 -0.206136 0.924139
-0.004604 -0.205967 0.923380
-0.003043 -0.205985 0.923460
-0.001481 -0.205864 0.922918
0.000079 -0.205748 0.922400
0.001638 -0.205637 0.921900
0.003196 -0.205605 0.921760
0.004751 -0.205463 0.921120
0.006307 -0.205437 0.921008
0.007862 -0.205371 0.920710
0.009414 -0.205279 0.920299
0.010971 -0.205291 0.920351
0.012529 -0.205335 0.920550
0.014088 -0.205372 0.920714
0.015648 -0.205421 0.920933
0.017206 -0.205435 0.920997
0.018753 -0.205323 0.920496
0.020294 -0.205169 0.919803
0.021835 -0.205037 0.919210
0.023365 -0.204827 0.918269
0.024884 -0.204551 0.917036
0.026399 -0.204282 0.915829
0.027916 -0.204053 0.914801
0.029432 -0.203841 0.913850
0.030962 -0.203740 0.913399
0.032506 -0.203740 0.913399
0.034040 -0.203680 0.913127
0.035572 -0.203612 0.912826
0.037113 -0.203601 0.912774
0.038641 -0.203521 0.912417
0.040164 -0.203425 0.911984
0.041692 -0.203355 0.911671
0.043204 -0.203221 0.911069
0.044702 -0.203026 0.910196
0.046197 -0.202834 0.909337
0.047688 -0.202641 0.908469
0.049177 -0.202445 0.907593
0.050677 -0.202311 0.906992
0.052188 -0.202224 0.906602
0.053737 -0.202286 0.906881
0.055324 -0.202482 0.907758
0.056933 -0.202749 0.908953
0.058593 -0.203176 0.910868
0.060267 -0.203629 0.912900
0.061944 -0.204070 0.914877
0.063602 -0.204426 0.916474
0.065220 -0.204643 0.917446
0.066790 -0.204701 0.917706
0.068364 -0.204769 0.918011
0.069930 -0.204810 0.918193
0.071495 -0.204845 0.918354
0.073087 -0.204956 0.918848
0.074693 -0.205099 0.919492
0.076302 -0.205248 0.920160
0.077927 -0.205430 0.920972
0.079610 -0.205756 0.922438
0.081310 -0.206113 0.924034
0.083026 -0.206496 0.925755
0.084741 -0.206861 0.927389
0.086475 -0.207260 0.929178
0.088206 -0.207636 0.930863
0.089987 -0.208115 0.933013
0.091789 -0.208627 0.935306
0.093595 -0.209129 0.937559
0.095363 -0.209531 0.939362
0.097068 -0.209785 0.940496
0.110475 -0.214200 0.960290
0.112504 -0.214974 0.963762
0.114323 -0.215332 0.965365
0.115787 -0.215019 0.963964
0.117215 -0.214650 0.962309
0.118600 -0.214214 0.960354
0.119982 -0.213784 0.958426
0.121339 -0.213320 0.956348
0.122684 -0.212850 0.954237
0.124045 -0.212417 0.952298
0.125375 -0.211945 0.950182
0.126693 -0.211463 0.948019
0.128068 -0.211088 0.946338
0.129493 -0.210803 0.945060
0.130908 -0.210510 0.943749
0.132389 -0.210327 0.942929
0.133907 -0.210208 0.942395
0.135454 -0.210136 0.942074
0.137018 -0.210092 0.941875
0.138639 -0.210136 0.942071
0.140306 -0.210247 0.942571
0.142023 -0.210431 0.943393
0.143764 -0.210644 0.944350
0.145507 -0.210857 0.945305
0.147250 -0.211065 0.946238
0.148947 -0.211203 0.946856
0.150615 -0.211297 0.947278
0.152283 -0.211390 0.947694
-0.004602 -0.204329 0.923052
-0.003042 -0.204374 0.923256
-0.001481 -0.204284 0.922849
0.000079 -0.204203 0.922486
0.001638 -0.204135 0.922177
0.003197 -0.204125 0.922130
0.004753 -0.204004 0.921584
0.006311 -0.204003 0.921578
0.007868 -0.203962 0.921395
0.009422 -0.203898 0.921104
0.010981 -0.203933 0.921264
0.012544 -0.204016 0.921639
0.014105 -0.204056 0.921822
0.015665 -0.204087 0.921958
0.017223 -0.204076 0.921911
0.018769 -0.203937 0.921282
0.020307 -0.203739 0.920389
0.021846 -0.203587 0.919700
0.023377 -0.203379 0.918760
0.024899 -0.203125 0.917614
0.026419 -0.202880 0.916505
0.027937 -0.202654 0.915486
0.029454 -0.202443 0.914534
0.030984 -0.202341 0.914073
0.032526 -0.202321 0.913981
0.034058 -0.202240 0.913616
0.035590 -0.202171 0.913305
0.037132 -0.202158 0.913247
0.038664 -0.202097 0.912968
0.040192 -0.202022 0.912629
0.041726 -0.201975 0.912421
0.043245 -0.201866 0.911928
0.044749 -0.201697 0.911161
0.046250 -0.201528 0.910398
0.047749 -0.201357 0.909629
0.049241 -0.201169 0.908776
0.050743 -0.201035 0.908171
0.052261 -0.200965 0.907857
0.053812 -0.201026 0.908131
0.055389 -0.201180 0.908828
0.057000 -0.201441 0.910006
0.058649 -0.201824 0.911735
0.060306 -0.202211 0.913487
0.061971 -0.202604 0.915262
0.063626 -0.202950 0.916825
0.065240 -0.203148 0.917716
0.066817 -0.203226 0.918068
0.068392 -0.203295 0.918382
0.069952 -0.203317 0.918481
0.071510 -0.203331 0.918543
0.073101 -0.203438 0.919027
0.074708 -0.203582 0.919679
0.076327 -0.203754 0.920457
0.077969 -0.203980 0.921476
0.079665 -0.204333 0.923071
0.081374 -0.204707 0.924759
0.083098 -0.205103 0.926551
0.084809 -0.205454 0.928135
0.086525 -0.205805 0.929719
0.088235 -0.206126 0.931169
0.089988 -0.206537 0.933028
0.091768 -0.206995 0.935095
0.093593 -0.207536 0.937542
0.095403 -0.208026 0.939755
0.097103 -0.208265 0.940834
0.108181 -0.212879 0.954371
0.109377 -0.210458 0.950742
0.111880 -0.212158 0.958421
0.114086 -0.213253 0.963366
0.115846 -0.213494 0.964455
0.117289 -0.213153 0.962916
0.118692 -0.212750 0.961097
0.120090 -0.212350 0.959289
0.121448 -0.211889 0.957205
0.122767 -0.211375 0.954885
0.124086 -0.210872 0.952612
0.125374 -0.210331 0.950167
0.126672 -0.209822 0.947866
0.128021 -0.209407 0.945991
0.129433 -0.209105 0.944628
0.130860 -0.208834 0.943403
0.132354 -0.208675 0.942685
0.133876 -0.208563 0.942179
0.135439 -0.208517 0.941973
0.137004 -0.208475 0.941783
0.138611 -0.208498 0.941884
0.140249 -0.208565 0.942188
0.141964 -0.208744 0.942998
0.143673 -0.208911 0.943753
0.145399 -0.209100 0.944606
0.147135 -0.209297 0.945496
0.148829 -0.209431 0.946102
0.150478 -0.209501 0.946418
0.152145 -0.209593 0.946832
0.155097 -0.213055 0.955157
0.153733 -0.209576 0.946755
-0.003042 -0.202766 0.923059
-0.001481 -0.202712 0.922816
0.000079 -0.202646 0.922513
0.001639 -0.202593 0.922273
0.003197 -0.202582 0.922224
0.004754 -0.202480 0.921758
0.006313 -0.202483 0.921775
0.007870 -0.202468 0.921704
0.009428 -0.202450 0.921622
0.010991 -0.202544 0.922051
0.012557 -0.202672 0.922633
0.014123 -0.202752 0.922995
0.015688 -0.202821 0.923309
0.017247 -0.202792 0.923178
0.018791 -0.202609 0.922348
0.020328 -0.202389 0.921343
0.021864 -0.202193 0.920453
0.023392 -0.201947 0.919331
0.024917 -0.201712 0.918261
0.026440 -0.201487 0.917239
0.027960 -0.201266 0.916233
0.029481 -0.201077 0.915373
0.031013 -0.200975 0.914906
0.032552 -0.200932 0.914711
0.034082 -0.200831 0.914251
0.035612 -0.200744 0.913857
0.037151 -0.200714 0.913719
0.038684 -0.200654 0.913447
0.040218 -0.200599 0.913197
0.041756 -0.200576 0.913090
0.043286 -0.200509 0.912785
0.044797 -0.200365 0.912130
0.046309 -0.200238 0.911553
0.047815 -0.200090 0.910880
0.049313 -0.199922 0.910113
0.050819 -0.199794 0.909531
0.052339 -0.199727 0.909227
0.053887 -0.199766 0.909406
0.055460 -0.199895 0.909991
0.057066 -0.200130 0.911062
0.058710 -0.200485 0.912679
0.060356 -0.200829 0.914244
0.062008 -0.201173 0.915810
0.063650 -0.201473 0.917172
0.065257 -0.201645 0.917955
0.066830 -0.201710 0.918255
0.068408 -0.201785 0.918597
0.069969 -0.201810 0.918707
0.071525 -0.201818 0.918745
0.073116 -0.201922 0.919217
0.074723 -0.202065 0.919870
0.076352 -0.202259 0.920753
0.078011 -0.202527 0.921971
0.079716 -0.202900 0.923670
0.081420 -0.203253 0.925279
0.083134 -0.203622 0.926957
0.084835 -0.203943 0.928418
0.086533 -0.204245 0.929794
0.088199 -0.204465 0.930794
0.089922 -0.204806 0.932346
0.111825 -0.210429 0.957946
0.114045 -0.211544 0.963020
0.115841 -0.211851 0.964417
0.117299 -0.211539 0.963000
0.118716 -0.211164 0.961290
0.120117 -0.210772 0.959507
0.121473 -0.210311 0.957410
0.122793 -0.209800 0.955081
0.124085 -0.209256 0.952603
0.125358 -0.208695 0.950050
0.126655 -0.208187 0.947739
0.128003 -0.207774 0.945861
0.129404 -0.207456 0.944409
0.130843 -0.207206 0.943274
0.132337 -0.207049 0.942560
0.133860 -0.206940 0.942064
0.135425 -0.206899 0.941875
0.137018 -0.206899 0.941875
0.138625 -0.206922 0.941980
0.140248 -0.206966 0.942182
0.141959 -0.207140 0.942971
0.143652 -0.207281 0.943614
0.145349 -0.207426 0.944276
0.147055 -0.207582 0.944983
0.148744 -0.207709 0.945561
0.150375 -0.207754 0.945768
0.152039 -0.207843 0.946174
0.153609 -0.207804 0.945994
-0.003040 -0.201099 0.922590
-0.001480 -0.201108 0.922631
0.000079 -0.201085 0.922526
0.001639 -0.201093 0.922564
0.003199 -0.201083 0.922519
0.004756 -0.200998 0.922130
0.006316 -0.201038 0.922312
0.007876 -0.201045 0.922344
0.009436 -0.201072 0.922469
0.011003 -0.201209 0.923098
0.012573 -0.201358 0.923782
0.014139 -0.201422 0.924071
0.015707 -0.201494 0.924402
0.017266 -0.201444 0.924173
0.018809 -0.201244 0.923255
0.020345 -0.201003 0.922149
0.021879 -0.200766 0.921066
0.023404 -0.200494 0.919817
0.024927 -0.200240 0.918649
0.026451 -0.200018 0.917632
0.027972 -0.199804 0.916649
0.029497 -0.199637 0.915885
0.031030 -0.199533 0.915406
0.032566 -0.199468 0.915109
0.034093 -0.199346 0.914550
0.035623 -0.199259 0.914152
0.037164 -0.199232 0.914025
0.038698 -0.199176 0.913771
0.040236 -0.199142 0.913611
0.041784 -0.199158 0.913686
0.043319 -0.199114 0.913483
0.044836 -0.198993 0.912928
0.046358 -0.198903 0.912519
0.047875 -0.198796 0.912026
0.049381 -0.198652 0.911367
0.050895 -0.198546 0.910880
0.052422 -0.198499 0.910662
0.053967 -0.198519 0.910753
0.055531 -0.198607 0.911159
0.057132 -0.198816 0.912117
0.058760 -0.199108 0.913455
0.060383 -0.199368 0.914652
0.062022 -0.199666 0.916016
0.063657 -0.199938 0.917267
0.065258 -0.200092 0.917973
0.066839 -0.200180 0.918376
0.068425 -0.200278 0.918825
0.069986 -0.200300 0.918924
0.071548 -0.200323 0.919030
0.073139 -0.200425 0.919500
0.074740 -0.200550 0.920075
0.076377 -0.200765 0.921058
0.078051 -0.201067 0.922443
0.079749 -0.201417 0.924052
0.081438 -0.201730 0.925485
0.083135 -0.202052 0.926962
0.084819 -0.202331 0.928243
0.086474 -0.202533 0.929168
0.088095 -0.202647 0.929694
0.089770 -0.202880 0.930763
0.100018 -0.199784 0.909485
0.097569 -0.197935 0.901067
0.097613 -0.196497 0.901480
0.099489 -0.197194 0.904678
0.111484 -0.208168 0.955024
0.114006 -0.209840 0.962691
0.115836 -0.210207 0.964377
0.117322 -0.209948 0.963188
0.118764 -0.209620 0.961685
0.120176 -0.209248 0.959977
0.121520 -0.208768 0.957776
0.122826 -0.208237 0.955340
0.124095 -0.207658 0.952682
0.125357 -0.207082 0.950042
0.126643 -0.206561 0.947648
0.127993 -0.206154 0.945782
0.129381 -0.205819 0.944248
0.130832 -0.205590 0.943196
0.132324 -0.205432 0.942469
0.133847 -0.205324 0.941973
0.135412 -0.205282 0.941783
0.137032 -0.205324 0.941973
0.138654 -0.205367 0.942172
0.140277 -0.205412 0.942377
0.142002 -0.205602 0.943251
0.143680 -0.205722 0.943799
0.145348 -0.205824 0.944269
0.147023 -0.205934 0.944774
0.148694 -0.206037 0.945247
0.150297 -0.206044 0.945280
0.151945 -0.206112 0.945590
0.153501 -0.206054 0.945326
-0.001480 -0.199474 0.922308
0.000079 -0.199505 0.922454
0.001639 -0.199580 0.922800
0.003200 -0.199608 0.922930
0.004759 -0.199562 0.922716
0.006321 -0.199620 0.922984
0.007882 -0.199648 0.923114
0.009446 -0.199715 0.923424
0.011016 -0.199877 0.924173
0.012588 -0.200030 0.924878
0.014157 -0.200111 0.925256
0.015729 -0.200202 0.925675
0.017288 -0.200137 0.925374
0.018832 -0.199921 0.924375
0.020367 -0.199654 0.923143
0.021895 -0.199356 0.921764
0.023417 -0.199043 0.920318
0.024938 -0.198768 0.919047
0.026463 -0.198549 0.918031
0.027985 -0.198338 0.917058
0.029514 -0.198194 0.916392
0.031047 -0.198093 0.915923
0.032582 -0.198009 0.915534
0.034107 -0.197882 0.914947
0.035638 -0.197792 0.914534
0.037179 -0.197765 0.914407
0.038718 -0.197731 0.914251
0.040265 -0.197737 0.914279
0.041815 -0.197757 0.914370
0.043355 -0.197732 0.914254
0.044878 -0.197630 0.913784
0.046403 -0.197545 0.913392
0.047926 -0.197459 0.912991
0.049439 -0.197337 0.912428
0.050954 -0.197233 0.911946
0.052489 -0.197206 0.911821
0.054035 -0.197224 0.911906
0.055591 -0.197273 0.912132
0.057192 -0.197478 0.913081
0.058810 -0.197729 0.914239
0.060416 -0.197927 0.915154
0.062042 -0.198178 0.916317
0.063670 -0.198425 0.917458
0.065265 -0.198559 0.918078
0.066854 -0.198666 0.918575
0.068441 -0.198766 0.919034
0.070001 -0.198785 0.919123
0.071570 -0.198825 0.919310
0.073161 -0.198928 0.919783
0.074757 -0.199037 0.920288
0.076394 -0.199249 0.921271
0.078068 -0.199545 0.922640
0.079742 -0.199832 0.923963
0.081412 -0.200099 0.925198
0.083091 -0.200375 0.926474
0.084749 -0.200591 0.927476
0.086367 -0.200709 0.928017
0.087972 -0.200791 0.928399
0.089577 -0.200869 0.928761
0.097636 -0.195014 0.901687
0.099470 -0.195623 0.904503
0.113277 -0.206876 0.956532
0.115356 -0.207708 0.960380
0.117107 -0.207934 0.961424
0.118792 -0.208038 0.961908
0.120204 -0.207669 0.960200
0.121535 -0.207170 0.957895
0.122840 -0.206641 0.955445
0.124108 -0.206064 0.952781
0.125383 -0.205515 0.950242
0.126684 -0.205021 0.947956
0.128051 -0.204643 0.946211
0.129439 -0.204310 0.944671
0.130878 -0.204063 0.943526
0.132353 -0.203879 0.942675
0.133861 -0.203749 0.942074
0.135412 -0.203686 0.941783
0.137047 -0.203749 0.942074
0.138672 -0.203796 0.942294
0.140299 -0.203846 0.942524
0.142024 -0.204035 0.943396
0.143700 -0.204151 0.943935
0.145352 -0.204230 0.944301
0.147011 -0.204316 0.944697
0.148679 -0.204414 0.945152
0.150281 -0.204420 0.945176
0.151932 -0.204491 0.945508
0.154768 -0.206140 0.953131
-0.003037 -0.197750 0.921560
-0.001480 -0.197897 0.922245
0.000079 -0.197984 0.922649
0.001640 -0.198122 0.923294
0.003202 -0.198177 0.923551
0.004764 -0.198190 0.923613
0.006327 -0.198250 0.923892
0.007891 -0.198303 0.924137
0.009458 -0.198393 0.924559
0.011031 -0.198573 0.925397
0.012603 -0.198704 0.926006
0.014174 -0.198781 0.926367
0.015749 -0.198888 0.926866
0.017309 -0.198806 0.926483
0.018854 -0.198590 0.925477
0.020390 -0.198305 0.924149
0.021914 -0.197962 0.922549
0.023432 -0.197607 0.920895
0.024953 -0.197330 0.919606
0.026477 -0.197097 0.918519
0.028000 -0.196888 0.917543
0.029532 -0.196763 0.916964
0.031066 -0.196663 0.916494
0.032596 -0.196544 0.915939
0.034122 -0.196417 0.915347
0.035656 -0.196340 0.914992
0.037201 -0.196331 0.914949
0.038746 -0.196322 0.914907
0.040303 -0.196372 0.915137
0.041858 -0.196409 0.915311
0.043400 -0.196384 0.915196
0.044924 -0.196283 0.914722
0.046455 -0.196218 0.914423
0.047981 -0.196137 0.914045
0.049496 -0.196019 0.913493
0.051013 -0.195914 0.913005
0.052549 -0.195883 0.912861
0.054087 -0.195865 0.912775
0.055639 -0.195895 0.912918
0.057236 -0.196079 0.913773
0.058842 -0.196285 0.914736
0.060436 -0.196441 0.915459
0.062061 -0.196685 0.916598
0.063683 -0.196909 0.917643
0.065278 -0.197042 0.918261
0.066867 -0.197149 0.918761
0.068461 -0.197265 0.919303
0.070022 -0.197285 0.919396
0.071599 -0.197347 0.919682
0.073192 -0.197451 0.920169
0.074790 -0.197562 0.920685
0.076412 -0.197732 0.921475
0.078061 -0.197963 0.922554
0.079700 -0.198163 0.923484
0.081343 -0.198362 0.924412
0.082993 -0.198570 0.925382
0.084620 -0.198718 0.926072
0.086199 -0.198749 0.926216
0.087741 -0.198695 0.925964
0.089234 -0.198533 0.925211
0.096243 -0.193749 0.902918
0.097669 -0.193551 0.901993
0.099514 -0.194176 0.904905
0.101853 -0.197277 0.912150
0.101688 -0.195413 0.910671
0.114615 -0.204756 0.954212
0.116654 -0.205505 0.957702
0.118616 -0.206101 0.960480
0.120262 -0.206140 0.960661
0.121593 -0.205644 0.958350
0.122896 -0.205116 0.955887
0.124163 -0.204540 0.953204
0.125451 -0.204015 0.950756
0.126767 -0.203546 0.948572
0.128136 -0.203174 0.946838
0.129525 -0.202842 0.945293
0.130949 -0.202573 0.944038
0.132396 -0.202347 0.942984
0.133889 -0.202194 0.942270
0.135425 -0.202109 0.941875
0.137048 -0.202153 0.942081
0.138688 -0.202223 0.942405
0.140347 -0.202317 0.942845
0.142090 -0.202531 0.943841
0.143783 -0.202668 0.944478
0.145447 -0.202761 0.944913
0.147102 -0.202841 0.945284
0.148756 -0.202917 0.945641
0.150358 -0.202921 0.945660
0.151995 -0.202972 0.945897
-0.003037 -0.196208 0.921656
-0.001480 -0.196416 0.922632
0.000079 -0.196547 0.923249
0.001642 -0.196740 0.924156
0.003205 -0.196820 0.924532
0.004770 -0.196878 0.924801
0.006335 -0.196945 0.925115
0.007902 -0.197019 0.925463
0.009471 -0.197108 0.925883
0.011046 -0.197287 0.926725
0.012619 -0.197374 0.927133
0.014193 -0.197465 0.927559
0.015769 -0.197569 0.928048
0.017329 -0.197471 0.927588
0.018875 -0.197239 0.926498
0.020411 -0.196948 0.925133
0.021930 -0.196544 0.923233
0.023444 -0.196149 0.921376
0.024964 -0.195853 0.919989
0.026485 -0.195604 0.918818
0.028009 -0.195396 0.917840
0.029544 -0.195289 0.917338
0.031079 -0.195189 0.916867
0.032606 -0.195053 0.916229
0.034136 -0.194945 0.915722
0.035671 -0.194870 0.915371
0.037221 -0.194885 0.915439
0.038771 -0.194898 0.915500
0.040338 -0.194989 0.915927
0.041899 -0.195048 0.916207
0.043450 -0.195059 0.916260
0.044976 -0.194957 0.915781
0.046509 -0.194895 0.915488
0.048037 -0.194814 0.915109
0.049554 -0.194695 0.914549
0.051067 -0.194571 0.913967
0.052598 -0.194520 0.913727
0.054132 -0.194481 0.913542
0.055684 -0.194508 0.913670
0.057277 -0.194670 0.914430
0.058873 -0.194836 0.915213
0.060461 -0.194968 0.915831
0.062079 -0.195187 0.916862
0.063689 -0.195372 0.917729
0.065278 -0.195485 0.918261
0.066873 -0.195610 0.918848
0.068475 -0.195747 0.919490
0.070044 -0.195789 0.919689
0.071630 -0.195873 0.920082
0.073224 -0.195977 0.920572
0.074814 -0.196067 0.920992
0.076420 -0.196192 0.921579
0.078043 -0.196356 0.922352
0.079656 -0.196487 0.922969
0.081269 -0.196616 0.923572
0.082874 -0.196719 0.924058
0.084462 -0.196778 0.924334
0.085999 -0.196720 0.924059
0.087488 -0.196557 0.923293
0.088922 -0.196276 0.921978
0.097754 -0.192189 0.902779
0.099631 -0.192869 0.905973
0.101820 -0.194122 0.911857
0.104294 -0.197433 0.920085
0.106985 -0.199551 0.929954
0.106541 -0.197152 0.926090
0.115931 -0.202619 0.951768
0.118191 -0.203742 0.957045
0.120120 -0.204270 0.959527
0.121689 -0.204181 0.959107
0.122993 -0.203655 0.956639
0.124271 -0.203101 0.954035
0.125560 -0.202579 0.951584
0.126867 -0.202099 0.949326
0.128248 -0.201746 0.947668
0.129638 -0.201416 0.946121
0.131047 -0.201124 0.944746
0.132481 -0.200877 0.943585
0.133959 -0.200701 0.942760
0.135468 -0.200576 0.942172
0.137087 -0.200614 0.942354
0.138729 -0.200684 0.942682
0.140405 -0.200802 0.943238
0.142154 -0.201020 0.944261
0.143862 -0.201177 0.944999
0.145528 -0.201271 0.945440
0.147169 -0.201330 0.945718
0.148810 -0.201388 0.945986
0.150410 -0.201389 0.945991
0.152046 -0.201437 0.946220
-0.004586 -0.194265 0.919852
-0.003038 -0.194730 0.922055
-0.001481 -0.194991 0.923289
0.000080 -0.195151 0.924051
0.001644 -0.195401 0.925234
0.003210 -0.195503 0.925714
0.004777 -0.195585 0.926102
0.006346 -0.195689 0.926596
0.007916 -0.195785 0.927051
0.009486 -0.195854 0.927377
0.011062 -0.195989 0.928018
0.012633 -0.196032 0.928222
0.014205 -0.196061 0.928359
0.015779 -0.196125 0.928660
0.017341 -0.196028 0.928203
0.018888 -0.195800 0.927121
0.020423 -0.195494 0.925672
0.021942 -0.195087 0.923744
0.023456 -0.194687 0.921851
0.024974 -0.194374 0.920371
0.026494 -0.194109 0.919116
0.028018 -0.193904 0.918143
0.029551 -0.193775 0.917533
0.031082 -0.193655 0.916963
0.032609 -0.193518 0.916315
0.034144 -0.193433 0.915914
0.035683 -0.193382 0.915674
0.037241 -0.193439 0.915942
0.038801 -0.193495 0.916207
0.040374 -0.193608 0.916744
0.041940 -0.193686 0.917113
0.043498 -0.193718 0.917264
0.045026 -0.193619 0.916794
0.046560 -0.193556 0.916496
0.048089 -0.193473 0.916104
0.049602 -0.193334 0.915444
0.051111 -0.193188 0.914753
0.052643 -0.193135 0.914503
0.054177 -0.193093 0.914305
0.055725 -0.193100 0.914339
0.057312 -0.193240 0.915002
0.058908 -0.193401 0.915763
0.060485 -0.193493 0.916198
0.062092 -0.193673 0.917050
0.063696 -0.193836 0.917822
0.065284 -0.193947 0.918347
0.066880 -0.194072 0.918942
0.068489 -0.194230 0.919689
0.070068 -0.194297 0.920004
0.071663 -0.194403 0.920505
0.073264 -0.194524 0.921079
0.074846 -0.194589 0.921387
0.076436 -0.194669 0.921768
0.078033 -0.194767 0.922232
0.079618 -0.194829 0.922526
0.081196 -0.194873 0.922734
0.082764 -0.194894 0.922830
0.084306 -0.194850 0.922626
0.085802 -0.194706 0.921942
0.087251 -0.194463 0.920792
0.088662 -0.194144 0.919281
0.090037 -0.193757 0.917450
0.097878 -0.190902 0.903927
0.099467 -0.191017 0.904474
0.101394 -0.191771 0.908042
0.119464 -0.201536 0.954284
0.121311 -0.201926 0.956129
0.122873 -0.201837 0.955707
0.124409 -0.201708 0.955096
0.125688 -0.201171 0.952554
0.126995 -0.200690 0.950278
0.128364 -0.200320 0.948522
0.129752 -0.199989 0.946955
0.131149 -0.199678 0.945483
0.132585 -0.199433 0.944323
0.134048 -0.199235 0.943386
0.135555 -0.199106 0.942776
0.137146 -0.199102 0.942757
0.138785 -0.199167 0.943064
0.140461 -0.199282 0.943611
0.142199 -0.199483 0.944562
0.143912 -0.199644 0.945325
0.145592 -0.199757 0.945859
0.147238 -0.199821 0.946160
0.148866 -0.199858 0.946338
0.150481 -0.199879 0.946435
0.152115 -0.199923 0.946646
0.000080 -0.193799 0.925072
0.001645 -0.194038 0.926214
0.003213 -0.194151 0.926750
0.004783 -0.194269 0.927313
0.006354 -0.194374 0.927815
0.007927 -0.194485 0.928345
0.009500 -0.194550 0.928658
0.011076 -0.194664 0.929199
0.012648 -0.194683 0.929289
0.014221 -0.194706 0.929400
0.015794 -0.194730 0.929515
0.017357 -0.194634 0.929059
0.018903 -0.194388 0.927885
0.020438 -0.194066 0.926346
0.021956 -0.193643 0.924329
0.023468 -0.193226 0.922338
0.024985 -0.192896 0.920761
0.026505 -0.192631 0.919496
0.028027 -0.192409 0.918438
0.029557 -0.192261 0.917732
0.031088 -0.192138 0.917142
0.032615 -0.192000 0.916484
0.034154 -0.191937 0.916184
0.035701 -0.191930 0.916151
0.037266 -0.192012 0.916544
0.038834 -0.192106 0.916988
0.040412 -0.192236 0.917611
0.041981 -0.192318 0.918003
0.043541 -0.192354 0.918175
0.045075 -0.192275 0.917798
0.046607 -0.192193 0.917408
0.048131 -0.192088 0.916905
0.049644 -0.191945 0.916221
0.051154 -0.191800 0.915529
0.052683 -0.191729 0.915193
0.054218 -0.191687 0.914993
0.055767 -0.191693 0.915017
0.057344 -0.191793 0.915498
0.058935 -0.191935 0.916173
0.060511 -0.192022 0.916587
0.062112 -0.192181 0.917347
0.063709 -0.192322 0.918021
0.065298 -0.192429 0.918533
0.066894 -0.192553 0.919124
0.068504 -0.192714 0.919892
0.070093 -0.192804 0.920325
0.071688 -0.192910 0.920827
0.073289 -0.193029 0.921395
0.074863 -0.193070 0.921594
0.076437 -0.193109 0.921781
0.078010 -0.193146 0.921956
0.079576 -0.193164 0.922043
0.081127 -0.193146 0.921956
0.082668 -0.193105 0.921760
0.084173 -0.192983 0.921178
0.085639 -0.192776 0.920190
0.087072 -0.192505 0.918896
0.088488 -0.192207 0.917472
0.089881 -0.191869 0.915859
0.091356 -0.193268 0.915133
0.091255 -0.191504 0.914115
0.092695 -0.192834 0.913078
0.092672 -0.191240 0.912859
0.094056 -0.192461 0.911310
0.094104 -0.191013 0.911772
0.096693 -0.190043 0.907142
0.098061 -0.189722 0.905613
0.099650 -0.189833 0.906141
0.101306 -0.190065 0.907250
0.103085 -0.190520 0.909420
0.105519 -0.193708 0.917214
0.104849 -0.190931 0.911383
0.120354 -0.198724 0.948583
0.122219 -0.199152 0.950623
0.124042 -0.199498 0.952274
0.125596 -0.199410 0.951853
0.127162 -0.199342 0.951529
0.128516 -0.198948 0.949651
0.129894 -0.198600 0.947987
0.131294 -0.198294 0.946526
0.132718 -0.198031 0.945272
0.134182 -0.197834 0.944333
0.135676 -0.197685 0.943621
0.137238 -0.197637 0.943391
0.138848 -0.197658 0.943493
0.140507 -0.197748 0.943924
0.142215 -0.197904 0.944666
0.143928 -0.198063 0.945427
0.145623 -0.198196 0.946060
0.147287 -0.198282 0.946472
0.148931 -0.198340 0.946750
0.150562 -0.198381 0.946945
0.152212 -0.198445 0.947249
0.000080 -0.192547 0.926594
0.001648 -0.192730 0.927474
0.003217 -0.192786 0.927744
0.004788 -0.192905 0.928316
0.006361 -0.193011 0.928828
0.007936 -0.193120 0.929349
0.009510 -0.193186 0.929671
0.011087 -0.193277 0.930108
0.012659 -0.193275 0.930098
0.014232 -0.193276 0.930102
0.015802 -0.193258 0.930016
0.017366 -0.193159 0.929539
0.018915 -0.192934 0.928455
0.020451 -0.192617 0.926929
0.021970 -0.192200 0.924923
0.023483 -0.191785 0.922928
0.024998 -0.191437 0.921250
0.026516 -0.191153 0.919885
0.028039 -0.190932 0.918820
0.029566 -0.190767 0.918026
0.031098 -0.190642 0.917425
0.032625 -0.190504 0.916760
0.034164 -0.190441 0.916457
0.035717 -0.190460 0.916549
0.037286 -0.190562 0.917039
0.038859 -0.190673 0.917576
0.040438 -0.190801 0.918191
0.042011 -0.190900 0.918666
0.043573 -0.190937 0.918848
0.045113 -0.190880 0.918572
0.046646 -0.190799 0.918182
0.048171 -0.190692 0.917668
0.049685 -0.190548 0.916972
0.051192 -0.190386 0.916195
0.052717 -0.190300 0.915782
0.054254 -0.190261 0.915591
0.055803 -0.190267 0.915620
0.057370 -0.190330 0.915923
0.058955 -0.190448 0.916494
0.060525 -0.190513 0.916807
0.062121 -0.190653 0.917477
0.063711 -0.190771 0.918049
0.065299 -0.190876 0.918552
0.066895 -0.190998 0.919138
0.068512 -0.191175 0.919989
0.070107 -0.191284 0.920518
0.071703 -0.191390 0.921027
0.073305 -0.191508 0.921594
0.074878 -0.191547 0.921780
0.076438 -0.191550 0.921795
0.077988 -0.191529 0.921694
0.079537 -0.191507 0.921587
0.081069 -0.191447 0.921301
0.082585 -0.191349 0.920827
0.084062 -0.191169 0.919964
0.085515 -0.190941 0.918863
0.086945 -0.190670 0.917560
0.088365 -0.190386 0.916196
0.089781 -0.190106 0.914845
0.091193 -0.189827 0.913502
0.092649 -0.189644 0.912625
0.094081 -0.189421 0.911549
0.095425 -0.189031 0.909672
0.096799 -0.188712 0.908140
0.098200 -0.188454 0.906896
0.099771 -0.188525 0.907241
0.101403 -0.188709 0.908124
0.103155 -0.189107 0.910039
0.104885 -0.189452 0.911700
0.106820 -0.191704 0.915074
0.106601 -0.189763 0.913197
0.108820 -0.192505 0.918896
0.108383 -0.190181 0.915207
0.111100 -0.193772 0.924945
0.110395 -0.190984 0.919073
0.121505 -0.196386 0.945067
0.123651 -0.197260 0.949276
0.125497 -0.197641 0.951107
0.127329 -0.197988 0.952779
0.128670 -0.197575 0.950790
0.130050 -0.197230 0.949127
0.131466 -0.196947 0.947765
0.132894 -0.196689 0.946526
0.134360 -0.196493 0.945581
0.135854 -0.196342 0.944855
0.137378 -0.196237 0.944352
0.138958 -0.196214 0.944239
0.140584 -0.196255 0.944439
0.142258 -0.196362 0.944954
0.143953 -0.196496 0.945595
0.145650 -0.196628 0.946234
0.147315 -0.196716 0.946655
0.148962 -0.196777 0.946947
0.150609 -0.196837 0.947240
0.152277 -0.196924 0.947658
0.001650 -0.191378 0.928543
0.003220 -0.191384 0.928573
0.004792 -0.191475 0.929013
0.006366 -0.191580 0.929523
0.007942 -0.191690 0.930056
0.009517 -0.191757 0.930381
0.011094 -0.191832 0.930746
0.012668 -0.191830 0.930736
0.014241 -0.191829 0.930729
0.015810 -0.191772 0.930453
0.017374 -0.191670 0.929960
0.018923 -0.191444 0.928860
0.020460 -0.191132 0.927348
0.021980 -0.190719 0.925347
0.023494 -0.190309 0.923358
0.025006 -0.189940 0.921563
0.026525 -0.189655 0.920181
0.028048 -0.189435 0.919115
0.029574 -0.189257 0.918252
0.031105 -0.189132 0.917645
0.032636 -0.189011 0.917057
0.034178 -0.188966 0.916839
0.035729 -0.188970 0.916858
0.037299 -0.189071 0.917351
0.038876 -0.189198 0.917968
0.040454 -0.189320 0.918559
0.042024 -0.189401 0.918950
0.043591 -0.189456 0.919216
0.045132 -0.189401 0.918950
0.046661 -0.189302 0.918472
0.048187 -0.189197 0.917961
0.049696 -0.189035 0.917176
0.051199 -0.188859 0.916318
0.052724 -0.188775 0.915913
0.054261 -0.188736 0.915723
0.055811 -0.188740 0.915744
0.057377 -0.188801 0.916041
0.058963 -0.188918 0.916606
0.060532 -0.188980 0.916909
0.062127 -0.189116 0.917568
0.063712 -0.189218 0.918064
0.065300 -0.189320 0.918558
0.066901 -0.189457 0.919221
0.068518 -0.189632 0.920072
0.070114 -0.189741 0.920601
0.071710 -0.189846 0.921110
0.073318 -0.189980 0.921758
0.074886 -0.190003 0.921869
0.076445 -0.190004 0.921877
0.077987 -0.189965 0.921688
0.079527 -0.189921 0.921474
0.081035 -0.189804 0.920905
0.082531 -0.189665 0.920233
0.083989 -0.189445 0.919166
0.085441 -0.189218 0.918061
0.086878 -0.188968 0.916850
0.088306 -0.188708 0.915586
0.089732 -0.188453 0.914351
0.091154 -0.188196 0.913105
0.092605 -0.188009 0.912196
0.094034 -0.187783 0.911099
0.095426 -0.187492 0.909687
0.096848 -0.187267 0.908597
0.098295 -0.187098 0.907778
0.099860 -0.187154 0.908049
0.101474 -0.187301 0.908761
0.103192 -0.187630 0.910357
0.104890 -0.187916 0.911743
0.106592 -0.188199 0.913120
0.108178 -0.188273 0.913479
0.109940 -0.188646 0.915287
0.112396 -0.191749 0.922752
0.111668 -0.188952 0.916772
0.123250 -0.195016 0.946194
0.125405 -0.195885 0.950408
0.127512 -0.196655 0.954148
0.128853 -0.196242 0.952141
0.130221 -0.195878 0.950374
0.131641 -0.195600 0.949027
0.133083 -0.195362 0.947874
0.134566 -0.195189 0.947032
0.136049 -0.195020 0.946214
0.137574 -0.194914 0.945698
0.139124 -0.194846 0.945369
0.140705 -0.194822 0.945253
0.142347 -0.194882 0.945544
0.144025 -0.194989 0.946065
0.145709 -0.195103 0.946615
0.147375 -0.195191 0.947041
0.149038 -0.195271 0.947432
0.150687 -0.195333 0.947732
0.152374 -0.195442 0.948260
0.001650 -0.189891 0.928967
0.003221 -0.189897 0.928998
0.004794 -0.189979 0.929397
0.006368 -0.190084 0.929911
0.007945 -0.190195 0.930453
0.009522 -0.190281 0.930875
0.011100 -0.190357 0.931250
0.012675 -0.190356 0.931243
0.014248 -0.190338 0.931154
0.015815 -0.190261 0.930776
0.017379 -0.190157 0.930269
0.018930 -0.189932 0.929169
0.020467 -0.189626 0.927670
0.021991 -0.189237 0.925769
0.023507 -0.188846 0.923853
0.025020 -0.188475 0.922041
0.026538 -0.188191 0.920651
0.028062 -0.187974 0.919590
0.029586 -0.187782 0.918650
0.031119 -0.187659 0.918051
0.032650 -0.187536 0.917447
0.034189 -0.187474 0.917142
0.035737 -0.187458 0.917066
0.037307 -0.187557 0.917549
0.038880 -0.187662 0.918064
0.040454 -0.187765 0.918565
0.042024 -0.187843 0.918950
0.043591 -0.187898 0.919216
0.045132 -0.187843 0.918950
0.046661 -0.187746 0.918472
0.048187 -0.187641 0.917961
0.049696 -0.187480 0.917176
0.051194 -0.187287 0.916230
0.052718 -0.187201 0.915809
0.054254 -0.187158 0.915597
0.055798 -0.187146 0.915538
0.057359 -0.187189 0.915752
0.058943 -0.187303 0.916306
0.060512 -0.187364 0.916604
0.062100 -0.187480 0.917176
0.063691 -0.187600 0.917762
0.065285 -0.187723 0.918361
0.066893 -0.187878 0.919122
0.068511 -0.188054 0.919981
0.070113 -0.188178 0.920587
0.071709 -0.188284 0.921105
0.073318 -0.188417 0.921756
0.074886 -0.188440 0.921869
0.076445 -0.188442 0.921877
0.077979 -0.188383 0.921592
0.079509 -0.188317 0.921269
0.080998 -0.188157 0.920486
0.082475 -0.187978 0.919612
0.083908 -0.187705 0.918274
0.085356 -0.187476 0.917154
0.086786 -0.187215 0.915876
0.088223 -0.186979 0.914724
0.089667 -0.186767 0.913684
0.091106 -0.186550 0.912622
0.092567 -0.186385 0.911817
0.094018 -0.186206 0.910941
0.095453 -0.186001 0.909939
0.096910 -0.185845 0.909174
0.098399 -0.185755 0.908737
0.099941 -0.185766 0.908788
0.101542 -0.185885 0.909370
0.103214 -0.186128 0.910559
0.104881 -0.186354 0.911665
0.106566 -0.186605 0.912893
0.108177 -0.186723 0.913469
0.109735 -0.186747 0.913586
0.111236 -0.186673 0.913228
0.113652 -0.189676 0.920284
0.112951 -0.186957 0.914613
0.115606 -0.190333 0.923470
0.114617 -0.187152 0.915568
0.122859 -0.192799 0.943195
0.125335 -0.194165 0.949877
0.127737 -0.195383 0.955835
0.129066 -0.194949 0.953712
0.130421 -0.194566 0.951837
0.131829 -0.194268 0.950383
0.133261 -0.194015 0.949143
0.134747 -0.193844 0.948304
0.136245 -0.193694 0.947573
0.137757 -0.193568 0.946958
0.139295 -0.193481 0.946530
0.140845 -0.193412 0.946194
0.142457 -0.193429 0.946277
0.144105 -0.193494 0.946593
0.145776 -0.193588 0.947052
