1708
0.019277 -0.032508 1.031830
0.021037 -0.032532 1.032590
0.022794 -0.032549 1.033110
0.024557 -0.032571 1.033810
0.026319 -0.032589 1.034390
0.028069 -0.032590 1.034410
0.029814 -0.032586 1.034290
0.031557 -0.032580 1.034100
0.033314 -0.032589 1.034390
0.035065 -0.032591 1.034460
0.036822 -0.032598 1.034690
0.038568 -0.032596 1.034610
0.040322 -0.032600 1.034730
0.042045 -0.032580 1.034090
0.060890 -0.031477 0.999091
0.062564 -0.031469 0.998845
0.064228 -0.031457 0.998468
0.065911 -0.031454 0.998383
0.067574 -0.031443 0.998025
0.069251 -0.031438 0.997866
0.070965 -0.031451 0.998261
0.072655 -0.031452 0.998286
0.074332 -0.031447 0.998145
0.076015 -0.031445 0.998085
0.077694 -0.031442 0.997981
0.079384 -0.031443 0.998022
0.081081 -0.031447 0.998139
0.082766 -0.031446 0.998111
0.084423 -0.031434 0.997746
0.086126 -0.031440 0.997931
0.087854 -0.031455 0.998400
0.089628 -0.031485 0.999363
0.091427 -0.031523 1.000560
0.093296 -0.031583 1.002470
0.095188 -0.031649 1.004550
0.097104 -0.031720 1.006800
0.099009 -0.031785 1.008870
0.100959 -0.031862 1.011330
0.102860 -0.031921 1.013210
0.104722 -0.031967 1.014660
0.107325 -0.033968 1.023120
0.107337 -0.032237 1.023230
-0.015727 -0.032751 1.039530
-0.015719 -0.030973 1.039020
-0.013963 -0.030973 1.039010
-0.012204 -0.030968 1.038830
-0.010443 -0.030955 1.038390
-0.008683 -0.030939 1.037860
-0.006925 -0.030920 1.037240
-0.005165 -0.030885 1.036050
-0.003408 -0.030834 1.034340
-0.001657 -0.030791 1.032910
0.000089 -0.030759 1.031840
0.001832 -0.030736 1.031040
0.003574 -0.030730 1.030860
0.005318 -0.030737 1.031080
0.007058 -0.030725 1.030690
0.008798 -0.030716 1.030390
0.010540 -0.030716 1.030370
0.012283 -0.030717 1.030430
0.014030 -0.030730 1.030840
0.015784 -0.030751 1.031550
0.017542 -0.030775 1.032370
0.019299 -0.030794 1.033010
0.021063 -0.030821 1.033890
0.022822 -0.030836 1.034410
0.024588 -0.030857 1.035120
0.026347 -0.030869 1.035500
0.028099 -0.030870 1.035550
0.029847 -0.030867 1.035450
0.031596 -0.030865 1.035380
0.033360 -0.030878 1.035800
0.035121 -0.030886 1.036100
0.036885 -0.030897 1.036450
0.038637 -0.030897 1.036450
0.040391 -0.030898 1.036500
0.042116 -0.030879 1.035830
0.062701 -0.029841 1.001020
0.064375 -0.029833 1.000750
0.066065 -0.029832 1.000710
0.067731 -0.029820 1.000340
0.069405 -0.029813 1.000090
0.071116 -0.029822 1.000380
0.072801 -0.029819 1.000290
0.074472 -0.029811 1.000020
0.076141 -0.029803 0.999743
0.077814 -0.029796 0.999519
0.079497 -0.029794 0.999441
0.081187 -0.029794 0.999436
0.082856 -0.029786 0.999196
0.084514 -0.029775 0.998825
0.086217 -0.029780 0.998996
0.087947 -0.029794 0.999455
0.089712 -0.029819 1.000300
0.091512 -0.029855 1.001490
0.093362 -0.029905 1.003180
0.095234 -0.029961 1.005040
0.097129 -0.030021 1.007060
0.099033 -0.030082 1.009120
0.100982 -0.030155 1.011560
0.102896 -0.030215 1.013570
0.104760 -0.030258 1.015030
0.107317 -0.030497 1.023040
-0.017454 -0.029176 1.037730
-0.015702 -0.029181 1.037910
-0.013948 -0.029181 1.037910
-0.012189 -0.029171 1.037530
-0.010429 -0.029156 1.037010
-0.008672 -0.029141 1.036490
-0.006916 -0.029127 1.035990
-0.005159 -0.029094 1.034820
-0.003406 -0.029058 1.033550
-0.001656 -0.029021 1.032220
0.000089 -0.028995 1.031290
0.001831 -0.028977 1.030630
0.003574 -0.028979 1.030710
0.005317 -0.028986 1.030980
0.007059 -0.028979 1.030720
0.008800 -0.028974 1.030540
0.010543 -0.028976 1.030630
0.012288 -0.028984 1.030910
0.014038 -0.028999 1.031440
0.015796 -0.029026 1.032380
0.017560 -0.029055 1.033440
0.019323 -0.029080 1.034320
0.021090 -0.029106 1.035230
0.022854 -0.029123 1.035860
0.024622 -0.029143 1.036560
0.026378 -0.029147 1.036710
0.028129 -0.029146 1.036660
0.029876 -0.029140 1.036460
0.031624 -0.029136 1.036320
0.033390 -0.029148 1.036750
0.035152 -0.029157 1.037040
0.036918 -0.029166 1.037380
0.038680 -0.029172 1.037600
0.040450 -0.029184 1.038000
0.042180 -0.029167 1.037410
0.062910 -0.028238 1.004370
0.064576 -0.028224 1.003870
0.066258 -0.028218 1.003640
0.067901 -0.028195 1.002850
0.069562 -0.028181 1.002360
0.071265 -0.028185 1.002470
0.072927 -0.028172 1.002030
0.074584 -0.028158 1.001520
0.076255 -0.028150 1.001240
0.077923 -0.028141 1.000910
0.079599 -0.028136 1.000720
0.081291 -0.028135 1.000720
0.082962 -0.028128 1.000470
0.084614 -0.028115 1.000000
0.086319 -0.028120 1.000170
0.088050 -0.028133 1.000630
0.089818 -0.028157 1.001480
0.091618 -0.028190 1.002660
0.093452 -0.028232 1.004140
0.095302 -0.028277 1.005760
0.097175 -0.028327 1.007540
0.099067 -0.028381 1.009460
0.101006 -0.028447 1.011790
0.102932 -0.028507 1.013920
0.104809 -0.028551 1.015500
0.106650 -0.028584 1.016680
-0.019182 -0.027379 1.036290
-0.017431 -0.027381 1.036360
-0.015682 -0.027386 1.036560
-0.013930 -0.027387 1.036610
-0.012173 -0.027376 1.036160
-0.010417 -0.027364 1.035730
-0.008662 -0.027353 1.035330
-0.006909 -0.027341 1.034870
-0.005154 -0.027311 1.033730
-0.003403 -0.027284 1.032690
-0.001655 -0.027248 1.031360
0.000089 -0.027228 1.030570
0.001830 -0.027216 1.030150
0.003573 -0.027225 1.030490
0.005318 -0.027239 1.030990
0.007060 -0.027236 1.030870
0.008801 -0.027231 1.030700
0.010545 -0.027236 1.030890
0.012293 -0.027247 1.031290
0.014044 -0.027261 1.031840
0.015806 -0.027293 1.033030
0.017575 -0.027328 1.034350
0.019343 -0.027355 1.035380
0.021115 -0.027382 1.036420
0.022881 -0.027399 1.037060
0.024647 -0.027414 1.037610
0.026401 -0.027413 1.037600
0.028152 -0.027411 1.037500
0.029900 -0.027405 1.037280
0.031650 -0.027402 1.037150
0.033421 -0.027416 1.037700
0.035185 -0.027424 1.038010
0.036952 -0.027433 1.038330
0.038725 -0.027446 1.038820
0.040507 -0.027463 1.039470
0.042247 -0.027452 1.039050
0.063137 -0.026631 1.007980
0.064796 -0.026613 1.007300
0.066467 -0.026600 1.006810
0.068099 -0.026572 1.005770
0.069731 -0.026547 1.004790
0.071403 -0.026537 1.004410
0.073048 -0.026517 1.003680
0.074691 -0.026498 1.002960
0.076358 -0.026489 1.002590
0.078028 -0.026480 1.002270
0.079698 -0.026472 1.001960
0.081382 -0.026469 1.001840
0.083046 -0.026459 1.001490
0.084709 -0.026450 1.001130
0.086427 -0.026458 1.001430
0.088173 -0.026474 1.002030
0.089935 -0.026494 1.002790
0.091736 -0.026524 1.003950
0.093549 -0.026557 1.005190
0.095379 -0.026594 1.006570
0.097231 -0.026635 1.008130
0.099121 -0.026685 1.010020
0.101040 -0.026741 1.012140
0.102967 -0.026797 1.014260
0.104847 -0.026839 1.015860
0.106716 -0.026877 1.017310
0.109216 -0.028808 1.024630
0.108561 -0.026908 1.018480
-0.021044 -0.025757 1.041740
-0.019156 -0.025587 1.034890
-0.017405 -0.025585 1.034790
-0.015659 -0.025591 1.035040
-0.013911 -0.025594 1.035160
-0.012154 -0.025579 1.034560
-0.010402 -0.025572 1.034250
-0.008650 -0.025562 1.033840
-0.006899 -0.025551 1.033420
-0.005147 -0.025524 1.032310
-0.003399 -0.025507 1.031630
-0.001653 -0.025477 1.030430
0.000089 -0.025466 1.029990
0.001830 -0.025462 1.029810
0.003572 -0.025476 1.030370
0.005317 -0.025488 1.030880
0.007060 -0.025488 1.030870
0.008802 -0.025487 1.030810
0.010548 -0.025495 1.031130
0.012297 -0.025508 1.031670
0.014051 -0.025525 1.032370
0.015817 -0.025558 1.033690
0.017588 -0.025594 1.035130
0.019360 -0.025623 1.036310
0.021136 -0.025652 1.037500
0.022905 -0.025668 1.038140
0.024669 -0.025678 1.038550
0.026420 -0.025673 1.038360
0.028172 -0.025670 1.038210
0.029920 -0.025664 1.037980
0.031671 -0.025661 1.037850
0.033443 -0.025674 1.038380
0.035207 -0.025681 1.038660
0.036979 -0.025692 1.039110
0.038760 -0.025708 1.039760
0.040553 -0.025730 1.040650
0.042312 -0.025730 1.040640
0.063287 -0.024982 1.010390
0.064975 -0.024974 1.010070
0.066646 -0.024960 1.009520
0.068284 -0.024935 1.008500
0.069899 -0.024903 1.007210
0.071531 -0.024879 1.006220
0.073139 -0.024847 1.004940
0.074768 -0.024824 1.004000
0.076429 -0.024812 1.003520
0.078101 -0.024804 1.003200
0.079772 -0.024796 1.002890
0.081455 -0.024793 1.002740
0.083121 -0.024784 1.002380
0.084794 -0.024778 1.002140
0.086527 -0.024789 1.002580
0.088286 -0.024807 1.003310
0.090051 -0.024826 1.004080
0.091844 -0.024852 1.005130
0.093647 -0.024879 1.006240
0.095447 -0.024905 1.007280
0.097286 -0.024940 1.008690
0.099166 -0.024984 1.010480
0.101075 -0.025034 1.012480
0.103004 -0.025086 1.014630
0.104896 -0.025129 1.016340
0.106791 -0.025170 1.018020
0.108677 -0.025209 1.019570
-0.022636 -0.023813 1.034030
-0.020874 -0.023798 1.033350
-0.019120 -0.023789 1.032980
-0.017373 -0.023787 1.032900
-0.015631 -0.023794 1.033180
-0.013886 -0.023797 1.033330
-0.012132 -0.023784 1.032740
-0.010385 -0.023779 1.032550
-0.008637 -0.023773 1.032260
-0.006889 -0.023766 1.031950
-0.005141 -0.023748 1.031180
-0.003396 -0.023738 1.030750
-0.001652 -0.023714 1.029710
0.000089 -0.023710 1.029520
0.001829 -0.023711 1.029570
0.003571 -0.023721 1.030030
0.005316 -0.023735 1.030630
0.007059 -0.023737 1.030720
0.008801 -0.023736 1.030670
0.010548 -0.023746 1.031120
0.012300 -0.023765 1.031910
0.014056 -0.023784 1.032740
0.015824 -0.023817 1.034190
0.017599 -0.023853 1.035740
0.019374 -0.023883 1.037030
0.021154 -0.023913 1.038340
0.022924 -0.023928 1.039000
0.024690 -0.023937 1.039400
0.026442 -0.023932 1.039200
0.028194 -0.023929 1.039040
0.029941 -0.023921 1.038720
0.031697 -0.023921 1.038700
0.033467 -0.023931 1.039130
0.035235 -0.023939 1.039480
0.037009 -0.023949 1.039940
0.038805 -0.023973 1.040950
0.040598 -0.023993 1.041810
0.042371 -0.023999 1.042110
0.044152 -0.024009 1.042550
0.063430 -0.023322 1.012670
0.065119 -0.023313 1.012310
0.066781 -0.023296 1.011570
0.068400 -0.023265 1.010220
0.069994 -0.023227 1.008570
0.071609 -0.023198 1.007320
0.073201 -0.023163 1.005790
0.074823 -0.023139 1.004740
0.076485 -0.023128 1.004260
0.078157 -0.023120 1.003930
0.079820 -0.023110 1.003500
0.081505 -0.023107 1.003350
0.083178 -0.023101 1.003080
0.084863 -0.023098 1.002950
0.086617 -0.023113 1.003630
0.088390 -0.023133 1.004490
0.090157 -0.023151 1.005270
0.091941 -0.023172 1.006180
0.093732 -0.023194 1.007150
0.095512 -0.023213 1.007970
0.097342 -0.023243 1.009270
0.099224 -0.023285 1.011060
0.101124 -0.023328 1.012970
0.103053 -0.023378 1.015110
0.104943 -0.023417 1.016800
0.106850 -0.023458 1.018590
0.108763 -0.023499 1.020380
-0.024564 -0.023989 1.041660
-0.026131 -0.022060 1.033980
-0.024354 -0.022033 1.032750
-0.022584 -0.022009 1.031640
-0.020827 -0.021996 1.030990
-0.019077 -0.021988 1.030640
-0.017332 -0.021985 1.030470
-0.015594 -0.021991 1.030750
-0.013855 -0.021996 1.031000
-0.012107 -0.021986 1.030540
-0.010364 -0.021985 1.030490
-0.008620 -0.021982 1.030330
-0.006877 -0.021977 1.030110
-0.005133 -0.021965 1.029550
-0.003392 -0.021961 1.029370
-0.001650 -0.021945 1.028610
0.000088 -0.021946 1.028680
0.001828 -0.021955 1.029090
0.003570 -0.021965 1.029540
0.005314 -0.021980 1.030260
0.007058 -0.021986 1.030560
0.008800 -0.021988 1.030630
0.010549 -0.022001 1.031220
0.012304 -0.022023 1.032250
0.014061 -0.022040 1.033090
0.015826 -0.022066 1.034300
0.017600 -0.022099 1.035820
0.019375 -0.022126 1.037080
0.021155 -0.022154 1.038410
0.022928 -0.022171 1.039220
0.024701 -0.022185 1.039880
0.026460 -0.022186 1.039910
0.028218 -0.022186 1.039910
0.029971 -0.022183 1.039750
0.031726 -0.022181 1.039670
0.033497 -0.022189 1.040070
0.035267 -0.022197 1.040400
0.037041 -0.022206 1.040840
0.038843 -0.022230 1.041990
0.040645 -0.022252 1.043000
0.042425 -0.022261 1.043440
0.044208 -0.022271 1.043880
0.065229 -0.021634 1.014030
0.066884 -0.021614 1.013120
0.068493 -0.021582 1.011600
0.070089 -0.021547 1.009950
0.071691 -0.021515 1.008470
0.073270 -0.021478 1.006730
0.074885 -0.021453 1.005570
0.076547 -0.021443 1.005070
0.078211 -0.021433 1.004620
0.079858 -0.021419 1.003980
0.081543 -0.021416 1.003830
0.083227 -0.021413 1.003670
0.084916 -0.021411 1.003570
0.086681 -0.021428 1.004370
0.088464 -0.021448 1.005330
0.090232 -0.021465 1.006100
0.092015 -0.021484 1.007000
0.093818 -0.021507 1.008070
0.095600 -0.021524 1.008890
0.097433 -0.021553 1.010220
0.099316 -0.021591 1.012000
0.101195 -0.021627 1.013690
0.103101 -0.021667 1.015580
0.104968 -0.021698 1.017040
0.106862 -0.021734 1.018700
0.108786 -0.021774 1.020600
0.111366 -0.023686 1.028480
0.110697 -0.021811 1.022310
-0.035257 -0.022303 1.045410
-0.036787 -0.020400 1.038730
-0.034991 -0.020377 1.037560
-0.033256 -0.022148 1.038140
-0.033201 -0.020355 1.036430
-0.031473 -0.022129 1.037220
-0.031410 -0.020330 1.035140
-0.029685 -0.022103 1.036010
-0.029614 -0.020298 1.033530
-0.027901 -0.022077 1.034780
-0.027825 -0.020267 1.031960
-0.026057 -0.020249 1.031040
-0.024288 -0.020227 1.029940
-0.022528 -0.020211 1.029090
-0.020780 -0.020203 1.028710
-0.019039 -0.020201 1.028580
-0.017300 -0.020201 1.028600
-0.015565 -0.020206 1.028850
-0.013829 -0.020211 1.029080
-0.012087 -0.020206 1.028860
-0.010347 -0.020206 1.028830
-0.008607 -0.020203 1.028700
-0.006866 -0.020199 1.028470
-0.005126 -0.020192 1.028140
-0.003387 -0.020189 1.027990
-0.001649 -0.020180 1.027500
0.000088 -0.020186 1.027810
0.001827 -0.020200 1.028550
0.003568 -0.020210 1.029040
0.005311 -0.020224 1.029780
0.007055 -0.020233 1.030200
0.008798 -0.020237 1.030410
0.010545 -0.020246 1.030900
0.012302 -0.020269 1.032040
0.014058 -0.020285 1.032870
0.015819 -0.020304 1.033830
0.017592 -0.020333 1.035310
0.019367 -0.020359 1.036670
0.021147 -0.020386 1.038010
0.022925 -0.020407 1.039080
0.024709 -0.020429 1.040230
0.026476 -0.020436 1.040550
0.028243 -0.020441 1.040830
0.030008 -0.020445 1.041030
0.031773 -0.020449 1.041190
0.033546 -0.020457 1.041600
0.035316 -0.020461 1.041860
0.037090 -0.020468 1.042210
0.038888 -0.020488 1.043180
0.040685 -0.020505 1.044050
0.042469 -0.020513 1.044500
0.063585 -0.019937 1.015140
0.065269 -0.019927 1.014650
0.066928 -0.019910 1.013790
0.068552 -0.019884 1.012470
0.070152 -0.019853 1.010860
0.071748 -0.019822 1.009270
0.073320 -0.019785 1.007420
0.074920 -0.019758 1.006050
0.076565 -0.019744 1.005310
0.078228 -0.019734 1.004840
0.079867 -0.019720 1.004090
0.081554 -0.019717 1.003950
0.083248 -0.019716 1.003920
0.084946 -0.019716 1.003920
0.086722 -0.019735 1.004840
0.088525 -0.019758 1.006030
0.090305 -0.019775 1.006920
0.092099 -0.019795 1.007910
0.093924 -0.019820 1.009210
0.095711 -0.019837 1.010060
0.097549 -0.019864 1.011420
0.099434 -0.019899 1.013210
0.101290 -0.019927 1.014640
0.103160 -0.019957 1.016170
0.105002 -0.019980 1.017370
0.106872 -0.020009 1.018800
0.108785 -0.020044 1.020580
0.110681 -0.020075 1.022160
-0.038778 -0.020525 1.045070
-0.040252 -0.018618 1.037520
-0.038498 -0.018617 1.037520
-0.036731 -0.018611 1.037150
-0.034934 -0.018587 1.035840
-0.033138 -0.018563 1.034460
-0.031342 -0.018535 1.032910
-0.029546 -0.018504 1.031170
-0.027761 -0.018475 1.029590
-0.026000 -0.018461 1.028820
-0.024239 -0.018445 1.027880
-0.022488 -0.018434 1.027280
-0.020748 -0.018431 1.027120
-0.019011 -0.018430 1.027090
-0.017274 -0.018429 1.026990
-0.015541 -0.018433 1.027220
-0.013806 -0.018435 1.027330
-0.012067 -0.018433 1.027220
-0.010331 -0.018433 1.027210
-0.008593 -0.018430 1.027100
-0.006856 -0.018429 1.026980
-0.005120 -0.018427 1.026870
-0.003383 -0.018424 1.026750
-0.001647 -0.018420 1.026510
0.000088 -0.018432 1.027170
0.001827 -0.018449 1.028150
0.003567 -0.018458 1.028650
0.005310 -0.018474 1.029530
0.007055 -0.018486 1.030180
0.008799 -0.018492 1.030520
0.010547 -0.018501 1.031040
0.012305 -0.018523 1.032270
0.014061 -0.018538 1.033070
0.015816 -0.018549 1.033690
0.017587 -0.018573 1.035040
0.019362 -0.018597 1.036380
0.021142 -0.018622 1.037750
0.022923 -0.018644 1.038970
0.024716 -0.018671 1.040490
0.026487 -0.018679 1.040970
0.028261 -0.018689 1.041490
0.030037 -0.018699 1.042050
0.031811 -0.018706 1.042450
0.033586 -0.018713 1.042850
0.035358 -0.018718 1.043110
0.037131 -0.018722 1.043360
0.038921 -0.018735 1.044060
0.040721 -0.018751 1.044960
0.042514 -0.018763 1.045610
0.066870 -0.018176 1.012910
0.068504 -0.018155 1.011760
0.070131 -0.018134 1.010550
0.071742 -0.018109 1.009180
0.073299 -0.018072 1.007140
0.074889 -0.018045 1.005620
0.076514 -0.018028 1.004640
0.078166 -0.018017 1.004040
0.079796 -0.018002 1.003200
0.081491 -0.018001 1.003180
0.083201 -0.018004 1.003350
0.084907 -0.018007 1.003470
0.086694 -0.018025 1.004510
0.088507 -0.018049 1.005820
0.090299 -0.018067 1.006840
0.092104 -0.018087 1.007980
0.093962 -0.018117 1.009620
0.095774 -0.018137 1.010730
0.097627 -0.018164 1.012230
0.099512 -0.018196 1.014000
0.101353 -0.018218 1.015270
0.103186 -0.018239 1.016420
0.105002 -0.018256 1.017370
0.106848 -0.018278 1.018570
0.108737 -0.018306 1.020130
0.110607 -0.018330 1.021480
-0.042254 -0.018727 1.043640
-0.044000 -0.016951 1.043210
-0.041964 -0.016842 1.036470
-0.040195 -0.016835 1.036050
-0.038430 -0.016829 1.035690
-0.036661 -0.016821 1.035170
-0.034863 -0.016797 1.033730
-0.033067 -0.016773 1.032230
-0.031275 -0.016748 1.030680
-0.029489 -0.016723 1.029160
-0.027707 -0.016697 1.027600
-0.025951 -0.016686 1.026860
-0.024199 -0.016674 1.026160
-0.022456 -0.016668 1.025800
-0.020717 -0.016664 1.025560
-0.018983 -0.016664 1.025560
-0.017249 -0.016664 1.025560
-0.015519 -0.016668 1.025790
-0.013787 -0.016670 1.025910
-0.012053 -0.016672 1.026020
-0.010320 -0.016674 1.026130
-0.008585 -0.016674 1.026130
-0.006851 -0.016674 1.026130
-0.005116 -0.016674 1.026130
-0.003381 -0.016672 1.026020
-0.001646 -0.016670 1.025910
0.000088 -0.016683 1.026690
0.001826 -0.016701 1.027800
0.003566 -0.016711 1.028420
0.005310 -0.016729 1.029520
0.007056 -0.016743 1.030410
0.008802 -0.016751 1.030870
0.010550 -0.016759 1.031390
0.012309 -0.016779 1.032630
0.014062 -0.016788 1.033190
0.015814 -0.016794 1.033550
0.017579 -0.016811 1.034550
0.019349 -0.016829 1.035680
0.021125 -0.016849 1.036950
0.022908 -0.016871 1.038280
0.024705 -0.016900 1.040050
0.026482 -0.016912 1.040770
0.028265 -0.016926 1.041640
0.030048 -0.016939 1.042430
0.031830 -0.016949 1.043060
0.033608 -0.016956 1.043510
0.035388 -0.016964 1.043980
0.037160 -0.016967 1.044180
0.066734 -0.016426 1.010860
0.068378 -0.016410 1.009890
0.070030 -0.016397 1.009100
0.071649 -0.016377 1.007870
0.073217 -0.016347 1.006010
0.074803 -0.016322 1.004470
0.076423 -0.016305 1.003450
0.078073 -0.016295 1.002850
0.079710 -0.016283 1.002120
0.081404 -0.016283 1.002110
0.083113 -0.016286 1.002290
0.084817 -0.016288 1.002410
0.086593 -0.016304 1.003350
0.088389 -0.016322 1.004480
0.090169 -0.016337 1.005400
0.091966 -0.016354 1.006460
0.093823 -0.016381 1.008130
0.095665 -0.016405 1.009580
0.097539 -0.016433 1.011320
0.099444 -0.016465 1.013310
0.101303 -0.016489 1.014770
0.103142 -0.016509 1.015990
0.104945 -0.016522 1.016810
0.106777 -0.016540 1.017890
0.108649 -0.016563 1.019310
0.110500 -0.016582 1.020490
-0.045461 -0.015083 1.036320
-0.043688 -0.015075 1.035820
-0.041915 -0.015067 1.035250
-0.040137 -0.015057 1.034550
-0.038365 -0.015048 1.033930
-0.036590 -0.015037 1.033160
-0.034798 -0.015017 1.031820
-0.033006 -0.014995 1.030330
-0.031218 -0.014973 1.028810
-0.029442 -0.014955 1.027540
-0.027667 -0.014934 1.026130
-0.025917 -0.014925 1.025520
-0.024169 -0.014917 1.024920
-0.022431 -0.014913 1.024680
-0.020692 -0.014908 1.024330
-0.018961 -0.014908 1.024350
-0.017229 -0.014909 1.024380
-0.015503 -0.014914 1.024730
-0.013774 -0.014918 1.024980
-0.012044 -0.014921 1.025230
-0.010313 -0.014925 1.025460
-0.008581 -0.014926 1.025560
-0.006847 -0.014926 1.025560
-0.005113 -0.014926 1.025560
-0.003379 -0.014926 1.025560
-0.001646 -0.014926 1.025560
0.000088 -0.014939 1.026480
0.001826 -0.014957 1.027710
0.003566 -0.014970 1.028570
0.005311 -0.014986 1.029660
0.007058 -0.015000 1.030660
0.008806 -0.015009 1.031250
0.010554 -0.015017 1.031790
0.012311 -0.015031 1.032810
0.014063 -0.015038 1.033220
0.015811 -0.015039 1.033330
0.017571 -0.015050 1.034090
0.019335 -0.015063 1.034960
0.021110 -0.015081 1.036200
0.022893 -0.015102 1.037630
0.024690 -0.015127 1.039410
0.026469 -0.015140 1.040250
0.028257 -0.015156 1.041350
0.030047 -0.015171 1.042370
0.031833 -0.015182 1.043180
0.033620 -0.015193 1.043890
0.035405 -0.015201 1.044470
0.064785 -0.014658 1.007120
0.066503 -0.014661 1.007350
0.068204 -0.014661 1.007320
0.069880 -0.014655 1.006940
0.071506 -0.014639 1.005860
0.073079 -0.014614 1.004120
0.074670 -0.014593 1.002680
0.076296 -0.014580 1.001770
0.077951 -0.014573 1.001280
0.079595 -0.014564 1.000670
0.081296 -0.014565 1.000790
0.083012 -0.014570 1.001070
0.084714 -0.014571 1.001190
0.086460 -0.014580 1.001810
0.088239 -0.014594 1.002780
0.090004 -0.014606 1.003560
0.091786 -0.014619 1.004490
0.093621 -0.014641 1.005960
0.095480 -0.014665 1.007630
0.097362 -0.014692 1.009490
0.099290 -0.014725 1.011740
0.101173 -0.014750 1.013470
0.103034 -0.014771 1.014930
0.104858 -0.014786 1.015970
0.106687 -0.014802 1.017030
0.108529 -0.014819 1.018190
0.110335 -0.014830 1.018970
-0.049292 -0.015183 1.043240
-0.049278 -0.013411 1.042940
-0.047217 -0.013327 1.036410
-0.045441 -0.013320 1.035850
-0.043655 -0.013309 1.035040
-0.041865 -0.013296 1.034040
-0.040078 -0.013284 1.033040
-0.038299 -0.013272 1.032150
-0.036519 -0.013259 1.031150
-0.034735 -0.013244 1.029940
-0.032954 -0.013228 1.028710
-0.031177 -0.013212 1.027460
-0.029412 -0.013199 1.026470
-0.027645 -0.013184 1.025300
-0.025896 -0.013176 1.024690
-0.024147 -0.013167 1.023960
-0.022410 -0.013164 1.023690
-0.020672 -0.013159 1.023350
-0.018943 -0.013159 1.023370
-0.017215 -0.013161 1.023500
-0.015491 -0.013167 1.023970
-0.013764 -0.013171 1.024260
-0.012036 -0.013174 1.024530
-0.010309 -0.013180 1.024990
-0.008578 -0.013183 1.025220
-0.006845 -0.013185 1.025340
-0.005113 -0.013186 1.025460
-0.003380 -0.013189 1.025670
-0.001646 -0.013190 1.025790
0.000088 -0.013204 1.026830
0.001827 -0.013221 1.028180
0.003568 -0.013234 1.029160
0.005314 -0.013248 1.030270
0.007062 -0.013261 1.031280
0.008811 -0.013269 1.031870
0.010560 -0.013274 1.032310
0.012314 -0.013284 1.033090
0.014063 -0.013286 1.033240
0.015809 -0.013286 1.033200
0.017564 -0.013292 1.033690
0.019323 -0.013300 1.034310
0.021096 -0.013315 1.035500
0.022880 -0.013335 1.037010
0.024675 -0.013358 1.038800
0.026454 -0.013369 1.039690
0.028245 -0.013385 1.040930
0.030038 -0.013400 1.042070
0.031828 -0.013412 1.043010
0.033614 -0.013421 1.043710
0.035400 -0.013429 1.044330
0.064600 -0.012913 1.004250
0.066316 -0.012917 1.004520
0.068031 -0.012920 1.004780
0.069703 -0.012915 1.004380
0.071333 -0.012903 1.003430
0.072921 -0.012884 1.001940
0.074518 -0.012867 1.000640
0.076145 -0.012856 0.999794
0.077807 -0.012852 0.999435
0.079466 -0.012847 0.999049
0.081166 -0.012848 0.999177
0.082880 -0.012852 0.999482
0.084579 -0.012854 0.999592
0.086299 -0.012858 0.999942
0.088050 -0.012867 1.000630
0.089794 -0.012874 1.001220
0.091558 -0.012885 1.002000
0.093367 -0.012900 1.003230
0.095218 -0.012921 1.004860
0.097085 -0.012944 1.006620
0.099022 -0.012975 1.009010
0.100930 -0.013001 1.011040
0.102818 -0.013023 1.012800
0.104676 -0.013042 1.014210
0.106548 -0.013061 1.015710
0.108380 -0.013075 1.016790
0.110177 -0.013084 1.017510
-0.047538 -0.011649 1.043450
-0.045547 -0.011591 1.038280
-0.043624 -0.011546 1.034290
-0.041825 -0.011533 1.033030
-0.040029 -0.011518 1.031750
-0.038243 -0.011506 1.030630
-0.036458 -0.011492 1.029440
-0.034685 -0.011482 1.028480
-0.032912 -0.011470 1.027390
-0.031142 -0.011457 1.026290
-0.029385 -0.011449 1.025560
-0.027627 -0.011439 1.024620
-0.025876 -0.011431 1.023910
-0.024128 -0.011422 1.023160
-0.022389 -0.011418 1.022750
-0.020651 -0.011413 1.022290
-0.018921 -0.011411 1.022180
-0.017195 -0.011413 1.022310
-0.015475 -0.011419 1.022870
-0.013751 -0.011423 1.023270
-0.012026 -0.011428 1.023680
-0.010302 -0.011436 1.024380
-0.008575 -0.011441 1.024850
-0.006844 -0.011444 1.025100
-0.005112 -0.011447 1.025340
-0.003380 -0.011452 1.025790
-0.001646 -0.011454 1.026030
0.000088 -0.011467 1.027200
0.001828 -0.011484 1.028680
0.003570 -0.011496 1.029780
0.005318 -0.011510 1.031000
0.007068 -0.011522 1.032140
0.008818 -0.011529 1.032730
0.010569 -0.011534 1.033160
0.012323 -0.011541 1.033790
0.014070 -0.011541 1.033790
0.015815 -0.011539 1.033600
0.017567 -0.011542 1.033880
0.019322 -0.011546 1.034260
0.021094 -0.011559 1.035410
0.022875 -0.011575 1.036800
0.024666 -0.011592 1.038400
0.026445 -0.011603 1.039310
0.028238 -0.011618 1.040650
0.030030 -0.011630 1.041800
0.031820 -0.011641 1.042740
0.033604 -0.011648 1.043390
0.035392 -0.011656 1.044110
0.062775 -0.011188 1.002210
0.064476 -0.011190 1.002320
0.066164 -0.011188 1.002210
0.067868 -0.011190 1.002370
0.069521 -0.011183 1.001760
0.071148 -0.011173 1.000830
0.072757 -0.011160 0.999695
0.074378 -0.011150 0.998765
0.076014 -0.011142 0.998069
0.077683 -0.011140 0.997840
0.079357 -0.011138 0.997675
0.081054 -0.011139 0.997806
0.082759 -0.011142 0.998018
0.084454 -0.011143 0.998120
0.086151 -0.011144 0.998225
0.087866 -0.011147 0.998542
0.089573 -0.011150 0.998753
0.091302 -0.011155 0.999198
0.093073 -0.011165 1.000080
0.094906 -0.011181 1.001570
0.096761 -0.011200 1.003250
0.098712 -0.011229 1.005850
0.100652 -0.011256 1.008250
0.102576 -0.011280 1.010410
0.104478 -0.011301 1.012290
0.106383 -0.011321 1.014140
0.108210 -0.011333 1.015190
0.110009 -0.011342 1.015950
-0.045665 -0.009856 1.040960
-0.043607 -0.009789 1.033890
-0.041793 -0.009774 1.032260
-0.039994 -0.009761 1.030870
-0.038202 -0.009748 1.029540
-0.036420 -0.009737 1.028360
-0.034653 -0.009729 1.027520
-0.032885 -0.009720 1.026540
-0.031120 -0.009711 1.025580
-0.029368 -0.009705 1.024950
-0.027614 -0.009697 1.024140
-0.025864 -0.009690 1.023430
-0.024116 -0.009683 1.022680
-0.022376 -0.009678 1.022150
-0.020638 -0.009674 1.021650
-0.018905 -0.009670 1.021330
-0.017178 -0.009671 1.021330
-0.015460 -0.009676 1.021880
-0.013739 -0.009680 1.022380
-0.012016 -0.009684 1.022790
-0.010296 -0.009693 1.023730
-0.008571 -0.009700 1.024440
-0.006842 -0.009704 1.024850
-0.005111 -0.009707 1.025220
-0.003380 -0.009713 1.025800
-0.001646 -0.009716 1.026170
0.000088 -0.009728 1.027370
0.001828 -0.009743 1.028970
0.003572 -0.009755 1.030290
0.005321 -0.009768 1.031640
0.007073 -0.009779 1.032790
0.008825 -0.009786 1.033500
0.010576 -0.009790 1.033910
0.012330 -0.009794 1.034390
0.014078 -0.009794 1.034380
0.015826 -0.009793 1.034310
0.017578 -0.009795 1.034500
0.019330 -0.009797 1.034670
0.021100 -0.009806 1.035690
0.022879 -0.009818 1.036960
0.024665 -0.009832 1.038340
0.026446 -0.009841 1.039380
0.028242 -0.009855 1.040820
0.030028 -0.009864 1.041720
0.031820 -0.009873 1.042720
0.033603 -0.009879 1.043360
0.035386 -0.009884 1.043920
0.061058 -0.011184 1.001840
0.059358 -0.009485 1.001730
0.061021 -0.009480 1.001240
0.062711 -0.009480 1.001200
0.064384 -0.009477 1.000890
0.066044 -0.009472 1.000400
0.067729 -0.009471 1.000310
0.069378 -0.009466 0.999706
0.071003 -0.009457 0.998785
0.072632 -0.009449 0.997970
0.074268 -0.009443 0.997282
0.075919 -0.009438 0.996823
0.077595 -0.009437 0.996709
0.079282 -0.009438 0.996728
0.080977 -0.009439 0.996860
0.082681 -0.009441 0.997078
0.084375 -0.009442 0.997180
0.086051 -0.009441 0.997070
0.087736 -0.009441 0.997058
0.089421 -0.009441 0.997052
0.091117 -0.009442 0.997171
0.092845 -0.009446 0.997625
0.094649 -0.009458 0.998865
0.096474 -0.009471 1.000280
0.098404 -0.009494 1.002710
0.100347 -0.009518 1.005190
0.102289 -0.009540 1.007590
0.104224 -0.009562 1.009830
0.106173 -0.009583 1.012140
0.108018 -0.009595 1.013390
0.109834 -0.009604 1.014340
-0.045771 -0.008111 1.043380
-0.043572 -0.008030 1.033050
-0.041760 -0.008018 1.031440
-0.039967 -0.008008 1.030160
-0.038176 -0.007998 1.028830
-0.036395 -0.007988 1.027650
-0.034632 -0.007983 1.026900
-0.032869 -0.007976 1.026040
-0.031111 -0.007970 1.025290
-0.029360 -0.007965 1.024670
-0.027609 -0.007960 1.023970
-0.025863 -0.007955 1.023360
-0.024113 -0.007948 1.022520
-0.022367 -0.007943 1.021770
-0.020632 -0.007940 1.021370
-0.018899 -0.007937 1.021030
-0.017170 -0.007935 1.020830
-0.015452 -0.007940 1.021380
-0.013732 -0.007943 1.021850
-0.012008 -0.007946 1.022150
-0.010289 -0.007952 1.023000
-0.008567 -0.007960 1.023950
-0.006840 -0.007964 1.024480
-0.005110 -0.007968 1.024990
-0.003380 -0.007974 1.025800
-0.001647 -0.007979 1.026510
0.000088 -0.007990 1.027840
0.001829 -0.008003 1.029580
0.003575 -0.008016 1.031230
0.005326 -0.008028 1.032710
0.007080 -0.008037 1.033890
0.008834 -0.008042 1.034610
0.010587 -0.008045 1.035000
0.012340 -0.008048 1.035270
0.014090 -0.008048 1.035270
0.015842 -0.008048 1.035350
0.017598 -0.008051 1.035690
0.019354 -0.008053 1.035980
0.021126 -0.008061 1.036990
0.022907 -0.008071 1.038230
0.024689 -0.008079 1.039370
0.026469 -0.008086 1.040260
0.028263 -0.008097 1.041580
0.030049 -0.008103 1.042450
0.031839 -0.008110 1.043340
0.033631 -0.008117 1.044230
0.035418 -0.008122 1.044860
0.057716 -0.009493 1.002620
0.056011 -0.007792 1.002450
0.057693 -0.007791 1.002230
0.059342 -0.007785 1.001460
0.060997 -0.007780 1.000840
0.062672 -0.007778 1.000560
0.064330 -0.007774 1.000050
0.065973 -0.007768 0.999327
0.067645 -0.007766 0.999065
0.069292 -0.007761 0.998461
0.070922 -0.007755 0.997648
0.072551 -0.007749 0.996859
0.074193 -0.007744 0.996282
0.075842 -0.007741 0.995816
0.077516 -0.007740 0.995689
0.079192 -0.007739 0.995599
0.080885 -0.007740 0.995727
0.082595 -0.007743 0.996050
0.084298 -0.007744 0.996268
0.085983 -0.007744 0.996278
0.087676 -0.007745 0.996379
0.089369 -0.007746 0.996477
0.091064 -0.007747 0.996590
0.092771 -0.007749 0.996832
0.094540 -0.007756 0.997716
0.096329 -0.007764 0.998773
0.098219 -0.007780 1.000830
0.100136 -0.007797 1.003080
0.102062 -0.007815 1.005350
0.103992 -0.007832 1.007580
0.105961 -0.007852 1.010120
0.107841 -0.007865 1.011730
0.109658 -0.007872 1.012720
-0.043551 -0.006276 1.032570
-0.041745 -0.006267 1.031080
-0.039953 -0.006259 1.029820
-0.038163 -0.006251 1.028480
-0.036382 -0.006244 1.027280
-0.034619 -0.006239 1.026520
-0.032853 -0.006234 1.025560
-0.031100 -0.006230 1.024930
-0.029350 -0.006226 1.024310
-0.027602 -0.006222 1.023720
-0.025857 -0.006219 1.023120
-0.024107 -0.006214 1.022290
-0.022360 -0.006209 1.021440
-0.020628 -0.006207 1.021140
-0.018895 -0.006205 1.020800
-0.017164 -0.006203 1.020510
-0.015447 -0.006206 1.021050
-0.013727 -0.006209 1.021510
-0.012003 -0.006210 1.021690
-0.010284 -0.006215 1.022530
-0.008564 -0.006222 1.023590
-0.006838 -0.006226 1.024250
-0.005110 -0.006229 1.024870
-0.003380 -0.006236 1.025900
-0.001648 -0.006241 1.026850
0.000089 -0.006250 1.028310
0.001830 -0.006262 1.030290
0.003579 -0.006274 1.032190
0.005332 -0.006284 1.033800
0.007088 -0.006291 1.035010
0.008844 -0.006295 1.035730
0.010599 -0.006298 1.036110
0.012355 -0.006300 1.036510
0.014109 -0.006301 1.036650
0.015865 -0.006302 1.036890
0.017628 -0.006306 1.037470
0.019390 -0.006309 1.037890
0.021163 -0.006314 1.038770
0.022943 -0.006320 1.039850
0.024724 -0.006327 1.040840
0.026503 -0.006331 1.041610
0.028294 -0.006338 1.042710
0.030079 -0.006342 1.043470
0.031866 -0.006347 1.044240
0.033663 -0.006353 1.045220
0.035450 -0.006357 1.045800
0.057703 -0.006093 1.002410
0.059349 -0.006088 1.001580
0.060993 -0.006083 1.000780
0.062652 -0.006080 1.000250
0.064294 -0.006075 0.999489
0.065934 -0.006071 0.998739
0.067598 -0.006068 0.998367
0.069243 -0.006065 0.997754
0.070866 -0.006059 0.996859
0.072502 -0.006055 0.996178
0.074143 -0.006051 0.995602
0.075782 -0.006048 0.995028
0.077445 -0.006046 0.994774
0.079117 -0.006046 0.994665
0.080802 -0.006046 0.994697
0.082503 -0.006047 0.994933
0.084213 -0.006049 0.995267
0.085916 -0.006051 0.995503
0.087619 -0.006052 0.995736
0.089322 -0.006054 0.995954
0.091025 -0.006055 0.996156
0.092729 -0.006056 0.996376
0.094466 -0.006060 0.996934
0.096230 -0.006065 0.997743
0.098084 -0.006075 0.999452
0.099962 -0.006086 1.001330
0.101850 -0.006098 1.003260
0.103762 -0.006111 1.005350
0.105724 -0.006126 1.007850
0.107612 -0.006136 1.009580
0.109775 -0.006162 1.013800
-0.043644 -0.004535 1.034750
-0.041736 -0.004518 1.030830
-0.039949 -0.004513 1.029690
-0.038158 -0.004507 1.028350
-0.036376 -0.004502 1.027130
-0.034614 -0.004499 1.026370
-0.032849 -0.004495 1.025420
-0.031097 -0.004492 1.024820
-0.029348 -0.004489 1.024240
-0.027600 -0.004487 1.023640
-0.025852 -0.004484 1.022930
-0.024102 -0.004480 1.022090
-0.022354 -0.004476 1.021120
-0.020621 -0.004474 1.020820
-0.018891 -0.004473 1.020600
-0.017161 -0.004472 1.020320
-0.015445 -0.004475 1.020880
-0.013725 -0.004477 1.021320
-0.012001 -0.004478 1.021580
-0.010281 -0.004480 1.022200
-0.008561 -0.004485 1.023250
-0.006836 -0.004488 1.023890
-0.005108 -0.004491 1.024630
-0.003380 -0.004496 1.025670
-0.001648 -0.004501 1.026870
0.000089 -0.004508 1.028580
0.001831 -0.004518 1.030710
0.003581 -0.004527 1.032850
0.005337 -0.004535 1.034700
0.007095 -0.004541 1.036040
0.008854 -0.004545 1.036880
0.010612 -0.004547 1.037370
0.012371 -0.004549 1.037860
0.014129 -0.004550 1.038130
0.015892 -0.004552 1.038610
0.017660 -0.004556 1.039340
0.019427 -0.004558 1.039880
0.021201 -0.004561 1.040640
0.022981 -0.004565 1.041600
0.024759 -0.004569 1.042340
0.026541 -0.004572 1.043100
0.028335 -0.004577 1.044210
0.030122 -0.004580 1.044990
0.031912 -0.004584 1.045770
0.033719 -0.004589 1.046950
0.035515 -0.004592 1.047740
0.037393 -0.004605 1.050720
0.056056 -0.004397 1.003260
0.057724 -0.004395 1.002770
0.059363 -0.004391 1.001820
0.060999 -0.004387 1.000870
0.062639 -0.004383 1.000040
0.064272 -0.004379 0.999144
0.065903 -0.004376 0.998267
0.067551 -0.004373 0.997676
0.069188 -0.004370 0.996961
0.070817 -0.004366 0.996170
0.072452 -0.004363 0.995493
0.074092 -0.004361 0.994920
0.075737 -0.004359 0.994433
0.077398 -0.004358 0.994178
0.079070 -0.004357 0.994066
0.080752 -0.004357 0.994084
0.082452 -0.004358 0.994317
0.084162 -0.004360 0.994662
0.085866 -0.004361 0.994927
0.087580 -0.004362 0.995282
0.089293 -0.004364 0.995624
0.090996 -0.004365 0.995845
0.092699 -0.004366 0.996055
0.094424 -0.004368 0.996488
0.096174 -0.004371 0.997164
0.097994 -0.004377 0.998538
0.099846 -0.004384 1.000180
0.101706 -0.004391 1.001840
0.103590 -0.004399 1.003690
0.105512 -0.004409 1.005840
0.107380 -0.004416 1.007400
0.109888 -0.004448 1.014840
-0.043641 -0.002781 1.034690
-0.041730 -0.002770 1.030700
-0.039948 -0.002768 1.029680
-0.038158 -0.002764 1.028350
-0.036376 -0.002761 1.027130
-0.034614 -0.002759 1.026380
-0.032853 -0.002757 1.025540
-0.031105 -0.002755 1.025070
-0.029358 -0.002754 1.024590
-0.027613 -0.002753 1.024120
-0.025866 -0.002751 1.023500
-0.024113 -0.002749 1.022540
-0.022361 -0.002746 1.021450
-0.020627 -0.002745 1.021130
-0.018897 -0.002744 1.020920
-0.017165 -0.002743 1.020550
-0.015447 -0.002744 1.021010
-0.013725 -0.002745 1.021320
-0.012000 -0.002746 1.021450
-0.010277 -0.002747 1.021840
-0.008557 -0.002749 1.022780
-0.006833 -0.002751 1.023530
-0.005107 -0.002753 1.024380
-0.003379 -0.002756 1.025440
-0.001648 -0.002760 1.026880
0.000089 -0.002766 1.028960
0.001832 -0.002772 1.031230
0.003584 -0.002779 1.033720
0.005342 -0.002784 1.035820
0.007104 -0.002788 1.037280
0.008864 -0.002790 1.038130
0.010626 -0.002792 1.038730
0.012386 -0.002793 1.039110
0.014148 -0.002794 1.039500
0.015915 -0.002796 1.040100
0.017687 -0.002798 1.040960
0.019460 -0.002800 1.041620
0.021236 -0.002802 1.042390
0.023020 -0.002805 1.043360
0.024801 -0.002806 1.044090
0.026589 -0.002809 1.044970
0.028386 -0.002812 1.046110
0.030181 -0.002814 1.047030
0.031978 -0.002817 1.047900
0.033790 -0.002820 1.049180
0.035613 -0.002824 1.050610
0.037552 -0.002836 1.055200
0.054405 -0.002699 1.004090
0.056086 -0.002698 1.003780
0.057748 -0.002696 1.003180
0.059380 -0.002694 1.002110
0.061014 -0.002691 1.001120
0.062633 -0.002688 0.999942
0.064250 -0.002685 0.998803
0.065865 -0.002682 0.997695
0.067496 -0.002680 0.996870
0.069125 -0.002677 0.996058
0.070760 -0.002675 0.995366
0.072394 -0.002674 0.994697
0.074040 -0.002672 0.994223
0.075693 -0.002671 0.993860
0.077354 -0.002671 0.993616
0.079025 -0.002670 0.993507
0.080706 -0.002671 0.993518
0.082404 -0.002671 0.993736
0.084112 -0.002672 0.994070
0.085814 -0.002673 0.994324
0.087537 -0.002674 0.994798
0.089260 -0.002675 0.995264
0.090975 -0.002676 0.995615
0.092680 -0.002677 0.995845
0.094403 -0.002678 0.996266
0.096141 -0.002679 0.996821
0.097927 -0.002682 0.997849
0.099755 -0.002686 0.999260
0.101589 -0.002690 1.000690
0.103445 -0.002694 1.002280
0.105328 -0.002699 1.004080
0.107177 -0.002703 1.005500
-0.043625 -0.001027 1.034300
-0.041721 -0.001023 1.030480
-0.039944 -0.001022 1.029590
-0.038159 -0.001021 1.028370
-0.036378 -0.001020 1.027160
-0.034615 -0.001019 1.026400
-0.032857 -0.001018 1.025680
-0.031112 -0.001018 1.025320
-0.029366 -0.001017 1.024870
-0.027623 -0.001017 1.024500
-0.025875 -0.001016 1.023870
-0.024119 -0.001015 1.022790
-0.022363 -0.001014 1.021570
-0.020629 -0.001014 1.021230
-0.018899 -0.001014 1.021010
-0.017167 -0.001013 1.020650
-0.015448 -0.001014 1.021110
-0.013726 -0.001014 1.021400
-0.012001 -0.001014 1.021520
-0.010275 -0.001014 1.021680
-0.008555 -0.001015 1.022510
-0.006831 -0.001016 1.023250
-0.005106 -0.001017 1.024100
-0.003378 -0.001018 1.025310
-0.001648 -0.001020 1.026990
0.000089 -0.001022 1.029310
0.001833 -0.001024 1.031710
0.003587 -0.001027 1.034440
0.005347 -0.001029 1.036680
0.007110 -0.001031 1.038280
0.008873 -0.001032 1.039160
0.010636 -0.001032 1.039750
0.012397 -0.001033 1.040010
0.014160 -0.001033 1.040380
0.015928 -0.001033 1.040990
0.017705 -0.001034 1.041980
0.019484 -0.001035 1.042900
0.021265 -0.001036 1.043790
0.023053 -0.001037 1.044880
0.024843 -0.001038 1.045860
0.026638 -0.001039 1.046890
0.028442 -0.001041 1.048170
0.030251 -0.001042 1.049440
0.032052 -0.001043 1.050340
0.033863 -0.001044 1.051440
0.035702 -0.001046 1.053250
0.037651 -0.001050 1.057990
0.044102 -0.002916 1.084670
0.041880 -0.001067 1.074700
0.044030 -0.001075 1.082890
0.054422 -0.000997 1.004400
0.056110 -0.000997 1.004210
0.057771 -0.000996 1.003590
0.059403 -0.000995 1.002490
0.061030 -0.000994 1.001380
0.062633 -0.000993 0.999955
0.064235 -0.000991 0.998574
0.065847 -0.000990 0.997421
0.067470 -0.000989 0.996491
0.069091 -0.000988 0.995570
0.070724 -0.000988 0.994865
0.072357 -0.000987 0.994197
0.074005 -0.000987 0.993747
0.075667 -0.000986 0.993515
0.077330 -0.000986 0.993297
0.079001 -0.000986 0.993196
0.080680 -0.000986 0.993196
0.082367 -0.000986 0.993297
0.084065 -0.000986 0.993515
0.085764 -0.000987 0.993747
0.087494 -0.000987 0.994305
0.089217 -0.000988 0.994783
0.090934 -0.000988 0.995166
0.092649 -0.000988 0.995512
0.094372 -0.000989 0.995935
0.096109 -0.000989 0.996489
0.097883 -0.000990 0.997404
0.099707 -0.000992 0.998788
0.101538 -0.000993 1.000190
0.103384 -0.000994 1.001690
0.105232 -0.000996 1.003160
0.107064 -0.000997 1.004440
-0.043683 0.000727 1.035690
-0.041730 0.000724 1.030700
-0.039953 0.000723 1.029810
-0.038164 0.000722 1.028500
-0.036382 0.000722 1.027300
-0.034623 0.000721 1.026640
-0.032865 0.000721 1.025920
-0.031116 0.000720 1.025450
-0.029373 0.000720 1.025110
-0.027633 0.000720 1.024860
-0.025882 0.000719 1.024150
-0.024128 0.000719 1.023180
-0.022374 0.000718 1.022050
-0.020637 0.000718 1.021600
-0.018903 0.000717 1.021260
-0.017174 0.000717 1.021100
-0.015453 0.000717 1.021450
-0.013729 0.000718 1.021640
-0.012003 0.000718 1.021740
-0.010278 0.000718 1.021980
-0.008556 0.000718 1.022600
-0.006832 0.000719 1.023340
-0.005107 0.000719 1.024300
-0.003379 0.000720 1.025510
-0.001648 0.000721 1.027100
0.000089 0.000723 1.029540
0.001834 0.000725 1.032060
0.003588 0.000727 1.034820
0.005349 0.000728 1.037190
0.007115 0.000730 1.038920
0.008880 0.000730 1.039900
0.010645 0.000731 1.040620
0.012408 0.000731 1.040980
0.014175 0.000731 1.041460
0.015947 0.000732 1.042200
0.017728 0.000733 1.043320
0.019511 0.000734 1.044370
0.021298 0.000734 1.045410
0.023092 0.000735 1.046640
0.024888 0.000736 1.047760
0.026689 0.000737 1.048930
0.028498 0.000738 1.050240
0.030311 0.000739 1.051540
0.032116 0.000739 1.052450
0.033931 0.000740 1.053550
0.035779 0.000741 1.055500
0.037731 0.000745 1.060230
0.039738 -0.001058 1.065990
0.039795 0.000750 1.067510
0.041881 0.000755 1.074730
0.054627 0.000708 1.008190
0.056132 0.000706 1.004620
0.057799 0.000705 1.004080
0.059430 0.000704 1.002940
0.061051 0.000704 1.001720
0.062641 0.000702 1.000070
0.064221 0.000701 0.998352
0.065817 0.000700 0.996970
0.067432 0.000699 0.995920
0.069044 0.000699 0.994883
0.070677 0.000698 0.994198
0.072324 0.000698 0.993736
0.073979 0.000698 0.993406
0.075650 0.000698 0.993297
0.077322 0.000698 0.993196
0.079001 0.000698 0.993196
0.080680 0.000698 0.993196
0.082359 0.000698 0.993196
0.084046 0.000698 0.993297
0.085735 0.000698 0.993406
0.087462 0.000698 0.993949
0.089176 0.000698 0.994325
0.090892 0.000699 0.994707
0.092615 0.000699 0.995155
0.094339 0.000699 0.995586
0.096076 0.000700 0.996150
0.097851 0.000700 0.997072
0.099664 0.000701 0.998352
0.101482 0.000702 0.999640
0.103327 0.000703 1.001140
0.105142 0.000704 1.002310
0.106950 0.000705 1.003370
-0.043762 0.002488 1.037560
-0.041759 0.002473 1.031420
-0.039975 0.002470 1.030380
-0.038180 0.002467 1.028950
-0.036398 0.002464 1.027750
-0.034639 0.002462 1.027100
-0.032883 0.002461 1.026480
-0.031133 0.002460 1.026020
-0.029389 0.002459 1.025680
-0.027648 0.002458 1.025430
-0.025897 0.002457 1.024730
-0.024145 0.002455 1.023890
-0.022392 0.002452 1.022890
-0.020654 0.002451 1.022450
-0.018919 0.002450 1.022100
-0.017190 0.002450 1.022040
-0.015464 0.002451 1.022180
-0.013736 0.002451 1.022150
-0.012009 0.002451 1.022240
-0.010282 0.002451 1.022380
-0.008557 0.002452 1.022760
-0.006833 0.002454 1.023490
-0.005108 0.002456 1.024550
-0.003380 0.002459 1.025770
-0.001648 0.002463 1.027360
0.000089 0.002469 1.029900
0.001834 0.002475 1.032410
0.003589 0.002482 1.035170
0.005351 0.002488 1.037550
0.007119 0.002492 1.039510
0.008886 0.002495 1.040630
0.010654 0.002497 1.041470
0.012419 0.002498 1.041840
0.014188 0.002499 1.042440
0.015962 0.002501 1.043180
0.017745 0.002504 1.044330
0.019535 0.002507 1.045630
0.021329 0.002510 1.046920
0.023129 0.002513 1.048280
0.024933 0.002517 1.049650
0.026741 0.002520 1.050950
0.028554 0.002523 1.052290
0.030370 0.002526 1.053580
0.032182 0.002528 1.054610
0.033997 0.002531 1.055600
0.035850 0.002536 1.057620
0.037793 0.002546 1.061960
0.039785 0.002559 1.067250
0.054630 0.002417 1.008250
0.056139 0.002409 1.004730
0.057806 0.002408 1.004190
0.059436 0.002405 1.003050
0.061051 0.002402 1.001730
0.062634 0.002397 0.999958
0.064206 0.002393 0.998122
0.065802 0.002390 0.996732
0.067409 0.002387 0.995588
0.069021 0.002384 0.994562
0.070660 0.002383 0.993964
0.072307 0.002382 0.993510
0.073964 0.002381 0.993196
0.075643 0.002381 0.993196
0.077322 0.002381 0.993196
0.079001 0.002381 0.993196
0.080680 0.002381 0.993196
0.082359 0.002381 0.993196
0.084038 0.002381 0.993196
0.085717 0.002381 0.993196
0.087434 0.002382 0.993627
0.089137 0.002383 0.993883
0.090850 0.002384 0.994247
0.092581 0.002385 0.994783
0.094314 0.002386 0.995326
0.096064 0.002388 0.996020
0.097839 0.002390 0.996958
0.099652 0.002393 0.998234
0.101470 0.002396 0.999518
0.103304 0.002400 1.000920
0.105098 0.002402 1.001890
0.106890 0.002404 1.002810
-0.043798 0.004250 1.038410
-0.041836 0.004229 1.033320
-0.039995 0.004219 1.030890
-0.038194 0.004213 1.029310
-0.036411 0.004208 1.028110
-0.034652 0.004205 1.027480
-0.032895 0.004203 1.026880
-0.031145 0.004201 1.026400
-0.029400 0.004199 1.026050
-0.027658 0.004198 1.025800
-0.025910 0.004196 1.025220
-0.024162 0.004193 1.024610
-0.022413 0.004190 1.023860
-0.020677 0.004189 1.023570
-0.018940 0.004188 1.023230
-0.017209 0.004187 1.023160
-0.015480 0.004187 1.023170
-0.013749 0.004187 1.023160
-0.012019 0.004187 1.023120
-0.010291 0.004188 1.023240
-0.008563 0.004189 1.023510
-0.006838 0.004192 1.024240
-0.005112 0.004196 1.025290
-0.003382 0.004201 1.026510
-0.001650 0.004208 1.028100
0.000089 0.004218 1.030630
0.001835 0.004228 1.033020
0.003591 0.004239 1.035770
0.005354 0.004248 1.038020
0.007122 0.004256 1.039990
0.008890 0.004261 1.041120
0.010660 0.004265 1.042090
0.012425 0.004266 1.042390
0.014199 0.004270 1.043230
0.015974 0.004273 1.043980
0.017762 0.004278 1.045350
0.019558 0.004285 1.046900
0.021360 0.004291 1.048460
0.023163 0.004297 1.049850
0.024976 0.004303 1.051440
0.026783 0.004308 1.052620
0.028598 0.004313 1.053930
0.030414 0.004318 1.055110
0.032232 0.004323 1.056230
0.034046 0.004326 1.057110
0.035904 0.004335 1.059220
0.037806 0.004348 1.062340
0.039747 0.004364 1.066240
0.054634 0.004127 1.008310
0.056145 0.004112 1.004840
0.057818 0.004111 1.004410
0.059455 0.004106 1.003380
0.061071 0.004101 1.002050
0.062653 0.004094 1.000270
0.064226 0.004086 0.998426
0.065815 0.004080 0.996933
0.067422 0.004075 0.995779
0.069042 0.004072 0.994865
0.070683 0.004069 0.994288
0.072332 0.004067 0.993844
0.073987 0.004066 0.993518
0.075659 0.004066 0.993406
0.077330 0.004065 0.993297
0.079001 0.004065 0.993196
0.080680 0.004065 0.993196
0.082359 0.004065 0.993196
0.084038 0.004065 0.993196
0.085717 0.004065 0.993196
0.087424 0.004066 0.993518
0.089116 0.004067 0.993653
0.090818 0.004068 0.993898
0.092548 0.004070 0.994426
0.094282 0.004072 0.994984
0.096033 0.004075 0.995701
0.097819 0.004079 0.996748
0.099641 0.004085 0.998118
0.101458 0.004090 0.999399
0.103290 0.004096 1.000780
0.105082 0.004100 1.001730
0.106859 0.004103 1.002520
-0.048214 0.004331 1.058280
-0.050402 0.006174 1.066710
-0.048234 0.006128 1.058720
-0.043955 0.006032 1.042140
-0.041932 0.005994 1.035690
-0.040034 0.005972 1.031880
-0.038220 0.005962 1.030030
-0.036432 0.005954 1.028710
-0.034669 0.005950 1.028000
-0.032912 0.005946 1.027410
-0.031161 0.005944 1.026930
-0.029411 0.005941 1.026440
-0.027665 0.005939 1.026060
-0.025916 0.005935 1.025470
-0.024171 0.005932 1.025000
-0.022428 0.005930 1.024520
-0.020693 0.005929 1.024370
-0.018957 0.005928 1.024150
-0.017228 0.005928 1.024280
-0.015496 0.005928 1.024280
-0.013764 0.005928 1.024260
-0.012034 0.005929 1.024330
-0.010304 0.005930 1.024550
-0.008573 0.005931 1.024710
-0.006846 0.005935 1.025430
-0.005118 0.005941 1.026500
-0.003386 0.005948 1.027610
-0.001651 0.005956 1.028990
0.000089 0.005970 1.031400
0.001836 0.005983 1.033640
0.003593 0.005998 1.036270
0.005356 0.006011 1.038530
0.007126 0.006023 1.040610
0.008895 0.006029 1.041750
0.010668 0.006036 1.042850
0.012434 0.006038 1.043150
0.014208 0.006042 1.043890
0.015982 0.006045 1.044520
0.017767 0.006052 1.045660
0.019562 0.006060 1.047100
0.021364 0.006070 1.048680
0.023169 0.006078 1.050100
0.024985 0.006088 1.051820
0.026798 0.006096 1.053190
0.028617 0.006104 1.054610
0.030437 0.006111 1.055890
0.032260 0.006119 1.057140
0.034075 0.006124 1.058010
0.035923 0.006134 1.059760
0.037785 0.006145 1.061740
0.054720 0.005845 1.009890
0.056152 0.005817 1.004970
0.057832 0.005815 1.004650
0.059477 0.005809 1.003740
0.061099 0.005802 1.002510
0.062683 0.005792 1.000740
0.064261 0.005782 0.998982
0.065852 0.005773 0.997495
0.067461 0.005767 0.996353
0.069083 0.005761 0.995449
0.070724 0.005758 0.994865
0.072374 0.005755 0.994418
0.074022 0.005753 0.993983
0.075685 0.005752 0.993747
0.077346 0.005750 0.993515
0.079009 0.005749 0.993297
0.080680 0.005748 0.993196
0.082359 0.005748 0.993196
0.084038 0.005748 0.993196
0.085717 0.005748 0.993196
0.087414 0.005750 0.993406
0.089096 0.005750 0.993425
0.090795 0.005751 0.993648
0.092526 0.005754 0.994193
0.094262 0.005758 0.994780
0.096013 0.005762 0.995496
0.097807 0.005768 0.996630
0.099618 0.005776 0.997891
0.101434 0.005783 0.999166
0.103256 0.005790 1.000450
0.105066 0.005797 1.001590
0.106855 0.005802 1.002480
-0.046069 0.006078 1.050170
-0.048255 0.007926 1.059170
-0.046153 0.007873 1.052080
-0.044068 0.007818 1.044820
-0.042006 0.007764 1.037510
-0.040086 0.007732 1.033240
-0.038261 0.007716 1.031140
-0.036470 0.007706 1.029780
-0.034697 0.007699 1.028840
-0.032936 0.007694 1.028140
-0.031183 0.007690 1.027660
-0.029434 0.007687 1.027250
-0.027684 0.007683 1.026750
-0.025936 0.007680 1.026270
-0.024195 0.007678 1.026030
-0.022453 0.007675 1.025680
-0.020715 0.007673 1.025450
-0.018979 0.007672 1.025330
-0.017247 0.007673 1.025450
-0.015512 0.007673 1.025360
-0.013779 0.007673 1.025350
-0.012048 0.007674 1.025550
-0.010317 0.007676 1.025770
-0.008584 0.007677 1.025930
-0.006853 0.007682 1.026540
-0.005123 0.007690 1.027600
