1701
0.039111 -0.150971 0.961926
0.040714 -0.150883 0.961366
0.042320 -0.150814 0.960929
0.043925 -0.150748 0.960508
0.045525 -0.150671 0.960012
0.047128 -0.150605 0.959596
0.048703 -0.150460 0.958671
0.050267 -0.150292 0.957601
0.051810 -0.150071 0.956189
0.053369 -0.149910 0.955168
0.054929 -0.149759 0.954205
0.056535 -0.149741 0.954089
0.058701 -0.152797 0.963160
0.058156 -0.149762 0.954225
-0.021976 -0.155856 1.003890
-0.020267 -0.155762 1.003290
-0.018548 -0.155570 1.002050
-0.016826 -0.155308 1.000370
-0.015106 -0.155018 0.998500
-0.013390 -0.154692 0.996398
-0.011680 -0.154352 0.994206
-0.009979 -0.154036 0.992169
-0.008284 -0.153721 0.990142
-0.006597 -0.153404 0.988099
-0.004916 -0.153099 0.986139
-0.003244 -0.152848 0.984518
-0.001577 -0.152610 0.982988
0.000085 -0.152522 0.982421
0.001745 -0.152459 0.982017
0.003403 -0.152396 0.981609
0.005060 -0.152311 0.981063
0.006714 -0.152218 0.980460
0.008360 -0.151999 0.979049
0.009998 -0.151743 0.977405
0.011630 -0.151481 0.975712
0.013257 -0.151218 0.974022
0.014879 -0.150964 0.972386
0.016500 -0.150764 0.971098
0.018126 -0.150628 0.970219
0.019752 -0.150523 0.969541
0.021379 -0.150439 0.969003
0.023005 -0.150359 0.968487
0.024634 -0.150309 0.968165
0.026254 -0.150212 0.967539
0.027874 -0.150125 0.966982
0.029476 -0.149962 0.965931
0.031081 -0.149825 0.965049
0.032683 -0.149689 0.964174
0.034286 -0.149571 0.963414
0.035884 -0.149445 0.962602
0.037489 -0.149358 0.962040
0.039090 -0.149259 0.961401
0.040683 -0.149141 0.960645
0.042279 -0.149043 0.960012
0.043874 -0.148946 0.959389
0.045466 -0.148851 0.958774
0.047061 -0.148768 0.958238
0.048637 -0.148635 0.957384
0.050205 -0.148486 0.956422
0.051753 -0.148286 0.955138
0.053312 -0.148132 0.954143
0.054869 -0.147981 0.953173
0.056461 -0.147929 0.952838
0.058066 -0.147915 0.952746
0.060271 -0.151020 0.962240
0.059678 -0.147918 0.952765
-0.023668 -0.154118 1.003660
-0.021960 -0.154041 1.003150
-0.020253 -0.153952 1.002580
-0.018536 -0.153768 1.001380
-0.016812 -0.153491 0.999576
-0.015094 -0.153203 0.997702
-0.013379 -0.152880 0.995597
-0.011669 -0.152530 0.993317
-0.009970 -0.152231 0.991372
-0.008278 -0.151936 0.989451
-0.006591 -0.151608 0.987310
-0.004913 -0.151309 0.985363
-0.003242 -0.151061 0.983753
-0.001576 -0.150827 0.982225
0.000084 -0.150740 0.981660
0.001743 -0.150691 0.981342
0.003401 -0.150614 0.980843
0.005056 -0.150530 0.980294
0.006708 -0.150422 0.979588
0.008352 -0.150189 0.978070
0.009987 -0.149919 0.976311
0.011618 -0.149673 0.974711
0.013245 -0.149430 0.973131
0.014867 -0.149199 0.971622
0.016489 -0.149018 0.970447
0.018115 -0.148898 0.969663
0.019741 -0.148796 0.969003
0.021368 -0.148715 0.968475
0.022993 -0.148637 0.967963
0.024621 -0.148586 0.967636
0.026242 -0.148502 0.967089
0.027861 -0.148420 0.966550
0.029466 -0.148275 0.965605
0.031074 -0.148156 0.964833
0.032678 -0.148036 0.964052
0.034278 -0.147906 0.963207
0.035875 -0.147778 0.962371
0.037477 -0.147678 0.961717
0.039072 -0.147560 0.960953
0.040660 -0.147431 0.960109
0.042255 -0.147332 0.959463
0.043844 -0.147219 0.958730
0.045429 -0.147103 0.957977
0.047016 -0.147001 0.957314
0.048586 -0.146856 0.956364
0.050153 -0.146710 0.955418
0.051711 -0.146549 0.954368
0.053276 -0.146417 0.953505
0.054835 -0.146273 0.952573
0.056419 -0.146206 0.952134
0.058010 -0.146158 0.951820
0.059619 -0.146159 0.951830
0.061807 -0.149171 0.960833
0.061230 -0.146162 0.951849
-0.023660 -0.152363 1.003310
-0.021951 -0.152278 1.002750
-0.020243 -0.152182 1.002110
-0.018525 -0.151985 1.000810
-0.016801 -0.151690 0.998875
-0.015086 -0.151436 0.997199
-0.013373 -0.151117 0.995103
-0.011664 -0.150775 0.992846
-0.009966 -0.150480 0.990907
-0.008275 -0.150188 0.988982
-0.006588 -0.149850 0.986759
-0.004910 -0.149572 0.984928
-0.003240 -0.149330 0.983331
-0.001575 -0.149097 0.981796
0.000084 -0.149009 0.981221
0.001743 -0.148958 0.980885
0.003398 -0.148852 0.980183
0.005053 -0.148765 0.979614
0.006704 -0.148657 0.978904
0.008346 -0.148426 0.977383
0.009980 -0.148161 0.975633
0.011612 -0.147934 0.974143
0.013237 -0.147697 0.972581
0.014859 -0.147470 0.971087
0.016480 -0.147293 0.969921
0.018107 -0.147190 0.969238
0.019733 -0.147091 0.968590
0.021359 -0.147012 0.968069
0.022983 -0.146934 0.967555
0.024610 -0.146881 0.967206
0.026230 -0.146796 0.966650
0.027849 -0.146714 0.966109
0.029456 -0.146587 0.965272
0.031067 -0.146487 0.964611
0.032674 -0.146383 0.963928
0.034271 -0.146241 0.962992
0.035867 -0.146112 0.962140
0.037467 -0.146010 0.961473
0.039058 -0.145880 0.960614
0.040642 -0.145737 0.959676
0.042231 -0.145621 0.958912
0.043813 -0.145491 0.958054
0.045387 -0.145345 0.957092
0.046963 -0.145215 0.956235
0.048531 -0.145072 0.955295
0.050102 -0.144943 0.954448
0.051671 -0.144819 0.953626
0.053247 -0.144721 0.952986
0.054823 -0.144627 0.952362
0.056408 -0.144563 0.951941
0.057997 -0.144515 0.951624
0.059600 -0.144500 0.951529
0.061203 -0.144486 0.951439
0.062840 -0.146165 0.951865
0.062807 -0.144475 0.951362
0.064455 -0.146178 0.951951
0.064414 -0.144473 0.951351
0.066070 -0.146191 0.952033
0.066014 -0.144455 0.951230
0.068259 -0.147444 0.960195
0.067622 -0.144454 0.951227
-0.023654 -0.150629 1.003080
-0.021944 -0.150529 1.002420
-0.020235 -0.150424 1.001720
-0.018516 -0.150216 1.000330
-0.016791 -0.149908 0.998284
-0.015079 -0.149673 0.996719
-0.013366 -0.149362 0.994644
-0.011658 -0.149025 0.992400
-0.009962 -0.148750 0.990568
-0.008273 -0.148476 0.988748
-0.006586 -0.148145 0.986539
-0.004910 -0.147886 0.984820
-0.003240 -0.147661 0.983320
-0.001575 -0.147415 0.981680
0.000084 -0.147325 0.981085
0.001742 -0.147261 0.980653
0.003398 -0.147153 0.979938
0.005051 -0.147052 0.979266
0.006701 -0.146942 0.978532
0.008342 -0.146699 0.976911
0.009975 -0.146438 0.975174
0.011607 -0.146218 0.973711
0.013232 -0.145986 0.972164
0.014852 -0.145762 0.970675
0.016475 -0.145601 0.969600
0.018103 -0.145513 0.969017
0.019726 -0.145403 0.968279
0.021352 -0.145324 0.967756
0.022975 -0.145244 0.967225
0.024599 -0.145175 0.966766
0.026215 -0.145078 0.966117
0.027833 -0.144997 0.965578
0.029440 -0.144872 0.964748
0.031053 -0.144787 0.964183
0.032660 -0.144688 0.963519
0.034259 -0.144561 0.962678
0.035855 -0.144435 0.961834
0.037459 -0.144348 0.961254
0.039049 -0.144219 0.960396
0.040633 -0.144077 0.959454
0.042213 -0.143934 0.958499
0.043788 -0.143787 0.957523
0.045352 -0.143614 0.956367
0.046917 -0.143455 0.955313
0.048485 -0.143315 0.954374
0.050059 -0.143204 0.953637
0.051632 -0.143094 0.952909
0.053214 -0.143015 0.952383
0.054794 -0.142939 0.951874
0.056374 -0.142863 0.951371
0.057963 -0.142816 0.951052
0.059563 -0.142797 0.950931
0.061164 -0.142783 0.950836
0.062765 -0.142769 0.950739
0.064372 -0.142767 0.950725
0.065971 -0.142748 0.950604
0.067578 -0.142748 0.950605
0.069237 -0.144469 0.951322
0.069193 -0.142766 0.950723
-0.021933 -0.148752 1.001900
-0.020224 -0.148641 1.001150
-0.018507 -0.148447 0.999838
-0.016781 -0.148132 0.997718
-0.015073 -0.147917 0.996274
-0.013362 -0.147627 0.994320
-0.011656 -0.147311 0.992190
-0.009961 -0.147055 0.990467
-0.008273 -0.146800 0.988748
-0.006587 -0.146487 0.986638
-0.004910 -0.146233 0.984926
-0.003240 -0.146011 0.983430
-0.001575 -0.145767 0.981786
0.000084 -0.145662 0.981085
0.001742 -0.145568 0.980449
0.003396 -0.145446 0.979625
0.005049 -0.145329 0.978841
0.006698 -0.145220 0.978106
0.008339 -0.144995 0.976591
0.009973 -0.144755 0.974976
0.011605 -0.144553 0.973612
0.013230 -0.144323 0.972061
0.014850 -0.144099 0.970554
0.016473 -0.143937 0.969463
0.018099 -0.143839 0.968800
0.019720 -0.143714 0.967964
0.021344 -0.143634 0.967424
0.022967 -0.143551 0.966865
0.024587 -0.143470 0.966318
0.026206 -0.143390 0.965780
0.027824 -0.143311 0.965249
0.029433 -0.143202 0.964512
0.031045 -0.143117 0.963941
0.032656 -0.143036 0.963392
0.034252 -0.142900 0.962478
0.035852 -0.142789 0.961732
0.037455 -0.142703 0.961150
0.039045 -0.142577 0.960302
0.040625 -0.142425 0.959277
0.042204 -0.142282 0.958315
0.043771 -0.142107 0.957136
0.045328 -0.141916 0.955853
0.046887 -0.141745 0.954698
0.048453 -0.141605 0.953754
0.050027 -0.141495 0.953017
0.051604 -0.141401 0.952386
0.053185 -0.141324 0.951863
0.054770 -0.141262 0.951447
0.056337 -0.141160 0.950758
0.057913 -0.141083 0.950238
0.059498 -0.141031 0.949893
0.061090 -0.141000 0.949680
0.062678 -0.140959 0.949407
0.064289 -0.140973 0.949498
0.065899 -0.140984 0.949577
0.067511 -0.140997 0.949664
0.069132 -0.141029 0.949880
0.071443 -0.144062 0.959355
0.070769 -0.141092 0.950301
-0.021915 -0.146938 1.001110
-0.020211 -0.146848 1.000490
-0.018499 -0.146687 0.999395
-0.016777 -0.146407 0.997486
-0.015071 -0.146212 0.996163
-0.013362 -0.145942 0.994320
-0.011657 -0.145645 0.992297
-0.009963 -0.145394 0.990586
-0.008274 -0.145157 0.988973
-0.006589 -0.144863 0.986971
-0.004912 -0.144612 0.985262
-0.003241 -0.144379 0.983672
-0.001576 -0.144137 0.982022
0.000084 -0.144018 0.981215
0.001742 -0.143907 0.980455
0.003396 -0.143785 0.979625
0.005049 -0.143669 0.978835
0.006698 -0.143564 0.978122
0.008339 -0.143342 0.976608
0.009974 -0.143105 0.974993
0.011606 -0.142904 0.973624
0.013229 -0.142661 0.971965
0.014849 -0.142437 0.970440
0.016471 -0.142276 0.969342
0.018095 -0.142164 0.968583
0.019714 -0.142026 0.967643
0.021337 -0.141945 0.967086
0.022958 -0.141861 0.966517
0.024579 -0.141782 0.965981
0.026198 -0.141707 0.965465
0.027815 -0.141629 0.964935
0.029426 -0.141532 0.964277
0.031038 -0.141450 0.963713
0.032649 -0.141371 0.963180
0.034249 -0.141253 0.962375
0.035852 -0.141159 0.961732
0.037455 -0.141073 0.961150
0.039049 -0.140964 0.960406
0.040630 -0.140816 0.959395
0.042210 -0.140676 0.958442
0.043771 -0.140485 0.957143
0.045322 -0.140278 0.955729
0.046875 -0.140089 0.954446
0.048430 -0.139922 0.953307
0.049999 -0.139802 0.952486
0.051575 -0.139709 0.951853
0.053154 -0.139631 0.951321
0.054733 -0.139554 0.950801
0.056292 -0.139436 0.949994
0.057859 -0.139341 0.949348
0.059428 -0.139258 0.948785
0.061006 -0.139199 0.948379
0.062586 -0.139146 0.948020
0.064196 -0.139162 0.948128
0.065805 -0.139176 0.948220
0.067421 -0.139202 0.948398
0.069054 -0.139262 0.948810
0.070697 -0.139340 0.949337
0.072394 -0.141127 0.950538
0.072335 -0.139403 0.949773
-0.021906 -0.145179 1.000680
-0.020203 -0.145101 1.000140
-0.018496 -0.144974 0.999266
-0.016775 -0.144700 0.997376
-0.015069 -0.144509 0.996061
-0.013362 -0.144256 0.994320
-0.011659 -0.143979 0.992408
-0.009964 -0.143733 0.990712
-0.008277 -0.143517 0.989223
-0.006592 -0.143242 0.987325
-0.004914 -0.142995 0.985623
-0.003242 -0.142765 0.984037
-0.001576 -0.142523 0.982370
0.000084 -0.142388 0.981445
0.001742 -0.142261 0.980566
0.003397 -0.142152 0.979816
0.005049 -0.142026 0.978947
0.006700 -0.141937 0.978334
0.008341 -0.141720 0.976838
0.009977 -0.141499 0.975311
0.011608 -0.141285 0.973840
0.013232 -0.141043 0.972169
0.014850 -0.140807 0.970544
0.016472 -0.140647 0.969439
0.018095 -0.140521 0.968572
0.019713 -0.140384 0.967626
0.021334 -0.140287 0.966960
0.022955 -0.140205 0.966397
0.024576 -0.140128 0.965864
0.026195 -0.140055 0.965358
0.027812 -0.139979 0.964835
0.029426 -0.139898 0.964279
0.031038 -0.139815 0.963708
0.032649 -0.139738 0.963176
0.034249 -0.139622 0.962375
0.035852 -0.139529 0.961732
0.037455 -0.139444 0.961150
0.039053 -0.139351 0.960507
0.040635 -0.139206 0.959507
0.042211 -0.139055 0.958466
0.043771 -0.138863 0.957145
0.045316 -0.138640 0.955609
0.046858 -0.138423 0.954112
0.048409 -0.138244 0.952879
0.049976 -0.138124 0.952049
0.051546 -0.138018 0.951321
0.053119 -0.137926 0.950683
0.054690 -0.137835 0.950060
0.056236 -0.137689 0.949049
0.057788 -0.137563 0.948186
0.059336 -0.137436 0.947306
0.060903 -0.137358 0.946769
0.062479 -0.137305 0.946406
0.064088 -0.137324 0.946539
0.065696 -0.137340 0.946650
0.067317 -0.137382 0.946936
0.068954 -0.137454 0.947436
0.070597 -0.137534 0.947986
0.072250 -0.137630 0.948645
-0.020207 -0.143430 1.000310
-0.018499 -0.143298 0.999395
-0.016777 -0.143025 0.997486
-0.015068 -0.142806 0.995961
-0.013361 -0.142555 0.994212
-0.011657 -0.142282 0.992304
-0.009963 -0.142040 0.990615
-0.008276 -0.141829 0.989148
-0.006592 -0.141587 0.987461
-0.004915 -0.141346 0.985780
-0.003243 -0.141131 0.984277
-0.001577 -0.140891 0.982605
0.000084 -0.140756 0.981664
0.001742 -0.140615 0.980678
0.003398 -0.140508 0.979934
0.005049 -0.140369 0.978963
0.006700 -0.140282 0.978360
0.008342 -0.140081 0.976958
0.009979 -0.139877 0.975529
0.011612 -0.139681 0.974163
0.013238 -0.139457 0.972603
0.014858 -0.139238 0.971074
0.016481 -0.139079 0.969967
0.018103 -0.138939 0.968994
0.019722 -0.138803 0.968043
0.021341 -0.138693 0.967274
0.022963 -0.138612 0.966709
0.024584 -0.138536 0.966177
0.026203 -0.138463 0.965674
0.027821 -0.138388 0.965151
0.029435 -0.138308 0.964589
0.031045 -0.138213 0.963928
0.032653 -0.138122 0.963294
0.034252 -0.138005 0.962478
0.035852 -0.137898 0.961732
0.037455 -0.137815 0.961150
0.039057 -0.137736 0.960601
0.040639 -0.137594 0.959608
0.042220 -0.137458 0.958664
0.043780 -0.137269 0.957347
0.045321 -0.137035 0.955714
0.046858 -0.136806 0.954113
0.048408 -0.136626 0.952860
0.049965 -0.136479 0.951832
0.051528 -0.136359 0.950995
0.053095 -0.136253 0.950259
0.054654 -0.136135 0.949433
0.056187 -0.135962 0.948226
0.057725 -0.135808 0.947153
0.059258 -0.135652 0.946069
0.060816 -0.135559 0.945415
0.062382 -0.135490 0.944938
0.063988 -0.135508 0.945059
0.065594 -0.135525 0.945178
0.067220 -0.135581 0.945568
0.068855 -0.135654 0.946081
0.070497 -0.135735 0.946647
0.072149 -0.135832 0.947322
-0.021916 -0.141853 1.001150
-0.020211 -0.141763 1.000510
-0.018501 -0.141624 0.999535
-0.016781 -0.141364 0.997700
-0.015069 -0.141132 0.996062
-0.013362 -0.140884 0.994312
-0.011660 -0.140626 0.992491
-0.009966 -0.140401 0.990900
-0.008278 -0.140194 0.989443
-0.006595 -0.139972 0.987874
-0.004917 -0.139734 0.986196
-0.003244 -0.139507 0.984594
-0.001577 -0.139255 0.982811
0.000084 -0.139107 0.981770
0.001742 -0.138954 0.980690
0.003397 -0.138835 0.979851
0.005049 -0.138696 0.978866
0.006699 -0.138609 0.978253
0.008341 -0.138409 0.976844
0.009979 -0.138225 0.975544
0.011614 -0.138049 0.974303
0.013240 -0.137832 0.972774
0.014862 -0.137629 0.971339
0.016487 -0.137487 0.970334
0.018108 -0.137335 0.969265
0.019729 -0.137214 0.968412
0.021351 -0.137119 0.967739
0.022974 -0.137039 0.967172
0.024595 -0.136962 0.966631
0.026221 -0.136917 0.966311
0.027842 -0.136858 0.965894
0.029461 -0.136794 0.965447
0.031072 -0.136701 0.964785
0.032681 -0.136606 0.964119
0.034277 -0.136474 0.963187
0.035874 -0.136352 0.962327
0.037471 -0.136243 0.961554
0.039070 -0.136151 0.960903
0.040652 -0.136008 0.959899
0.042233 -0.135875 0.958961
0.043791 -0.135679 0.957573
0.045332 -0.135449 0.955950
0.046870 -0.135222 0.954348
0.048414 -0.135027 0.952977
0.049960 -0.134854 0.951750
0.051523 -0.134733 0.950896
0.053084 -0.134613 0.950054
0.054630 -0.134468 0.949026
0.056156 -0.134280 0.947702
0.057682 -0.134101 0.946440
0.059195 -0.133907 0.945066
0.060738 -0.133785 0.944206
0.062294 -0.133699 0.943601
0.063891 -0.133703 0.943626
0.065495 -0.133720 0.943749
0.067118 -0.133776 0.944144
0.068758 -0.133860 0.944740
0.070403 -0.133951 0.945381
0.072045 -0.134033 0.945961
-0.021925 -0.140213 1.001560
-0.020220 -0.140133 1.000990
-0.018508 -0.139981 0.999898
-0.016790 -0.139750 0.998252
-0.015076 -0.139506 0.996504
-0.013366 -0.139245 0.994645
-0.011662 -0.138972 0.992693
-0.009968 -0.138750 0.991104
-0.008280 -0.138544 0.989639
-0.006597 -0.138328 0.988094
-0.004918 -0.138092 0.986406
-0.003245 -0.137867 0.984803
-0.001577 -0.137602 0.982907
0.000085 -0.137457 0.981868
0.001742 -0.137306 0.980795
0.003398 -0.137188 0.979949
0.005049 -0.137048 0.978947
0.006700 -0.136958 0.978309
0.008341 -0.136749 0.976815
0.009980 -0.136584 0.975632
0.011615 -0.136415 0.974430
0.013243 -0.136216 0.973004
0.014868 -0.136031 0.971683
0.016495 -0.135904 0.970779
0.018117 -0.135758 0.969732
0.019741 -0.135653 0.968983
0.021362 -0.135544 0.968208
0.022985 -0.135463 0.967630
0.024607 -0.135388 0.967089
0.026234 -0.135346 0.966792
0.027857 -0.135290 0.966393
0.029483 -0.135254 0.966137
0.031095 -0.135162 0.965480
0.032704 -0.135069 0.964810
0.034301 -0.134935 0.963859
0.035898 -0.134812 0.962980
0.037492 -0.134689 0.962096
0.039087 -0.134583 0.961339
0.040669 -0.134440 0.960320
0.042251 -0.134309 0.959381
0.043810 -0.134116 0.958003
0.045349 -0.133878 0.956306
0.046886 -0.133651 0.954684
0.048425 -0.133444 0.953202
0.049966 -0.133257 0.951867
0.051525 -0.133125 0.950925
0.053079 -0.132991 0.949971
0.054614 -0.132818 0.948736
0.056137 -0.132628 0.947378
0.057655 -0.132437 0.946011
0.059163 -0.132232 0.944546
0.060698 -0.132097 0.943585
0.062252 -0.132011 0.942966
0.063834 -0.131985 0.942783
0.065430 -0.131988 0.942807
0.067045 -0.132031 0.943113
0.068675 -0.132099 0.943599
0.070310 -0.132174 0.944134
0.071940 -0.132236 0.944579
0.073724 -0.134178 0.946980
0.073599 -0.132349 0.945382
-0.021939 -0.138605 1.002210
-0.020234 -0.138532 1.001680
-0.018520 -0.138373 1.000530
-0.016802 -0.138153 0.998940
-0.015085 -0.137899 0.997104
-0.013374 -0.137642 0.995240
-0.011668 -0.137355 0.993167
-0.009972 -0.137132 0.991553
-0.008282 -0.136902 0.989896
-0.006598 -0.136689 0.988349
-0.004919 -0.136454 0.986650
-0.003246 -0.136229 0.985026
-0.001577 -0.135965 0.983118
0.000085 -0.135822 0.982081
0.001743 -0.135673 0.981003
0.003398 -0.135527 0.979950
0.005048 -0.135372 0.978830
0.006698 -0.135268 0.978081
0.008340 -0.135075 0.976684
0.009980 -0.134928 0.975617
0.011616 -0.134777 0.974525
0.013247 -0.134607 0.973296
0.014874 -0.134437 0.972066
0.016502 -0.134314 0.971178
0.018125 -0.134173 0.970158
0.019752 -0.134083 0.969510
0.021373 -0.133976 0.968734
0.022997 -0.133896 0.968155
0.024623 -0.133836 0.967723
0.026254 -0.133810 0.967536
0.027881 -0.133770 0.967249
0.029513 -0.133753 0.967123
0.031130 -0.133677 0.966570
0.032738 -0.133573 0.965822
0.034337 -0.133439 0.964854
0.035935 -0.133317 0.963971
0.037526 -0.133180 0.962980
0.039119 -0.133060 0.962113
0.040701 -0.132915 0.961066
0.042284 -0.132783 0.960111
0.043840 -0.132581 0.958647
0.045375 -0.132331 0.956841
0.046907 -0.132091 0.955104
0.048445 -0.131882 0.953597
0.049977 -0.131671 0.952070
0.051531 -0.131529 0.951041
0.053080 -0.131383 0.949990
0.054613 -0.131209 0.948727
0.056130 -0.131006 0.947259
0.057642 -0.130802 0.945785
0.059144 -0.130588 0.944237
0.060677 -0.130453 0.943264
0.062225 -0.130355 0.942550
0.063799 -0.130315 0.942263
0.065393 -0.130317 0.942280
0.067000 -0.130344 0.942475
0.068614 -0.130385 0.942771
0.070225 -0.130416 0.942997
0.071837 -0.130448 0.943223
0.073469 -0.130516 0.943715
0.075277 -0.132489 0.946387
0.075127 -0.130624 0.944498
-0.023658 -0.137045 1.003220
-0.021946 -0.136948 1.002510
-0.020242 -0.136887 1.002070
-0.018527 -0.136730 1.000910
-0.016812 -0.136545 0.999561
-0.015095 -0.136296 0.997741
-0.013381 -0.136025 0.995755
-0.011672 -0.135724 0.993556
-0.009976 -0.135501 0.991917
-0.008284 -0.135246 0.990057
-0.006599 -0.135035 0.988506
-0.004920 -0.134815 0.986899
-0.003247 -0.134592 0.985264
-0.001578 -0.134331 0.983356
0.000085 -0.134189 0.982316
0.001743 -0.134055 0.981332
0.003398 -0.133896 0.980173
0.005050 -0.133756 0.979143
0.006700 -0.133653 0.978390
0.008343 -0.133476 0.977093
0.009983 -0.133317 0.975935
0.011620 -0.133166 0.974829
0.013250 -0.132983 0.973491
0.014876 -0.132814 0.972252
0.016505 -0.132695 0.971383
0.018130 -0.132570 0.970463
0.019760 -0.132496 0.969923
0.021385 -0.132403 0.969244
0.023012 -0.132337 0.968761
0.024641 -0.132292 0.968432
0.026277 -0.132284 0.968370
0.027909 -0.132260 0.968196
0.029545 -0.132257 0.968176
0.031164 -0.132183 0.967631
0.032775 -0.132083 0.966898
0.034375 -0.131952 0.965938
0.035979 -0.131845 0.965156
0.037569 -0.131697 0.964075
0.039159 -0.131564 0.963103
0.040742 -0.131420 0.962043
0.042325 -0.131285 0.961058
0.043874 -0.131058 0.959395
0.045410 -0.130809 0.957573
0.046937 -0.130555 0.955717
0.048470 -0.130333 0.954088
0.049993 -0.130097 0.952364
0.051541 -0.129943 0.951237
0.053091 -0.129799 0.950182
0.054624 -0.129627 0.948918
0.056136 -0.129414 0.947361
0.057648 -0.129212 0.945885
0.059149 -0.129000 0.944330
0.060671 -0.128842 0.943173
0.062212 -0.128731 0.942361
0.063779 -0.128677 0.941966
0.065365 -0.128665 0.941882
0.066964 -0.128678 0.941976
0.068571 -0.128705 0.942169
0.070165 -0.128707 0.942183
0.071758 -0.128707 0.942189
0.073372 -0.128745 0.942461
0.075004 -0.128812 0.942952
0.076754 -0.130675 0.944869
0.076611 -0.128833 0.943108
-0.023661 -0.135364 1.003370
-0.021953 -0.135290 1.002820
-0.020250 -0.135238 1.002430
-0.018534 -0.135083 1.001290
-0.016818 -0.134902 0.999944
-0.015102 -0.134669 0.998219
-0.013388 -0.134401 0.996231
-0.011677 -0.134101 0.994010
-0.009981 -0.133881 0.992373
-0.008288 -0.133640 0.990590
-0.006603 -0.133430 0.989035
-0.004923 -0.133214 0.987433
-0.003248 -0.132994 0.985804
-0.001579 -0.132740 0.983919
0.000085 -0.132585 0.982773
0.001744 -0.132453 0.981794
0.003400 -0.132308 0.980716
0.005054 -0.132185 0.979802
0.006705 -0.132085 0.979067
0.008349 -0.131912 0.977781
0.009990 -0.131753 0.976599
0.011625 -0.131575 0.975284
0.013253 -0.131365 0.973729
0.014880 -0.131196 0.972475
0.016511 -0.131091 0.971695
0.018136 -0.130969 0.970789
0.019769 -0.130911 0.970360
0.021399 -0.130845 0.969875
0.023027 -0.130783 0.969409
0.024658 -0.130741 0.969101
0.026297 -0.130745 0.969127
0.027931 -0.130723 0.968966
0.029568 -0.130719 0.968939
0.031192 -0.130660 0.968498
0.032807 -0.130572 0.967850
0.034417 -0.130471 0.967099
0.036030 -0.130394 0.966526
0.037623 -0.130252 0.965478
0.039216 -0.130121 0.964505
0.040800 -0.129974 0.963412
0.042377 -0.129814 0.962230
0.043918 -0.129561 0.960357
0.045451 -0.129302 0.958438
0.046973 -0.129035 0.956455
0.048497 -0.128787 0.954616
0.050014 -0.128538 0.952771
0.051558 -0.128371 0.951537
0.053107 -0.128228 0.950476
0.054637 -0.128048 0.949138
0.056150 -0.127838 0.947586
0.057662 -0.127641 0.946121
0.059163 -0.127429 0.944554
0.060679 -0.127260 0.943298
0.062219 -0.127148 0.942469
0.063779 -0.127081 0.941973
0.065358 -0.127056 0.941783
0.066951 -0.127056 0.941783
0.068549 -0.127068 0.941875
0.070127 -0.127042 0.941684
0.071718 -0.127039 0.941663
0.073315 -0.127048 0.941730
0.074931 -0.127089 0.942032
0.076528 -0.127096 0.942083
0.078248 -0.128903 0.943620
0.078153 -0.127149 0.942479
-0.021961 -0.133640 1.003190
-0.020258 -0.133594 1.002850
-0.018542 -0.133444 1.001720
-0.016822 -0.133237 1.000170
-0.015105 -0.133004 0.998424
-0.013390 -0.132738 0.996421
-0.011679 -0.132429 0.994105
-0.009981 -0.132198 0.992373
-0.008290 -0.131989 0.990804
-0.006604 -0.131783 0.989255
-0.004924 -0.131571 0.987662
-0.003249 -0.131369 0.986151
-0.001579 -0.131133 0.984379
0.000085 -0.130982 0.983239
0.001745 -0.130864 0.982357
0.003402 -0.130722 0.981289
0.005057 -0.130617 0.980503
0.006710 -0.130522 0.979792
0.008355 -0.130352 0.978514
0.009997 -0.130192 0.977315
0.011633 -0.130012 0.975964
0.013262 -0.129802 0.974384
0.014890 -0.129635 0.973129
0.016522 -0.129531 0.972348
0.018149 -0.129410 0.971444
0.019782 -0.129354 0.971018
0.021412 -0.129280 0.970463
0.023041 -0.129218 0.970004
0.024675 -0.129189 0.969784
0.026319 -0.129207 0.969919
0.027954 -0.129186 0.969758
0.029595 -0.129194 0.969822
0.031223 -0.129147 0.969467
0.032840 -0.129059 0.968808
0.034455 -0.128975 0.968173
0.036079 -0.128928 0.967826
0.037682 -0.128817 0.966987
0.039282 -0.128703 0.966134
0.040873 -0.128568 0.965121
0.042447 -0.128396 0.963828
0.043986 -0.128132 0.961844
0.045511 -0.127848 0.959715
0.047026 -0.127557 0.957531
0.048536 -0.127271 0.955385
0.050047 -0.127007 0.953403
0.051580 -0.126814 0.951955
0.053125 -0.126660 0.950795
0.054656 -0.126482 0.949463
0.056175 -0.126290 0.948018
0.057688 -0.126094 0.946552
0.059190 -0.125885 0.944981
0.060700 -0.125704 0.943625
0.062233 -0.125578 0.942675
0.063786 -0.125498 0.942074
0.065358 -0.125459 0.941783
0.066944 -0.125447 0.941693
0.068529 -0.125434 0.941595
0.070098 -0.125393 0.941290
0.071680 -0.125377 0.941165
0.073269 -0.125374 0.941141
0.074877 -0.125402 0.941353
0.076479 -0.125420 0.941489
0.078096 -0.125461 0.941794
0.080479 -0.128318 0.951139
0.079704 -0.125484 0.941973
-0.021958 -0.131921 1.003060
-0.020256 -0.131880 1.002750
-0.018542 -0.131746 1.001720
-0.016824 -0.131552 1.000250
-0.015108 -0.131335 0.998598
-0.013395 -0.131096 0.996783
-0.011684 -0.130811 0.994614
-0.009987 -0.130600 0.993011
-0.008295 -0.130396 0.991456
-0.006609 -0.130191 0.989902
-0.004927 -0.129982 0.988308
-0.003252 -0.129786 0.986821
-0.001581 -0.129552 0.985042
0.000085 -0.129390 0.983809
0.001746 -0.129271 0.982906
0.003404 -0.129118 0.981745
0.005060 -0.129030 0.981073
0.006714 -0.128942 0.980401
0.008361 -0.128786 0.979220
0.010004 -0.128626 0.977999
0.011642 -0.128459 0.976729
0.013271 -0.128239 0.975062
0.014900 -0.128076 0.973816
0.016533 -0.127973 0.973033
0.018161 -0.127853 0.972127
0.019794 -0.127784 0.971599
0.021426 -0.127722 0.971130
0.023057 -0.127662 0.970674
0.024695 -0.127647 0.970561
0.026340 -0.127665 0.970697
0.027979 -0.127656 0.970625
0.029619 -0.127653 0.970602
0.031251 -0.127617 0.970330
0.032873 -0.127546 0.969787
0.034501 -0.127503 0.969460
0.036135 -0.127488 0.969349
0.037751 -0.127410 0.968753
0.039362 -0.127322 0.968086
0.040956 -0.127190 0.967083
0.042533 -0.127018 0.965772
0.044070 -0.126742 0.963676
0.045593 -0.126447 0.961432
0.047095 -0.126118 0.958930
0.048590 -0.125792 0.956452
0.050087 -0.125490 0.954158
0.051604 -0.125258 0.952389
0.053144 -0.125092 0.951129
0.054679 -0.124927 0.949872
0.056206 -0.124750 0.948532
0.057720 -0.124558 0.947073
0.059228 -0.124364 0.945593
0.060733 -0.124171 0.944130
0.062253 -0.124021 0.942984
0.063799 -0.123927 0.942270
0.065365 -0.123875 0.941875
0.066937 -0.123838 0.941595
0.068514 -0.123811 0.941390
0.070075 -0.123758 0.940984
0.071649 -0.123728 0.940758
0.073231 -0.123714 0.940650
0.074838 -0.123742 0.940867
0.076448 -0.123773 0.941098
0.078072 -0.123825 0.941498
0.079697 -0.123877 0.941892
0.082065 -0.126671 0.950880
0.081316 -0.123918 0.942207
-0.021954 -0.130198 1.002880
-0.020252 -0.130154 1.002540
-0.018540 -0.130032 1.001600
-0.016824 -0.129856 1.000250
-0.015109 -0.129656 0.998707
-0.013398 -0.129437 0.997021
-0.011689 -0.129173 0.994982
-0.009992 -0.128981 0.993502
-0.008300 -0.128793 0.992054
-0.006613 -0.128603 0.990594
-0.004931 -0.128410 0.989106
-0.003255 -0.128228 0.987706
-0.001582 -0.127998 0.985933
0.000085 -0.127836 0.984683
0.001748 -0.127703 0.983659
0.003406 -0.127550 0.982483
0.005064 -0.127462 0.981803
0.006720 -0.127387 0.981229
0.008369 -0.127236 0.980064
0.010014 -0.127090 0.978940
0.011655 -0.126939 0.977780
0.013284 -0.126713 0.976038
0.014914 -0.126541 0.974713
0.016549 -0.126439 0.973929
0.018177 -0.126317 0.972985
0.019807 -0.126221 0.972247
0.021443 -0.126172 0.971867
0.023075 -0.126112 0.971407
0.024714 -0.126098 0.971296
0.026357 -0.126103 0.971339
0.027997 -0.126095 0.971276
0.029636 -0.126080 0.971162
0.031269 -0.126047 0.970903
0.032900 -0.126004 0.970576
0.034537 -0.125991 0.970473
0.036182 -0.126007 0.970595
0.037808 -0.125957 0.970216
0.039430 -0.125899 0.969768
0.041032 -0.125784 0.968877
0.042616 -0.125625 0.967659
0.044165 -0.125379 0.965757
0.045694 -0.125096 0.963577
0.047199 -0.124768 0.961054
0.048681 -0.124403 0.958245
0.050162 -0.124059 0.955594
0.051653 -0.123762 0.953301
0.053177 -0.123557 0.951726
0.054702 -0.123368 0.950274
0.056230 -0.123196 0.948946
0.057746 -0.123008 0.947494
0.059262 -0.122829 0.946121
0.060760 -0.122626 0.944554
0.062274 -0.122463 0.943298
0.063813 -0.122355 0.942469
0.065372 -0.122291 0.941973
0.066930 -0.122229 0.941495
0.068498 -0.122187 0.941175
0.070057 -0.122131 0.940745
0.071623 -0.122089 0.940421
0.073199 -0.122066 0.940239
0.074812 -0.122104 0.940535
0.076429 -0.122148 0.940874
0.078055 -0.122202 0.941289
0.079705 -0.122292 0.941984
0.081350 -0.122372 0.942602
-0.021948 -0.128462 1.002600
-0.020245 -0.128409 1.002190
-0.018531 -0.128273 1.001120
-0.016817 -0.128108 0.999835
-0.015104 -0.127914 0.998320
-0.013398 -0.127743 0.996991
-0.011691 -0.127512 0.995186
-0.009996 -0.127352 0.993934
-0.008306 -0.127204 0.992779
-0.006619 -0.127042 0.991515
-0.004936 -0.126852 0.990032
-0.003258 -0.126687 0.988748
-0.001584 -0.126460 0.986973
0.000085 -0.126283 0.985593
0.001749 -0.126135 0.984437
0.003409 -0.125966 0.983119
0.005067 -0.125866 0.982335
0.006723 -0.125792 0.981759
0.008374 -0.125656 0.980699
0.010022 -0.125527 0.979693
0.011667 -0.125407 0.978759
0.013301 -0.125213 0.977239
0.014934 -0.125057 0.976026
0.016569 -0.124941 0.975118
0.018197 -0.124803 0.974043
0.019824 -0.124679 0.973074
0.021458 -0.124617 0.972591
0.023090 -0.124547 0.972042
0.024730 -0.124534 0.971941
0.026372 -0.124525 0.971875
0.028010 -0.124503 0.971703
0.029648 -0.124486 0.971566
0.031286 -0.124468 0.971428
0.032922 -0.124442 0.971226
0.034572 -0.124472 0.971457
0.036227 -0.124517 0.971809
0.037860 -0.124483 0.971541
0.039488 -0.124439 0.971201
0.041097 -0.124337 0.970405
0.042689 -0.124197 0.969315
0.044255 -0.123993 0.967721
0.045799 -0.123744 0.965778
0.047312 -0.123433 0.963350
0.048786 -0.123043 0.960309
0.050256 -0.122669 0.957385
0.051725 -0.122316 0.954631
0.053222 -0.122047 0.952532
0.054731 -0.121822 0.950779
0.056265 -0.121663 0.949537
0.057778 -0.121468 0.948017
0.059295 -0.121294 0.946654
0.060794 -0.121092 0.945080
0.062302 -0.120917 0.943717
0.063827 -0.120784 0.942675
0.065379 -0.120707 0.942074
0.066923 -0.120620 0.941397
0.068484 -0.120565 0.940970
0.070041 -0.120508 0.940520
0.071598 -0.120454 0.940096
0.073165 -0.120417 0.939810
0.074778 -0.120456 0.940113
0.076402 -0.120510 0.940536
0.078029 -0.120566 0.940977
0.079688 -0.120670 0.941786
0.081350 -0.120775 0.942602
-0.020237 -0.126661 1.001800
-0.018523 -0.126524 1.000710
-0.016812 -0.126381 0.999579
-0.015102 -0.126205 0.998193
-0.013398 -0.126055 0.997004
-0.011694 -0.125855 0.995419
-0.010000 -0.125711 0.994286
-0.008309 -0.125567 0.993144
-0.006623 -0.125423 0.992007
-0.004939 -0.125263 0.990741
-0.003260 -0.125105 0.989488
-0.001585 -0.124881 0.987720
0.000085 -0.124717 0.986423
0.001750 -0.124569 0.985247
0.003411 -0.124375 0.983719
0.005069 -0.124260 0.982806
0.006726 -0.124186 0.982219
0.008377 -0.124039 0.981062
0.010026 -0.123916 0.980086
0.011674 -0.123826 0.979372
0.013313 -0.123673 0.978168
0.014950 -0.123534 0.977066
0.016586 -0.123417 0.976136
0.018218 -0.123290 0.975133
0.019844 -0.123152 0.974041
0.021476 -0.123066 0.973366
0.023106 -0.122984 0.972713
0.024747 -0.122971 0.972610
0.026386 -0.122946 0.972415
0.028027 -0.122934 0.972318
0.029670 -0.122928 0.972268
0.031312 -0.122924 0.972239
0.032953 -0.122913 0.972156
0.034606 -0.122945 0.972408
0.036263 -0.122990 0.972764
0.037900 -0.122968 0.972589
0.039531 -0.122926 0.972255
0.041145 -0.122838 0.971563
0.042750 -0.122728 0.970692
0.044333 -0.122569 0.969435
0.045897 -0.122369 0.967854
0.047431 -0.122107 0.965781
0.048901 -0.121701 0.962566
0.050356 -0.121286 0.959286
0.051801 -0.120875 0.956033
0.053263 -0.120526 0.953274
0.054750 -0.120252 0.951108
0.056290 -0.120106 0.949955
0.057809 -0.119927 0.948540
0.059328 -0.119757 0.947188
0.060828 -0.119557 0.945612
0.062329 -0.119370 0.944131
0.063841 -0.119212 0.942883
0.065385 -0.119122 0.942172
0.066917 -0.119013 0.941307
0.068470 -0.118947 0.940782
0.070025 -0.118888 0.940315
0.071576 -0.118822 0.939797
0.073135 -0.118774 0.939413
0.074746 -0.118811 0.939706
0.076375 -0.118874 0.940210
0.078003 -0.118932 0.940665
0.079662 -0.119035 0.941482
0.081333 -0.119151 0.942396
0.083781 -0.121994 0.952119
0.082991 -0.119244 0.943136
-0.020234 -0.124946 1.001660
-0.018520 -0.124804 1.000530
-0.016813 -0.124688 0.999592
-0.015104 -0.124530 0.998327
-0.013401 -0.124397 0.997261
-0.011699 -0.124226 0.995894
-0.010006 -0.124099 0.994874
-0.008314 -0.123947 0.993655
-0.006627 -0.123821 0.992642
-0.004943 -0.123680 0.991512
-0.003263 -0.123525 0.990272
-0.001586 -0.123318 0.988610
0.000085 -0.123157 0.987322
0.001752 -0.122998 0.986047
0.003414 -0.122808 0.984520
0.005073 -0.122681 0.983507
0.006730 -0.122593 0.982797
0.008382 -0.122446 0.981622
0.010031 -0.122324 0.980643
0.011681 -0.122237 0.979948
0.013324 -0.122114 0.978957
0.014963 -0.121980 0.977882
0.016600 -0.121867 0.976979
0.018235 -0.121752 0.976058
0.019860 -0.121602 0.974851
0.021491 -0.121504 0.974067
0.023122 -0.121422 0.973409
0.024762 -0.121394 0.973184
0.026396 -0.121344 0.972783
0.028037 -0.121328 0.972659
0.029677 -0.121310 0.972516
0.031321 -0.121308 0.972497
0.032966 -0.121312 0.972527
0.034622 -0.121354 0.972868
0.036279 -0.121396 0.973204
0.037921 -0.121385 0.973116
0.039556 -0.121355 0.972871
0.041172 -0.121271 0.972197
0.042791 -0.121199 0.971623
0.044395 -0.121096 0.970796
0.045983 -0.120956 0.969674
0.047545 -0.120758 0.968086
0.049054 -0.120445 0.965581
0.050514 -0.120035 0.962292
0.051940 -0.119574 0.958593
0.053374 -0.119158 0.955258
0.054836 -0.118826 0.952601
0.056337 -0.118595 0.950751
0.057841 -0.118385 0.949064
0.059362 -0.118218 0.947724
0.060868 -0.118032 0.946232
0.062357 -0.117822 0.944547
0.063855 -0.117640 0.943093
0.065385 -0.117525 0.942173
0.066909 -0.117404 0.941200
0.068455 -0.117327 0.940584
0.070005 -0.117259 0.940036
0.071561 -0.117206 0.939609
0.073120 -0.117157 0.939222
0.074722 -0.117181 0.939411
0.076351 -0.117242 0.939905
0.077984 -0.117309 0.940438
0.079636 -0.117401 0.941176
0.081314 -0.117526 0.942181
0.082980 -0.117629 0.943006
0.085468 -0.120489 0.952978
0.084658 -0.117747 0.943948
-0.023651 -0.125106 1.002950
-0.023661 -0.123459 1.003370
-0.021949 -0.123368 1.002640
-0.020239 -0.123277 1.001900
-0.018522 -0.123122 1.000640
-0.016812 -0.122992 0.999581
-0.015105 -0.122851 0.998434
-0.013403 -0.122719 0.997366
-0.011701 -0.122552 0.996003
-0.010007 -0.122424 0.994967
-0.008315 -0.122287 0.993855
-0.006628 -0.122164 0.992852
-0.004945 -0.122038 0.991829
-0.003264 -0.121900 0.990704
-0.001587 -0.121720 0.989247
0.000085 -0.121576 0.988074
0.001753 -0.121435 0.986926
0.003417 -0.121262 0.985525
0.005077 -0.121124 0.984402
0.006736 -0.121021 0.983563
0.008387 -0.120860 0.982252
0.010037 -0.120725 0.981153
0.011686 -0.120626 0.980349
0.013333 -0.120531 0.979578
0.014972 -0.120402 0.978531
0.016612 -0.120294 0.977657
0.018250 -0.120196 0.976854
0.019877 -0.120048 0.975652
0.021506 -0.119937 0.974755
0.023138 -0.119853 0.974073
0.024776 -0.119811 0.973726
0.026406 -0.119736 0.973123
0.028044 -0.119709 0.972899
0.029685 -0.119693 0.972772
0.031329 -0.119692 0.972764
0.032975 -0.119696 0.972792
0.034631 -0.119736 0.973116
0.036287 -0.119773 0.973424
0.037929 -0.119762 0.973327
0.039565 -0.119733 0.973097
0.041187 -0.119665 0.972546
0.042815 -0.119619 0.972170
0.044439 -0.119567 0.971742
0.046053 -0.119493 0.971142
0.047649 -0.119378 0.970212
0.049197 -0.119155 0.968397
0.050685 -0.118805 0.965556
0.052100 -0.118312 0.961544
0.053501 -0.117818 0.957528
0.054922 -0.117394 0.954085
0.056385 -0.117084 0.951563
0.057861 -0.116816 0.949386
0.059382 -0.116652 0.948052
0.060896 -0.116480 0.946660
0.062390 -0.116283 0.945057
0.063882 -0.116091 0.943495
0.065405 -0.115963 0.942456
0.066928 -0.115841 0.941463
0.068467 -0.115753 0.940748
0.070011 -0.115676 0.940119
0.071568 -0.115624 0.939699
0.073127 -0.115576 0.939313
0.074715 -0.115576 0.939313
0.076342 -0.115636 0.939797
0.077974 -0.115701 0.940325
0.079627 -0.115792 0.941061
0.081305 -0.115916 0.942073
0.082986 -0.116040 0.943084
0.084674 -0.116169 0.944128
0.087150 -0.118971 0.953759
0.086366 -0.116298 0.945175
-0.023666 -0.121784 1.003590
-0.021953 -0.121692 1.002830
-0.020244 -0.121612 1.002180
-0.018528 -0.121466 1.000970
-0.016817 -0.121330 0.999853
-0.015111 -0.121207 0.998834
-0.013409 -0.121079 0.997784
-0.011707 -0.120925 0.996509
-0.010010 -0.120784 0.995346
-0.008318 -0.120644 0.994198
-0.006630 -0.120508 0.993079
-0.004946 -0.120385 0.992058
-0.003265 -0.120234 0.990819
-0.001588 -0.120070 0.989461
0.000085 -0.119929 0.988306
0.001754 -0.119806 0.987293
0.003419 -0.119650 0.986003
0.005080 -0.119514 0.984880
0.006738 -0.119398 0.983929
0.008389 -0.119222 0.982475
0.010038 -0.119073 0.981252
0.011685 -0.118962 0.980335
0.013335 -0.118892 0.979761
0.014977 -0.118779 0.978827
0.016619 -0.118688 0.978076
0.018258 -0.118591 0.977279
0.019887 -0.118457 0.976176
0.021513 -0.118325 0.975083
0.023146 -0.118241 0.974393
0.024781 -0.118186 0.973942
0.026411 -0.118112 0.973327
0.028047 -0.118072 0.973003
0.029691 -0.118068 0.972965
0.031336 -0.118068 0.972965
0.032982 -0.118072 0.973003
0.034638 -0.118112 0.973327
0.036295 -0.118148 0.973625
0.037937 -0.118136 0.973528
0.039574 -0.118111 0.973320
0.041201 -0.118058 0.972886
0.042835 -0.118028 0.972634
0.044473 -0.118011 0.972497
0.046104 -0.117977 0.972220
0.047723 -0.117918 0.971729
0.049308 -0.117779 0.970584
0.050841 -0.117529 0.968528
0.052297 -0.117124 0.965189
0.053681 -0.116586 0.960756
0.055070 -0.116089 0.956659
0.056493 -0.115692 0.953385
0.057926 -0.115335 0.950444
0.059402 -0.115082 0.948357
0.060922 -0.114926 0.947074
0.062424 -0.114744 0.945575
0.063912 -0.114545 0.943932
0.065434 -0.114415 0.942866
0.066955 -0.114292 0.941847
0.068488 -0.114193 0.941035
0.070033 -0.114118 0.940413
0.071598 -0.114078 0.940083
0.073150 -0.114020 0.939609
0.074731 -0.114008 0.939511
0.076357 -0.114066 0.939985
0.077982 -0.114118 0.940415
0.079619 -0.114186 0.940977
0.081297 -0.114308 0.941985
0.082987 -0.114443 0.943095
0.084676 -0.114571 0.944149
0.086377 -0.114710 0.945298
0.088061 -0.116426 0.946217
0.088081 -0.114848 0.946433
0.089738 -0.116527 0.947038
0.089759 -0.114948 0.947260
0.092287 -0.117736 0.956867
0.091458 -0.115070 0.948266
-0.023677 -0.120135 1.004030
-0.021967 -0.120069 1.003470
-0.020258 -0.119994 1.002850
-0.018543 -0.119869 1.001810
-0.016833 -0.119748 1.000790
-0.015127 -0.119639 0.999882
-0.013420 -0.119491 0.998641
-0.011717 -0.119337 0.997357
-0.010017 -0.119169 0.995950
-0.008321 -0.119003 0.994567
-0.006631 -0.118842 0.993219
-0.004947 -0.118718 0.992182
-0.003265 -0.118556 0.990830
-0.001588 -0.118406 0.989576
0.000085 -0.118280 0.988524
0.001755 -0.118173 0.987628
0.003420 -0.118032 0.986452
0.005083 -0.117911 0.985438
0.006741 -0.117783 0.984372
0.008392 -0.117596 0.982805
0.010040 -0.117435 0.981464
0.011687 -0.117312 0.980433
0.013335 -0.117232 0.979761
0.014978 -0.117131 0.978917
0.016622 -0.117053 0.978267
0.018263 -0.116969 0.977567
0.019893 -0.116838 0.976471
0.021520 -0.116706 0.975372
0.023150 -0.116612 0.974584
0.024783 -0.116546 0.974032
0.026411 -0.116460 0.973317
0.028046 -0.116420 0.972976
0.029686 -0.116401 0.972820
0.031328 -0.116389 0.972716
0.032970 -0.116383 0.972667
0.034623 -0.116411 0.972904
0.036276 -0.116436 0.973116
0.037921 -0.116436 0.973116
0.039566 -0.116436 0.973116
0.041198 -0.116400 0.972808
0.042846 -0.116407 0.972872
0.044499 -0.116429 0.973056
0.046146 -0.116434 0.973096
0.047787 -0.116426 0.973029
0.049417 -0.116390 0.972727
0.050990 -0.116227 0.971365
0.052488 -0.115909 0.968704
0.053913 -0.115453 0.964895
0.055277 -0.114898 0.960260
0.056651 -0.114395 0.956057
0.058030 -0.113929 0.952162
0.059461 -0.113587 0.949304
0.060942 -0.113357 0.947376
0.062459 -0.113205 0.946105
0.063955 -0.113021 0.944570
0.065492 -0.112917 0.943703
0.067021 -0.112806 0.942770
0.068555 -0.112708 0.941956
0.070095 -0.112623 0.941243
0.071659 -0.112581 0.940895
0.073197 -0.112500 0.940218
0.074770 -0.112475 0.940012
0.076383 -0.112510 0.940298
0.078000 -0.112549 0.940627
0.079636 -0.112615 0.941179
0.081322 -0.112747 0.942278
0.083015 -0.112882 0.943412
0.084713 -0.113020 0.944562
0.086425 -0.113170 0.945820
0.088129 -0.113306 0.946953
0.089810 -0.113406 0.947791
0.091510 -0.113528 0.948811
0.093997 -0.116228 0.957805
0.093198 -0.113631 0.949667
-0.023690 -0.118500 1.004590
-0.021982 -0.118450 1.004170
-0.020272 -0.118377 1.003550
-0.018557 -0.118255 1.002520
-0.016848 -0.118160 1.001710
-0.015141 -0.118054 1.000810
-0.013431 -0.117896 0.999470
-0.011726 -0.117742 0.998169
-0.010023 -0.117561 0.996634
-0.008326 -0.117384 0.995131
-0.006633 -0.117198 0.993555
-0.004948 -0.117062 0.992406
-0.003265 -0.116889 0.990938
-0.001588 -0.116752 0.989776
0.000085 -0.116629 0.988731
0.001755 -0.116537 0.987950
0.003422 -0.116411 0.986881
0.005085 -0.116303 0.985966
0.006744 -0.116167 0.984812
0.008396 -0.115982 0.983246
0.010044 -0.115823 0.981897
0.011692 -0.115701 0.980868
0.013339 -0.115610 0.980094
0.014983 -0.115510 0.979246
0.016626 -0.115420 0.978483
0.018265 -0.115325 0.977677
0.019895 -0.115195 0.976574
0.021522 -0.115064 0.975468
0.023152 -0.114972 0.974686
0.024786 -0.114907 0.974133
0.026413 -0.114821 0.973406
0.028043 -0.114757 0.972860
0.029679 -0.114724 0.972587
0.031316 -0.114698 0.972364
0.032955 -0.114679 0.972204
0.034603 -0.114696 0.972344
0.036255 -0.114721 0.972555
0.037899 -0.114721 0.972555
0.039552 -0.114744 0.972756
0.041188 -0.114723 0.972574
0.042845 -0.114758 0.972870
0.044519 -0.114831 0.973490
0.046186 -0.114886 0.973959
0.047842 -0.114908 0.974143
0.049513 -0.114965 0.974623
0.051138 -0.114914 0.974191
0.052686 -0.114697 0.972354
0.054169 -0.114357 0.969476
0.055590 -0.113911 0.965691
0.056984 -0.113436 0.961666
0.058307 -0.112850 0.956699
0.059679 -0.112389 0.952791
0.061100 -0.112041 0.949841
0.062563 -0.111785 0.947671
0.063999 -0.111496 0.945218
0.065545 -0.111408 0.944472
0.067082 -0.111310 0.943637
0.068613 -0.111205 0.942749
0.070146 -0.111108 0.941931
0.071711 -0.111066 0.941568
0.073248 -0.110983 0.940865
0.074814 -0.110946 0.940557
0.076418 -0.110966 0.940727
0.078027 -0.110993 0.940954
0.079662 -0.111055 0.941479
0.081349 -0.111185 0.942580
0.083042 -0.111319 0.943719
0.084752 -0.111469 0.944988
0.086474 -0.111630 0.946351
0.088179 -0.111764 0.947492
0.089861 -0.111863 0.948333
0.091561 -0.111982 0.949341
0.093249 -0.112082 0.950184
0.094921 -0.113771 0.950842
0.094972 -0.112220 0.951353
0.097555 -0.114981 0.960954
0.096721 -0.112383 0.952733
-0.023696 -0.116825 1.004840
-0.021989 -0.116785 1.004490
-0.020280 -0.116721 1.003940
-0.018566 -0.116613 1.003010
-0.016858 -0.116530 1.002300
-0.015150 -0.116424 1.001390
-0.013437 -0.116255 0.999932
-0.011732 -0.116103 0.998623
-0.010027 -0.115911 0.996974
-0.008328 -0.115723 0.995359
-0.006634 -0.115528 0.993676
-0.004948 -0.115393 0.992515
-0.003265 -0.115209 0.990938
-0.001588 -0.115074 0.989776
0.000085 -0.114954 0.988739
0.001755 -0.114875 0.988064
0.003422 -0.114753 0.987009
0.005087 -0.114660 0.986215
0.006747 -0.114537 0.985157
0.008400 -0.114368 0.983705
0.010049 -0.114212 0.982360
0.011699 -0.114106 0.981447
0.013346 -0.114002 0.980557
0.014990 -0.113903 0.979704
0.016632 -0.113802 0.978829
0.018270 -0.113696 0.977925
0.019898 -0.113555 0.976710
0.021525 -0.113427 0.975604
0.023153 -0.113322 0.974706
0.024787 -0.113257 0.974148
0.026414 -0.113173 0.973421
0.028041 -0.113098 0.972775
0.029673 -0.113053 0.972390
0.031306 -0.113012 0.972039
0.032939 -0.112977 0.971740
0.034583 -0.112980 0.971759
0.036233 -0.113003 0.971960
0.037876 -0.113003 0.971960
0.039532 -0.113039 0.972268
0.041173 -0.113031 0.972204
0.042835 -0.113082 0.972638
0.044523 -0.113192 0.973583
0.046213 -0.113300 0.974512
0.047886 -0.113361 0.975036
0.049572 -0.113446 0.975772
0.051231 -0.113467 0.975948
0.052827 -0.113352 0.974959
0.054372 -0.113138 0.973123
0.055850 -0.112801 0.970220
0.057315 -0.112456 0.967258
0.058675 -0.111930 0.962734
0.059995 -0.111360 0.957825
0.061341 -0.110867 0.953587
0.062745 -0.110500 0.950433
0.064125 -0.110110 0.947082
0.065617 -0.109927 0.945504
0.067164 -0.109844 0.944785
0.068703 -0.109751 0.943991
0.070231 -0.109644 0.943070
0.071783 -0.109579 0.942514
0.073304 -0.109472 0.941594
0.074863 -0.109424 0.941179
0.076452 -0.109421 0.941155
0.078053 -0.109435 0.941273
0.079695 -0.109505 0.941870
0.081383 -0.109634 0.942982
0.083080 -0.109769 0.944143
0.084799 -0.109929 0.945522
0.086530 -0.110097 0.946968
0.088229 -0.110220 0.948025
0.089901 -0.110305 0.948755
0.091601 -0.110420 0.949747
0.093278 -0.110506 0.950482
0.094990 -0.110628 0.951534
0.096737 -0.110787 0.952897
0.099372 -0.113573 0.962822
0.098481 -0.110936 0.954180
-0.023704 -0.115164 1.005210
-0.021999 -0.115131 1.004920
-0.020289 -0.115071 1.004400
-0.018574 -0.114966 1.003480
-0.016868 -0.114895 1.002860
-0.015158 -0.114789 1.001940
-0.013445 -0.114622 1.000470
-0.011738 -0.114471 0.999160
-0.010032 -0.114282 0.997510
-0.008331 -0.114086 0.995792
-0.006636 -0.113880 0.993999
-0.004949 -0.113734 0.992725
-0.003266 -0.113541 0.991040
-0.001588 -0.113396 0.989776
0.000085 -0.113289 0.988842
0.001756 -0.113214 0.988186
0.003423 -0.113107 0.987248
0.005088 -0.113028 0.986557
0.006749 -0.112907 0.985507
0.008403 -0.112742 0.984061
0.010053 -0.112588 0.982720
0.011702 -0.112473 0.981717
0.013348 -0.112360 0.980731
0.014993 -0.112261 0.979866
0.016632 -0.112147 0.978869
0.018270 -0.112042 0.977958
0.019899 -0.111902 0.976736
0.021526 -0.111776 0.975632
0.023154 -0.111673 0.974734
0.024787 -0.111607 0.974161
0.026417 -0.111535 0.973532
0.028047 -0.111474 0.972993
0.029678 -0.111420 0.972527
0.031306 -0.111365 0.972049
0.032935 -0.111315 0.971611
0.034570 -0.111291 0.971399
0.036212 -0.111291 0.971399
0.037854 -0.111291 0.971399
0.039509 -0.111327 0.971715
0.041154 -0.111331 0.971752
0.042820 -0.111394 0.972297
0.044522 -0.111539 0.973559
0.046228 -0.111684 0.974828
0.047920 -0.111786 0.975719
0.049624 -0.111909 0.976797
0.051306 -0.111976 0.977380
0.052952 -0.111964 0.977277
0.054564 -0.111881 0.976552
0.056116 -0.111685 0.974839
0.057649 -0.111461 0.972885
0.061683 -0.109859 0.958903
0.063014 -0.109356 0.954505
0.064332 -0.108856 0.950143
0.065760 -0.108561 0.947566
0.067251 -0.108382 0.946006
0.068798 -0.108300 0.945293
0.070327 -0.108194 0.944367
0.071872 -0.108117 0.943692
0.073382 -0.107991 0.942591
0.074934 -0.107930 0.942065
0.076509 -0.107906 0.941849
0.078102 -0.107907 0.941858
0.079737 -0.107966 0.942373
0.081427 -0.108094 0.943490
0.083125 -0.108228 0.944662
0.084846 -0.108386 0.946046
0.086577 -0.108551 0.947487
0.088268 -0.108660 0.948438
0.089930 -0.108732 0.949059
0.091620 -0.108833 0.949946
0.093287 -0.108905 0.950574
0.094971 -0.108993 0.951337
0.096704 -0.109134 0.952576
0.098434 -0.109267 0.953730
0.100197 -0.111050 0.955163
0.100170 -0.109402 0.954908
-0.023712 -0.113497 1.005530
-0.022007 -0.113472 1.005310
-0.020298 -0.113418 1.004830
-0.018581 -0.113305 1.003830
-0.016873 -0.113234 1.003200
-0.015162 -0.113117 1.002170
-0.013446 -0.112940 1.000600
-0.011738 -0.112781 0.999186
-0.010034 -0.112607 0.997645
-0.008333 -0.112414 0.995933
-0.006637 -0.112210 0.994134
-0.004950 -0.112065 0.992845
-0.003266 -0.111885 0.991248
-0.001588 -0.111731 0.989884
0.000085 -0.111638 0.989058
0.001756 -0.111575 0.988506
0.003424 -0.111481 0.987671
0.005091 -0.111405 0.986998
0.006753 -0.111298 0.986052
0.008407 -0.111134 0.984600
0.010058 -0.110984 0.983264
0.011708 -0.110868 0.982242
0.013354 -0.110745 0.981153
0.014998 -0.110635 0.980172
0.016636 -0.110509 0.979062
0.018272 -0.110394 0.978042
0.019898 -0.110245 0.976721
0.021525 -0.110121 0.975618
0.023153 -0.110019 0.974717
0.024787 -0.109955 0.974155
0.026419 -0.109896 0.973633
0.028053 -0.109849 0.973212
0.029682 -0.109788 0.972667
0.031307 -0.109722 0.972085
0.032932 -0.109658 0.971522
0.034559 -0.109610 0.971091
0.036193 -0.109587 0.970891
0.037834 -0.109587 0.970891
0.039488 -0.109622 0.971199
0.041131 -0.109625 0.971232
0.042806 -0.109708 0.971960
0.044516 -0.109875 0.973439
0.046237 -0.110054 0.975032
0.047946 -0.110194 0.976265
0.049668 -0.110352 0.977668
0.051358 -0.110433 0.978384
0.053013 -0.110434 0.978393
0.054680 -0.110461 0.978630
0.056300 -0.110393 0.978032
0.057902 -0.110294 0.977154
0.059076 -0.111054 0.969326
0.059402 -0.110013 0.974669
0.063356 -0.108322 0.959686
0.064615 -0.107716 0.954319
0.065974 -0.107302 0.950651
0.067406 -0.107026 0.948197
0.068895 -0.106848 0.946629
0.070426 -0.106743 0.945691
0.071966 -0.106656 0.944921
0.073476 -0.106529 0.943795
0.075013 -0.106447 0.943069
0.076582 -0.106411 0.942749
0.078176 -0.106411 0.942752
0.079814 -0.106470 0.943275
0.081506 -0.106597 0.944401
0.083207 -0.106731 0.945587
0.084919 -0.106874 0.946855
0.086633 -0.107014 0.948092
0.088304 -0.107097 0.948833
0.089957 -0.107156 0.949350
