1675
0.053881 -0.069389 0.860214
0.053850 -0.067892 0.859718
0.055370 -0.069433 0.860758
0.055344 -0.067941 0.860347
0.056848 -0.069461 0.861106
0.056833 -0.067983 0.860872
0.058336 -0.069500 0.861584
0.058338 -0.068041 0.861610
-0.102247 -0.069809 0.903392
-0.100532 -0.069680 0.901715
-0.098838 -0.069560 0.900171
-0.097104 -0.069408 0.898204
-0.095337 -0.069228 0.895867
-0.093602 -0.069065 0.893762
-0.091827 -0.068867 0.891199
-0.090072 -0.068677 0.888745
-0.088347 -0.068505 0.886516
-0.086648 -0.068347 0.884473
-0.084938 -0.068174 0.882237
-0.083262 -0.068024 0.880287
-0.081591 -0.067872 0.878325
-0.079933 -0.067725 0.876427
-0.078283 -0.067580 0.874541
-0.076642 -0.067437 0.872688
-0.075029 -0.067313 0.871090
-0.073422 -0.067191 0.869505
-0.071809 -0.067056 0.867771
-0.070206 -0.066927 0.866097
-0.068629 -0.066817 0.864675
-0.067060 -0.066710 0.863289
-0.065523 -0.066631 0.862268
-0.064020 -0.066584 0.861662
-0.062533 -0.066552 0.861242
-0.061059 -0.066533 0.860995
-0.059598 -0.066527 0.860919
-0.058127 -0.066508 0.860676
-0.056644 -0.066475 0.860251
-0.055144 -0.066421 0.859549
-0.053642 -0.066360 0.858759
-0.052133 -0.066288 0.857820
-0.050633 -0.066222 0.856975
-0.049145 -0.066169 0.856290
-0.047668 -0.066129 0.855767
-0.046181 -0.066072 0.855025
-0.044704 -0.066025 0.854423
-0.043237 -0.065990 0.853964
-0.041779 -0.065968 0.853691
-0.040329 -0.065957 0.853541
-0.038887 -0.065959 0.853563
-0.037437 -0.065947 0.853408
-0.035987 -0.065932 0.853217
-0.034527 -0.065899 0.852796
-0.033073 -0.065874 0.852465
-0.031626 -0.065862 0.852309
-0.030185 -0.065862 0.852312
-0.028744 -0.065862 0.852319
-0.027311 -0.065880 0.852548
-0.025875 -0.065893 0.852717
-0.024441 -0.065913 0.852974
-0.023006 -0.065933 0.853233
-0.021569 -0.065952 0.853482
-0.020129 -0.065959 0.853571
-0.018691 -0.065978 0.853816
-0.017254 -0.066004 0.854156
-0.015817 -0.066033 0.854528
-0.014380 -0.066067 0.854965
-0.012940 -0.066093 0.855299
-0.011497 -0.066110 0.855523
-0.010052 -0.066122 0.855671
-0.008607 -0.066128 0.855754
-0.007161 -0.066141 0.855918
-0.005715 -0.066153 0.856081
-0.004270 -0.066178 0.856397
-0.002823 -0.066197 0.856649
-0.001376 -0.066272 0.857617
0.000074 -0.066362 0.858778
0.001528 -0.066477 0.860267
0.021912 -0.066546 0.861168
0.023351 -0.066500 0.860566
0.024793 -0.066465 0.860114
0.026231 -0.066424 0.859590
0.027660 -0.066366 0.858831
0.029092 -0.066321 0.858245
0.030528 -0.066287 0.857813
0.031958 -0.066247 0.857290
0.033387 -0.066206 0.856769
0.034812 -0.066161 0.856177
0.036244 -0.066134 0.855830
0.037680 -0.066114 0.855573
0.039119 -0.066101 0.855411
0.040561 -0.066096 0.855336
0.042007 -0.066096 0.855336
0.043466 -0.066115 0.855582
0.044935 -0.066147 0.856007
0.046406 -0.066183 0.856466
0.047883 -0.066223 0.856983
0.049370 -0.066274 0.857639
0.050845 -0.066306 0.858059
0.052332 -0.066352 0.858659
0.053827 -0.066406 0.859349
0.055319 -0.066454 0.859970
0.056819 -0.066507 0.860664
0.058330 -0.066572 0.861500
0.059828 -0.068080 0.862098
0.059830 -0.066620 0.862116
-0.104069 -0.068472 0.905960
-0.102349 -0.068346 0.904295
-0.100620 -0.068211 0.902504
-0.098910 -0.068083 0.900820
-0.097144 -0.067914 0.898575
-0.095366 -0.067730 0.896139
-0.093622 -0.067564 0.893951
-0.091837 -0.067364 0.891295
-0.090064 -0.067165 0.888674
-0.088323 -0.066984 0.886275
-0.086613 -0.066821 0.884117
-0.084886 -0.066638 0.881702
-0.083186 -0.066471 0.879484
-0.081515 -0.066321 0.877500
-0.079865 -0.066183 0.875679
-0.078218 -0.066043 0.873817
-0.076588 -0.065911 0.872075
-0.074983 -0.065796 0.870559
-0.073369 -0.065669 0.868878
-0.071747 -0.065530 0.867030
-0.070139 -0.065397 0.865270
-0.068558 -0.065283 0.863773
-0.066991 -0.065180 0.862408
-0.065462 -0.065109 0.861472
-0.063967 -0.065070 0.860947
-0.062487 -0.065044 0.860611
-0.061021 -0.065032 0.860450
-0.059566 -0.065032 0.860450
-0.058090 -0.065008 0.860135
-0.056608 -0.064976 0.859706
-0.055115 -0.064930 0.859094
-0.053614 -0.064871 0.858313
-0.052112 -0.064808 0.857477
-0.050622 -0.064756 0.856797
-0.049140 -0.064711 0.856200
-0.047668 -0.064678 0.855760
-0.046186 -0.064628 0.855106
-0.044709 -0.064583 0.854506
-0.043241 -0.064548 0.854045
-0.041779 -0.064521 0.853685
-0.040321 -0.064497 0.853371
-0.038876 -0.064492 0.853304
-0.037422 -0.064474 0.853061
-0.035965 -0.064447 0.852713
-0.034503 -0.064408 0.852192
-0.033043 -0.064370 0.851688
-0.031590 -0.064345 0.851352
-0.030145 -0.064332 0.851189
-0.028704 -0.064326 0.851109
-0.027270 -0.064338 0.851272
-0.025839 -0.064358 0.851528
-0.024409 -0.064385 0.851883
-0.022976 -0.064405 0.852154
-0.021544 -0.064429 0.852474
-0.020105 -0.064435 0.852553
-0.018667 -0.064448 0.852714
-0.017228 -0.064456 0.852823
-0.015789 -0.064471 0.853020
-0.014353 -0.064496 0.853359
-0.012917 -0.064528 0.853773
-0.011478 -0.064553 0.854112
-0.010039 -0.064584 0.854525
-0.008597 -0.064609 0.854847
-0.007154 -0.064621 0.855011
-0.005709 -0.064633 0.855168
-0.004265 -0.064650 0.855398
-0.002818 -0.064646 0.855338
-0.001373 -0.064688 0.855899
0.000074 -0.064737 0.856539
0.001522 -0.064769 0.856964
0.002973 -0.064804 0.857428
0.023370 -0.065092 0.861237
0.024813 -0.065058 0.860786
0.026253 -0.065022 0.860313
0.027685 -0.064968 0.859604
0.029118 -0.064925 0.859026
0.030555 -0.064892 0.858593
0.031984 -0.064846 0.857991
0.033411 -0.064801 0.857388
0.034836 -0.064755 0.856784
0.036262 -0.064715 0.856258
0.037691 -0.064683 0.855830
0.039126 -0.064664 0.855573
0.040565 -0.064651 0.855411
0.042011 -0.064651 0.855411
0.043469 -0.064670 0.855657
0.044938 -0.064702 0.856082
0.046410 -0.064736 0.856536
0.047883 -0.064770 0.856974
0.049360 -0.064807 0.857467
0.050829 -0.064832 0.857796
0.052309 -0.064869 0.858292
0.053798 -0.064915 0.858895
0.055290 -0.064962 0.859515
0.056793 -0.065019 0.860279
0.058310 -0.065089 0.861197
0.059815 -0.065142 0.861908
0.061328 -0.066664 0.862695
0.061323 -0.065196 0.862616
-0.105769 -0.068581 0.907406
-0.105874 -0.067110 0.908310
-0.104191 -0.067015 0.907020
-0.102448 -0.066878 0.905173
-0.100705 -0.066737 0.903268
-0.098977 -0.066601 0.901428
-0.097185 -0.066418 0.898950
-0.095396 -0.066231 0.896424
-0.093640 -0.066061 0.894121
-0.091845 -0.065858 0.891371
-0.090055 -0.065652 0.888585
-0.088305 -0.065469 0.886098
-0.086588 -0.065303 0.883854
-0.084851 -0.065117 0.881335
-0.083134 -0.064939 0.878936
-0.081462 -0.064791 0.876931
-0.079812 -0.064656 0.875101
-0.078168 -0.064520 0.873264
-0.076542 -0.064394 0.871550
-0.074939 -0.064283 0.870051
-0.073320 -0.064153 0.868288
-0.071691 -0.064010 0.866351
-0.070083 -0.063879 0.864584
-0.068497 -0.063763 0.863013
-0.066938 -0.063668 0.861729
-0.065416 -0.063604 0.860865
-0.063922 -0.063566 0.860348
-0.062438 -0.063535 0.859933
-0.060972 -0.063523 0.859767
-0.059513 -0.063517 0.859686
-0.058033 -0.063488 0.859293
-0.056552 -0.063456 0.858863
-0.055066 -0.063417 0.858326
-0.053572 -0.063366 0.857635
-0.052081 -0.063316 0.856959
-0.050601 -0.063277 0.856438
-0.049128 -0.063245 0.856006
-0.047658 -0.063215 0.855588
-0.046181 -0.063172 0.855017
-0.044704 -0.063128 0.854423
-0.043237 -0.063094 0.853964
-0.041768 -0.063057 0.853460
-0.040307 -0.063028 0.853060
-0.038857 -0.063016 0.852897
-0.037397 -0.062986 0.852490
-0.035935 -0.062948 0.851979
-0.034472 -0.062908 0.851436
-0.033009 -0.062863 0.850833
-0.031552 -0.062825 0.850321
-0.030105 -0.062806 0.850066
-0.028663 -0.062794 0.849904
-0.027229 -0.062801 0.849993
-0.025800 -0.062820 0.850255
-0.024369 -0.062836 0.850470
-0.022934 -0.062845 0.850586
-0.021500 -0.062857 0.850747
-0.020060 -0.062851 0.850663
-0.018623 -0.062856 0.850735
-0.017185 -0.062857 0.850747
-0.015749 -0.062863 0.850830
-0.014314 -0.062880 0.851067
-0.012884 -0.062922 0.851628
-0.011453 -0.062968 0.852247
-0.010020 -0.063020 0.852955
-0.008584 -0.063064 0.853554
-0.007145 -0.063098 0.854017
-0.005704 -0.063120 0.854317
-0.004260 -0.063129 0.854427
-0.002815 -0.063130 0.854449
-0.001372 -0.063182 0.855143
0.000074 -0.063220 0.855664
0.001521 -0.063245 0.855996
0.002970 -0.063296 0.856699
0.023382 -0.063666 0.861695
0.024828 -0.063639 0.861329
0.026271 -0.063607 0.860908
0.027710 -0.063568 0.860377
0.029150 -0.063537 0.859954
0.030589 -0.063505 0.859527
0.032017 -0.063456 0.858855
0.033441 -0.063404 0.858156
0.034864 -0.063353 0.857461
0.036284 -0.063302 0.856777
0.037707 -0.063258 0.856182
0.039141 -0.063238 0.855906
0.040580 -0.063225 0.855730
0.042027 -0.063225 0.855732
0.043482 -0.063238 0.855903
0.044951 -0.063268 0.856319
0.046418 -0.063295 0.856678
0.047886 -0.063322 0.857042
0.049355 -0.063347 0.857378
0.050819 -0.063365 0.857624
0.052289 -0.063389 0.857955
0.053771 -0.063427 0.858464
0.055257 -0.063467 0.859002
0.056760 -0.063524 0.859771
0.058281 -0.063598 0.860776
0.059797 -0.063662 0.861653
0.061311 -0.063722 0.862456
-0.107688 -0.065740 0.910659
-0.106007 -0.065652 0.909449
-0.104290 -0.065540 0.907887
-0.102533 -0.065398 0.905921
-0.100768 -0.065247 0.903832
-0.099012 -0.065097 0.901752
-0.097207 -0.064909 0.899157
-0.095407 -0.064719 0.896528
-0.093631 -0.064540 0.894041
-0.091835 -0.064340 0.891275
-0.090035 -0.064132 0.888389
-0.088278 -0.063947 0.885822
-0.086545 -0.063773 0.883417
-0.084800 -0.063584 0.880804
-0.083068 -0.063399 0.878242
-0.081389 -0.063248 0.876149
-0.079742 -0.063117 0.874327
-0.078107 -0.062990 0.872576
-0.076496 -0.062878 0.871024
-0.074897 -0.062772 0.869556
-0.073285 -0.062651 0.867875
-0.071658 -0.062512 0.865943
-0.070056 -0.062389 0.864251
-0.068465 -0.062271 0.862610
-0.066913 -0.062184 0.861403
-0.065385 -0.062116 0.860459
-0.063880 -0.062066 0.859776
-0.062378 -0.062019 0.859114
-0.060902 -0.061994 0.858778
-0.059433 -0.061976 0.858531
-0.057954 -0.061947 0.858127
-0.056476 -0.061917 0.857701
-0.055001 -0.061889 0.857316
-0.053514 -0.061845 0.856714
-0.052034 -0.061808 0.856198
-0.050562 -0.061777 0.855773
-0.049100 -0.061758 0.855504
-0.047631 -0.061729 0.855098
-0.046163 -0.061699 0.854682
-0.044691 -0.061662 0.854173
-0.043228 -0.061635 0.853799
-0.041760 -0.061599 0.853299
-0.040298 -0.061569 0.852891
-0.038842 -0.061545 0.852557
-0.037375 -0.061503 0.851979
-0.035906 -0.061454 0.851295
-0.034438 -0.061404 0.850604
-0.032971 -0.061349 0.849835
-0.031512 -0.061306 0.849243
-0.030062 -0.061276 0.848826
-0.028616 -0.061253 0.848505
-0.027181 -0.061252 0.848498
-0.025750 -0.061259 0.848597
-0.024314 -0.061257 0.848562
-0.022880 -0.061258 0.848580
-0.021445 -0.061258 0.848570
-0.020007 -0.061245 0.848394
-0.018574 -0.061250 0.848464
-0.017141 -0.061255 0.848531
-0.015706 -0.061255 0.848528
-0.014275 -0.061269 0.848734
-0.012849 -0.061309 0.849290
-0.011423 -0.061362 0.850018
-0.009997 -0.061428 0.850933
-0.008567 -0.061491 0.851799
-0.007133 -0.061548 0.852595
-0.005696 -0.061593 0.853222
-0.004256 -0.061618 0.853571
-0.002813 -0.061633 0.853774
-0.001371 -0.061684 0.854477
0.000074 -0.061730 0.855118
0.001520 -0.061754 0.855443
0.002969 -0.061807 0.856188
0.004421 -0.061883 0.857238
0.024844 -0.062219 0.861886
0.026294 -0.062201 0.861645
0.027737 -0.062172 0.861236
0.029179 -0.062142 0.860822
0.030616 -0.062105 0.860310
0.032042 -0.062050 0.859549
0.033465 -0.061993 0.858765
0.034885 -0.061937 0.857977
0.036303 -0.061881 0.857213
0.037722 -0.061833 0.856545
0.039157 -0.061812 0.856258
0.040596 -0.061799 0.856075
0.042044 -0.061800 0.856082
0.043496 -0.061807 0.856183
0.044965 -0.061837 0.856598
0.046427 -0.061855 0.856853
0.047891 -0.061875 0.857125
0.049350 -0.061888 0.857302
0.050809 -0.061900 0.857467
0.052278 -0.061923 0.857784
0.053755 -0.061954 0.858214
0.055241 -0.061992 0.858751
0.056749 -0.062054 0.859602
0.058276 -0.062133 0.860696
0.059794 -0.062198 0.861596
0.061314 -0.062262 0.862489
0.062856 -0.063810 0.863651
0.062864 -0.062354 0.863759
-0.107834 -0.064283 0.911900
-0.106155 -0.064200 0.910715
-0.104413 -0.064076 0.908954
-0.102630 -0.063923 0.906784
-0.100852 -0.063768 0.904584
-0.099073 -0.063607 0.902305
-0.097255 -0.063417 0.899602
-0.095436 -0.063219 0.896798
-0.093641 -0.063031 0.894133
-0.091842 -0.062835 0.891349
-0.090033 -0.062624 0.888360
-0.088258 -0.062431 0.885625
-0.086516 -0.062255 0.883124
-0.084772 -0.062071 0.880513
-0.083033 -0.061885 0.877871
-0.081349 -0.061733 0.875714
-0.079702 -0.061604 0.873888
-0.078067 -0.061480 0.872134
-0.076457 -0.061371 0.870585
-0.074859 -0.061267 0.869116
-0.073248 -0.061150 0.867445
-0.071629 -0.061019 0.865598
-0.070030 -0.060901 0.863921
-0.068439 -0.060786 0.862286
-0.066894 -0.060707 0.861160
-0.065366 -0.060640 0.860211
-0.063849 -0.060580 0.859363
-0.062340 -0.060526 0.858593
-0.060851 -0.060488 0.858060
-0.059365 -0.060452 0.857555
-0.057878 -0.060413 0.856991
-0.056401 -0.060383 0.856563
-0.054929 -0.060356 0.856193
-0.053450 -0.060321 0.855684
-0.051978 -0.060291 0.855268
-0.050517 -0.060273 0.855013
-0.049061 -0.060261 0.854838
-0.047598 -0.060238 0.854513
-0.046140 -0.060220 0.854254
-0.044677 -0.060194 0.853896
-0.043219 -0.060175 0.853624
-0.041752 -0.060141 0.853133
-0.040290 -0.060111 0.852714
-0.038825 -0.060075 0.852197
-0.037355 -0.060027 0.851519
-0.035880 -0.059968 0.850684
-0.034411 -0.059914 0.849916
-0.032942 -0.059855 0.849082
-0.031481 -0.059808 0.848415
-0.030026 -0.059767 0.847829
-0.028577 -0.059732 0.847340
-0.027138 -0.059719 0.847154
-0.025701 -0.059708 0.846999
-0.024261 -0.059687 0.846694
-0.022822 -0.059669 0.846440
-0.021384 -0.059649 0.846160
-0.019946 -0.059625 0.845823
-0.018516 -0.059625 0.845819
-0.017088 -0.059632 0.845917
-0.015657 -0.059629 0.845868
-0.014230 -0.059643 0.846068
-0.012809 -0.059685 0.846674
-0.011388 -0.059740 0.847454
-0.009969 -0.059817 0.848544
-0.008546 -0.059903 0.849757
-0.007119 -0.059982 0.850887
-0.005687 -0.060045 0.851777
-0.004250 -0.060088 0.852388
-0.002810 -0.060115 0.852764
-0.001370 -0.060171 0.853560
0.000074 -0.060222 0.854290
0.001519 -0.060254 0.854739
0.002967 -0.060318 0.855645
0.004419 -0.060397 0.856764
0.005874 -0.061916 0.857686
0.005871 -0.060435 0.857306
0.007324 -0.060466 0.857746
0.024864 -0.060806 0.862569
0.026313 -0.060786 0.862284
0.027760 -0.060762 0.861944
0.029203 -0.060732 0.861520
0.030638 -0.060690 0.860932
0.032060 -0.060625 0.860009
0.033482 -0.060568 0.859197
0.034901 -0.060511 0.858390
0.036317 -0.060452 0.857552
0.037738 -0.060406 0.856891
0.039177 -0.060392 0.856695
0.040617 -0.060379 0.856512
0.042066 -0.060380 0.856530
0.043515 -0.060382 0.856558
0.044980 -0.060405 0.856884
0.046438 -0.060417 0.857051
0.047897 -0.060429 0.857220
0.049351 -0.060435 0.857310
0.050809 -0.060446 0.857467
0.052278 -0.060468 0.857781
0.053755 -0.060498 0.858209
0.055245 -0.060542 0.858821
0.056754 -0.060603 0.859688
0.058288 -0.060686 0.860872
0.059811 -0.060755 0.861855
0.061332 -0.060819 0.862750
0.062882 -0.060907 0.864003
0.064420 -0.062447 0.865045
0.064438 -0.060997 0.865278
-0.109600 -0.062866 0.913771
-0.107933 -0.062795 0.912730
-0.106264 -0.062721 0.911655
-0.104514 -0.062595 0.909832
-0.102727 -0.062444 0.907635
-0.100945 -0.062292 0.905420
-0.099143 -0.062121 0.902945
-0.097322 -0.061934 0.900219
-0.095492 -0.061735 0.897323
-0.093679 -0.061540 0.894499
-0.091871 -0.061343 0.891626
-0.090058 -0.061136 0.888613
-0.088257 -0.060929 0.885618
-0.086498 -0.060745 0.882939
-0.084737 -0.060554 0.880156
-0.082990 -0.060365 0.877414
-0.081299 -0.060211 0.875177
-0.079647 -0.060081 0.873286
-0.078013 -0.059960 0.871526
-0.076411 -0.059859 0.870055
-0.074812 -0.059757 0.868574
-0.073204 -0.059643 0.866916
-0.071598 -0.059526 0.865219
-0.070001 -0.059412 0.863563
-0.068418 -0.059306 0.862019
-0.066874 -0.059229 0.860906
-0.065341 -0.059159 0.859879
-0.063806 -0.059083 0.858780
-0.062284 -0.059016 0.857814
-0.060777 -0.058961 0.857010
-0.059275 -0.058909 0.856250
-0.057789 -0.058869 0.855671
-0.056319 -0.058845 0.855325
-0.054856 -0.058827 0.855057
-0.053390 -0.058804 0.854720
-0.051935 -0.058793 0.854558
-0.050480 -0.058781 0.854390
-0.049027 -0.058770 0.854235
-0.047564 -0.058748 0.853903
-0.046107 -0.058730 0.853645
-0.044646 -0.058706 0.853306
-0.043187 -0.058684 0.852985
-0.041718 -0.058646 0.852426
-0.040252 -0.058611 0.851917
-0.038781 -0.058563 0.851224
-0.037308 -0.058510 0.850456
-0.035835 -0.058452 0.849614
-0.034371 -0.058406 0.848935
-0.032907 -0.058354 0.848182
-0.031448 -0.058307 0.847506
-0.029991 -0.058261 0.846839
-0.028537 -0.058216 0.846178
-0.027093 -0.058186 0.845740
-0.025650 -0.058157 0.845323
-0.024205 -0.058118 0.844758
-0.022763 -0.058083 0.844242
-0.021324 -0.058051 0.843780
-0.019888 -0.058022 0.843358
-0.018462 -0.058022 0.843355
-0.017041 -0.058036 0.843568
-0.015614 -0.058035 0.843550
-0.014190 -0.058045 0.843696
-0.012773 -0.058085 0.844268
-0.011355 -0.058131 0.844938
-0.009939 -0.058204 0.846004
-0.008523 -0.058304 0.847450
-0.007102 -0.058400 0.848858
-0.005675 -0.058480 0.850012
-0.004243 -0.058544 0.850950
-0.002806 -0.058588 0.851581
-0.001368 -0.058644 0.852402
0.000073 -0.058706 0.853292
0.001517 -0.058748 0.853917
0.002964 -0.058819 0.854940
0.004416 -0.058902 0.856149
0.005868 -0.058950 0.856846
0.007321 -0.058990 0.857430
0.008778 -0.059038 0.858131
0.024887 -0.059399 0.863378
0.026335 -0.059373 0.862994
0.027783 -0.059349 0.862647
0.029223 -0.059313 0.862116
0.030656 -0.059266 0.861437
0.032075 -0.059196 0.860429
0.033495 -0.059135 0.859536
0.034915 -0.059078 0.858713
0.036331 -0.059021 0.857871
0.037752 -0.058976 0.857221
0.039193 -0.058963 0.857042
0.040638 -0.058957 0.856943
0.042087 -0.058958 0.856961
0.043537 -0.058960 0.856986
0.044999 -0.058976 0.857229
0.046452 -0.058982 0.857308
0.047906 -0.058987 0.857385
0.049355 -0.058987 0.857391
0.050809 -0.058993 0.857467
0.052278 -0.059014 0.857784
0.053755 -0.059044 0.858214
0.055252 -0.059092 0.858918
0.056761 -0.059152 0.859788
0.058301 -0.059240 0.861059
0.059824 -0.059307 0.862033
0.061350 -0.059373 0.862996
0.062888 -0.059448 0.864085
0.064443 -0.059535 0.865348
-0.109684 -0.061364 0.914466
-0.108028 -0.061302 0.913540
-0.106357 -0.061229 0.912451
-0.104592 -0.061099 0.910516
-0.102814 -0.060957 0.908404
-0.101031 -0.060808 0.906189
-0.099217 -0.060636 0.903616
-0.097412 -0.060464 0.901053
-0.095598 -0.060281 0.898321
-0.093786 -0.060093 0.895517
-0.091966 -0.059893 0.892550
-0.090134 -0.059679 0.889356
-0.088302 -0.059458 0.886068
-0.086507 -0.059255 0.883033
-0.084720 -0.059049 0.879975
-0.082956 -0.058853 0.877054
-0.081263 -0.058702 0.874795
-0.079605 -0.058570 0.872823
-0.077972 -0.058452 0.871068
-0.076371 -0.058353 0.869603
-0.074773 -0.058254 0.868120
-0.073171 -0.058147 0.866529
-0.071574 -0.058040 0.864928
-0.069977 -0.057929 0.863277
-0.068397 -0.057827 0.861751
-0.066847 -0.057746 0.860551
-0.065302 -0.057666 0.859365
-0.063749 -0.057576 0.858018
-0.062210 -0.057495 0.856803
-0.060687 -0.057423 0.855744
-0.059175 -0.057360 0.854804
-0.057685 -0.057316 0.854136
-0.056214 -0.057288 0.853726
-0.054759 -0.057276 0.853550
-0.053302 -0.057260 0.853315
-0.051854 -0.057255 0.853239
-0.050407 -0.057250 0.853159
-0.048956 -0.057239 0.853001
-0.047496 -0.057218 0.852674
-0.046040 -0.057200 0.852412
-0.044581 -0.057177 0.852076
-0.043121 -0.057151 0.851684
-0.041654 -0.057113 0.851124
-0.040190 -0.057078 0.850600
-0.038720 -0.057031 0.849897
-0.037250 -0.056980 0.849133
-0.035783 -0.056929 0.848378
-0.034327 -0.056894 0.847856
-0.032868 -0.056849 0.847185
-0.031411 -0.056805 0.846520
-0.029956 -0.056759 0.845842
-0.028498 -0.056703 0.845005
-0.027050 -0.056662 0.844404
-0.025600 -0.056613 0.843665
-0.024151 -0.056559 0.842864
-0.022707 -0.056513 0.842181
-0.021266 -0.056467 0.841493
-0.019832 -0.056433 0.840983
-0.018412 -0.056438 0.841051
-0.016999 -0.056467 0.841492
-0.015578 -0.056473 0.841574
-0.014159 -0.056488 0.841805
-0.012742 -0.056516 0.842214
-0.011324 -0.056548 0.842693
-0.009909 -0.056603 0.843510
-0.008497 -0.056694 0.844876
-0.007082 -0.056800 0.846451
-0.005660 -0.056895 0.847866
-0.004233 -0.056979 0.849124
-0.002801 -0.057043 0.850068
-0.001366 -0.057114 0.851126
0.000073 -0.057180 0.852113
0.001515 -0.057227 0.852821
0.002961 -0.057301 0.853920
0.004411 -0.057391 0.855257
0.005863 -0.057447 0.856100
0.007316 -0.057496 0.856831
0.008773 -0.057549 0.857613
0.024897 -0.057959 0.863723
0.026342 -0.057925 0.863219
0.027790 -0.057902 0.862880
0.029232 -0.057868 0.862365
0.030663 -0.057817 0.861609
0.032084 -0.057755 0.860677
0.033505 -0.057695 0.859784
0.034922 -0.057634 0.858884
0.036338 -0.057577 0.858037
0.037763 -0.057539 0.857467
0.039205 -0.057528 0.857296
0.040654 -0.057527 0.857288
0.042103 -0.057528 0.857296
0.043554 -0.057529 0.857310
0.045011 -0.057539 0.857467
0.046461 -0.057539 0.857467
0.047910 -0.057539 0.857467
0.049364 -0.057544 0.857542
0.050819 -0.057550 0.857624
0.052289 -0.057572 0.857955
0.053771 -0.057606 0.858464
0.055273 -0.057659 0.859250
0.056783 -0.057717 0.860125
0.058319 -0.057798 0.861325
0.059841 -0.057862 0.862285
0.061362 -0.057922 0.863166
0.062888 -0.057984 0.864093
0.064432 -0.058058 0.865199
0.065988 -0.059609 0.866430
0.065969 -0.058124 0.866186
-0.109720 -0.059833 0.914766
-0.108087 -0.059786 0.914034
-0.106430 -0.059723 0.913081
-0.104669 -0.059599 0.911187
-0.102911 -0.059474 0.909265
-0.101147 -0.059340 0.907230
-0.099333 -0.059173 0.904676
-0.097555 -0.059023 0.902375
-0.095758 -0.058856 0.899827
-0.093963 -0.058685 0.897213
-0.092132 -0.058486 0.894162
-0.090309 -0.058285 0.891089
-0.088429 -0.058039 0.887338
-0.086595 -0.057817 0.883930
-0.084754 -0.057581 0.880329
-0.082961 -0.057370 0.877109
-0.081221 -0.057189 0.874343
-0.079548 -0.057049 0.872198
-0.077903 -0.056925 0.870296
-0.076302 -0.056828 0.868826
-0.074707 -0.056733 0.867360
-0.073121 -0.056639 0.865934
-0.071539 -0.056546 0.864513
-0.069951 -0.056444 0.862952
-0.068377 -0.056350 0.861502
-0.066820 -0.056264 0.860200
-0.065256 -0.056170 0.858760
-0.063685 -0.056065 0.857153
-0.062135 -0.055974 0.855768
-0.060597 -0.055890 0.854474
-0.059071 -0.055813 0.853302
-0.057578 -0.055764 0.852551
-0.056104 -0.055731 0.852052
-0.054648 -0.055716 0.851815
-0.053189 -0.055696 0.851517
-0.051745 -0.055691 0.851433
-0.050296 -0.055681 0.851275
-0.048843 -0.055665 0.851030
-0.047386 -0.055643 0.850701
-0.045933 -0.055625 0.850427
-0.044474 -0.055598 0.850014
-0.043015 -0.055571 0.849598
-0.041551 -0.055533 0.849026
-0.040091 -0.055499 0.848493
-0.038628 -0.055459 0.847883
-0.037172 -0.055425 0.847362
-0.035713 -0.055383 0.846719
-0.034267 -0.055359 0.846365
-0.032817 -0.055327 0.845864
-0.031365 -0.055288 0.845279
-0.029912 -0.055245 0.844614
-0.028456 -0.055190 0.843772
-0.027007 -0.055144 0.843080
-0.025555 -0.055085 0.842178
-0.024108 -0.055033 0.841368
-0.022667 -0.054989 0.840697
-0.021229 -0.054945 0.840025
-0.019799 -0.054916 0.839591
-0.018381 -0.054921 0.839656
-0.016970 -0.054948 0.840078
-0.015551 -0.054953 0.840158
-0.014136 -0.054973 0.840463
-0.012719 -0.054991 0.840726
-0.011301 -0.055006 0.840959
-0.009887 -0.055046 0.841573
-0.008476 -0.055124 0.842766
-0.007063 -0.055213 0.844119
-0.005645 -0.055306 0.845542
-0.004223 -0.055408 0.847106
-0.002795 -0.055481 0.848225
-0.001363 -0.055562 0.849466
0.000073 -0.055647 0.850758
0.001513 -0.055708 0.851695
0.002957 -0.055781 0.852802
0.004406 -0.055873 0.854215
0.005857 -0.055942 0.855272
0.007310 -0.055994 0.856059
0.008765 -0.056047 0.856879
0.010218 -0.056072 0.857252
0.024906 -0.056514 0.864020
0.026346 -0.056471 0.863365
0.027793 -0.056445 0.862956
0.029235 -0.056412 0.862457
0.030668 -0.056366 0.861762
0.032094 -0.056312 0.860928
0.033518 -0.056259 0.860122
0.034939 -0.056206 0.859308
0.036355 -0.056150 0.858450
0.037781 -0.056113 0.857880
0.039220 -0.056096 0.857627
0.040666 -0.056090 0.857540
0.042112 -0.056085 0.857461
0.043558 -0.056081 0.857391
0.045015 -0.056091 0.857542
0.046465 -0.056091 0.857548
0.047919 -0.056096 0.857626
0.049378 -0.056107 0.857787
0.050838 -0.056118 0.857956
0.052314 -0.056145 0.858374
0.053803 -0.056184 0.858971
0.055310 -0.056240 0.859834
0.056822 -0.056298 0.860712
0.058353 -0.056371 0.861828
0.059865 -0.056423 0.862627
0.061379 -0.056474 0.863412
0.062895 -0.056525 0.864180
0.064426 -0.056587 0.865129
0.065951 -0.056640 0.865944
0.067531 -0.058208 0.867433
0.067504 -0.056715 0.867088
-0.109828 -0.058340 0.915667
-0.108209 -0.058302 0.915066
-0.106552 -0.058242 0.914128
-0.104799 -0.058127 0.912317
-0.103049 -0.058010 0.910479
-0.101284 -0.057881 0.908456
-0.099480 -0.057725 0.906017
-0.097740 -0.057602 0.904088
-0.095981 -0.057464 0.901917
-0.094248 -0.057337 0.899928
-0.092485 -0.057188 0.897584
-0.090617 -0.056968 0.894131
-0.088674 -0.056692 0.889799
-0.086781 -0.056439 0.885825
-0.084817 -0.056130 0.880980
-0.082910 -0.055849 0.876568
-0.081151 -0.055659 0.873583
-0.079454 -0.055505 0.871167
-0.077789 -0.055368 0.869023
-0.076205 -0.055285 0.867713
-0.074627 -0.055202 0.866421
-0.073057 -0.055124 0.865183
-0.071499 -0.055050 0.864024
-0.069914 -0.054953 0.862498
-0.068340 -0.054859 0.861034
-0.066775 -0.054769 0.859622
-0.065203 -0.054670 0.858058
-0.063615 -0.054552 0.856207
-0.062060 -0.054458 0.854738
-0.060512 -0.054366 0.853284
-0.058977 -0.054280 0.851941
-0.057470 -0.054217 0.850950
-0.055992 -0.054179 0.850359
-0.054524 -0.054149 0.849881
-0.053062 -0.054123 0.849478
-0.051607 -0.054103 0.849162
-0.050156 -0.054086 0.848900
-0.048697 -0.054061 0.848496
-0.047245 -0.054040 0.848168
-0.045792 -0.054017 0.847816
-0.044337 -0.053990 0.847397
-0.042882 -0.053962 0.846954
-0.041425 -0.053930 0.846446
-0.039977 -0.053907 0.846083
-0.038531 -0.053885 0.845739
-0.037094 -0.053874 0.845566
-0.035644 -0.053844 0.845097
-0.034208 -0.053832 0.844912
-0.032764 -0.053806 0.844501
-0.031313 -0.053766 0.843871
-0.029863 -0.053724 0.843221
-0.028412 -0.053676 0.842460
-0.026966 -0.053632 0.841765
-0.025517 -0.053579 0.840938
-0.024079 -0.053542 0.840355
-0.022641 -0.053500 0.839702
-0.021207 -0.053463 0.839125
-0.019780 -0.053441 0.838774
-0.018361 -0.053440 0.838755
-0.016949 -0.053457 0.839027
-0.015533 -0.053466 0.839161
-0.014120 -0.053486 0.839476
-0.012703 -0.053498 0.839667
-0.011286 -0.053507 0.839813
-0.009871 -0.053534 0.840233
-0.008460 -0.053592 0.841147
-0.007046 -0.053657 0.842166
-0.005630 -0.053732 0.843345
-0.004212 -0.053827 0.844838
-0.002788 -0.053904 0.846044
-0.001360 -0.053995 0.847469
0.000073 -0.054094 0.849023
0.001510 -0.054169 0.850203
0.002952 -0.054249 0.851453
0.004399 -0.054344 0.852940
0.005849 -0.054417 0.854086
0.007301 -0.054478 0.855051
0.008756 -0.054538 0.855986
0.010208 -0.054565 0.856416
0.011660 -0.054582 0.856675
0.026351 -0.055018 0.863530
0.027799 -0.054994 0.863154
0.029246 -0.054970 0.862778
0.030680 -0.054927 0.862094
0.032110 -0.054880 0.861355
0.033535 -0.054829 0.860557
0.034957 -0.054777 0.859748
0.036374 -0.054723 0.858889
0.037800 -0.054686 0.858312
0.039236 -0.054664 0.857975
0.040678 -0.054653 0.857796
0.042123 -0.054647 0.857700
0.043566 -0.054637 0.857548
0.045024 -0.054647 0.857708
0.046478 -0.054653 0.857796
0.047938 -0.054664 0.857960
0.049403 -0.054680 0.858212
0.050874 -0.054701 0.858551
0.052352 -0.054729 0.858992
0.053847 -0.054773 0.859674
0.055355 -0.054827 0.860527
0.056863 -0.054878 0.861332
0.058383 -0.054939 0.862281
0.059890 -0.054984 0.862988
0.061392 -0.055022 0.863589
0.062901 -0.055065 0.864260
0.064419 -0.055114 0.865030
0.065937 -0.055160 0.865759
0.067481 -0.055227 0.866797
-0.109889 -0.056820 0.916176
-0.108298 -0.056798 0.915824
-0.106650 -0.056744 0.914961
-0.104917 -0.056644 0.913341
-0.103201 -0.056550 0.911823
-0.101442 -0.056429 0.909877
-0.099657 -0.056289 0.907628
-0.097956 -0.056194 0.906088
-0.096252 -0.056093 0.904469
-0.094577 -0.056007 0.903070
-0.092888 -0.055909 0.901495
-0.091111 -0.055755 0.899005
-0.089251 -0.055543 0.895588
-0.087236 -0.055225 0.890469
-0.085122 -0.054834 0.884153
-0.083060 -0.054462 0.878154
-0.081137 -0.054169 0.873436
-0.079283 -0.053912 0.869294
-0.077647 -0.053797 0.867438
-0.076088 -0.053731 0.866382
-0.074534 -0.053667 0.865346
-0.072990 -0.053608 0.864386
-0.071456 -0.053553 0.863505
-0.069874 -0.053460 0.862006
-0.068300 -0.053369 0.860533
-0.066722 -0.053270 0.858949
-0.065132 -0.053158 0.857135
-0.063533 -0.053033 0.855114
-0.061969 -0.052931 0.853477
-0.060417 -0.052835 0.851933
-0.058878 -0.052747 0.850510
-0.057366 -0.052679 0.849412
-0.055879 -0.052631 0.848646
-0.054402 -0.052590 0.847983
-0.052928 -0.052550 0.847332
-0.051460 -0.052514 0.846748
-0.049998 -0.052482 0.846234
-0.048535 -0.052446 0.845664
-0.047082 -0.052421 0.845253
-0.045632 -0.052396 0.844849
-0.044181 -0.052370 0.844426
-0.042732 -0.052343 0.843989
-0.041284 -0.052316 0.843558
-0.039849 -0.052305 0.843384
-0.038420 -0.052301 0.843310
-0.036999 -0.052307 0.843416
-0.035567 -0.052298 0.843274
-0.034141 -0.052297 0.843254
-0.032702 -0.052276 0.842914
-0.031257 -0.052242 0.842366
-0.029813 -0.052207 0.841797
-0.028365 -0.052161 0.841059
-0.026921 -0.052119 0.840381
-0.025478 -0.052073 0.839636
-0.024044 -0.052042 0.839143
-0.022611 -0.052008 0.838592
-0.021183 -0.051982 0.838181
-0.019761 -0.051971 0.837993
-0.018344 -0.051970 0.837976
-0.016933 -0.051986 0.838234
-0.015518 -0.051994 0.838362
-0.014106 -0.052013 0.838676
-0.012690 -0.052021 0.838811
-0.011274 -0.052030 0.838950
-0.009859 -0.052045 0.839196
-0.008446 -0.052085 0.839835
-0.007032 -0.052127 0.840507
-0.005617 -0.052183 0.841409
-0.004201 -0.052263 0.842712
-0.002781 -0.052338 0.843916
-0.001357 -0.052438 0.845524
0.000073 -0.052546 0.847271
0.001508 -0.052635 0.848707
0.002947 -0.052719 0.850049
0.004392 -0.052815 0.851599
0.005840 -0.052885 0.852726
0.007291 -0.052955 0.853856
0.008745 -0.053017 0.854861
0.010197 -0.053056 0.855484
0.011649 -0.053078 0.855847
0.013101 -0.053101 0.856221
0.027809 -0.053549 0.863449
0.029261 -0.053536 0.863232
0.030698 -0.053498 0.862615
0.032130 -0.053453 0.861892
0.033553 -0.053399 0.861019
0.034972 -0.053343 0.860117
0.036389 -0.053289 0.859253
0.037809 -0.053244 0.858521
0.039242 -0.053218 0.858105
0.040683 -0.053205 0.857899
0.042128 -0.053199 0.857789
0.043566 -0.053184 0.857557
0.045029 -0.053199 0.857803
0.046489 -0.053210 0.857981
0.047954 -0.053227 0.858248
0.049433 -0.053257 0.858737
0.050916 -0.053290 0.859260
0.052396 -0.053318 0.859710
0.053897 -0.053365 0.860472
0.055406 -0.053418 0.861324
0.056904 -0.053457 0.861962
0.058415 -0.053506 0.862747
0.059915 -0.053543 0.863345
0.061404 -0.053569 0.863759
0.062906 -0.053604 0.864334
0.064412 -0.053642 0.864936
0.065923 -0.053681 0.865572
0.067459 -0.053740 0.866514
-0.109987 -0.055316 0.916991
-0.108417 -0.055306 0.916827
-0.106788 -0.055265 0.916147
-0.105097 -0.055190 0.914909
-0.103388 -0.055104 0.913475
-0.101634 -0.054990 0.911599
-0.099875 -0.054870 0.909609
-0.098192 -0.054789 0.908264
-0.096527 -0.054716 0.907051
-0.094908 -0.054667 0.906231
-0.093287 -0.054615 0.905371
-0.091589 -0.054515 0.903720
-0.089828 -0.054374 0.901383
-0.083420 -0.053202 0.881956
-0.081317 -0.052805 0.875374
-0.079294 -0.052446 0.869417
-0.077515 -0.052237 0.865961
-0.075976 -0.052186 0.865111
-0.074434 -0.052131 0.864192
-0.072901 -0.052079 0.863335
-0.071363 -0.052022 0.862385
-0.069784 -0.051931 0.860886
-0.068207 -0.051839 0.859355
-0.066637 -0.051748 0.857844
-0.065055 -0.051643 0.856110
-0.063458 -0.051522 0.854099
-0.061890 -0.051418 0.852386
-0.060332 -0.051319 0.850744
-0.058784 -0.051223 0.849152
-0.057258 -0.051143 0.847818
-0.055759 -0.051083 0.846818
-0.054263 -0.051022 0.845819
-0.052777 -0.050967 0.844909
-0.051297 -0.050916 0.844061
-0.049830 -0.050875 0.843379
-0.048370 -0.050840 0.842790
-0.046926 -0.050820 0.842456
-0.045485 -0.050800 0.842139
-0.044041 -0.050776 0.841738
-0.042604 -0.050760 0.841471
-0.041168 -0.050744 0.841206
-0.039747 -0.050745 0.841217
-0.038330 -0.050752 0.841340
-0.036924 -0.050774 0.841693
-0.035499 -0.050770 0.841645
-0.034078 -0.050774 0.841698
-0.032645 -0.050758 0.841430
-0.031207 -0.050733 0.841020
-0.029770 -0.050708 0.840604
-0.028330 -0.050673 0.840028
-0.026891 -0.050638 0.839442
-0.025452 -0.050599 0.838795
-0.024023 -0.050574 0.838388
-0.022593 -0.050546 0.837926
-0.021168 -0.050527 0.837608
-0.019750 -0.050520 0.837499
-0.018334 -0.050520 0.837492
-0.016921 -0.050531 0.837672
-0.015507 -0.050538 0.837790
-0.014097 -0.050557 0.838105
-0.012681 -0.050562 0.838184
-0.011265 -0.050566 0.838261
-0.009849 -0.050572 0.838347
-0.008435 -0.050591 0.838662
-0.007020 -0.050614 0.839058
-0.005606 -0.050653 0.839692
-0.004192 -0.050720 0.840803
-0.002774 -0.050791 0.841979
-0.001354 -0.050896 0.843724
0.000073 -0.051008 0.845583
0.001505 -0.051106 0.847213
0.002942 -0.051192 0.848639
0.004385 -0.051285 0.850177
0.005830 -0.051352 0.851277
0.007278 -0.051415 0.852321
0.008731 -0.051485 0.853490
0.010183 -0.051534 0.854309
0.011636 -0.051570 0.854892
0.013090 -0.051605 0.855477
0.014542 -0.051627 0.855844
0.026366 -0.052120 0.864013
0.027818 -0.052103 0.863734
0.029275 -0.052098 0.863644
0.030715 -0.052064 0.863090
0.032150 -0.052024 0.862427
0.033570 -0.051966 0.861469
0.034986 -0.051906 0.860466
0.036403 -0.051852 0.859581
0.037817 -0.051799 0.858687
0.039246 -0.051769 0.858200
0.040687 -0.051757 0.857990
0.042132 -0.051750 0.857873
0.043566 -0.051731 0.857562
0.045034 -0.051751 0.857897
0.046498 -0.051767 0.858161
0.047973 -0.051793 0.858599
0.049468 -0.051839 0.859351
0.050967 -0.051885 0.860122
0.052454 -0.051918 0.860672
0.053962 -0.051969 0.861510
0.055467 -0.052014 0.862267
0.056955 -0.052043 0.862733
0.058450 -0.052075 0.863262
0.059938 -0.052100 0.863682
0.061416 -0.052115 0.863923
0.062912 -0.052144 0.864410
0.064406 -0.052171 0.864858
0.065916 -0.052209 0.865483
0.067452 -0.052265 0.866419
0.069006 -0.053803 0.867539
0.068998 -0.052327 0.867444
0.070545 -0.053859 0.868433
0.070544 -0.052386 0.868424
-0.110058 -0.053796 0.917588
-0.108514 -0.053800 0.917648
-0.106911 -0.053774 0.917201
-0.105265 -0.053725 0.916374
-0.103579 -0.053654 0.915162
-0.101842 -0.053554 0.913458
-0.100106 -0.053452 0.911718
-0.098429 -0.053378 0.910462
-0.096773 -0.053314 0.909367
-0.095198 -0.053293 0.909004
-0.093631 -0.053276 0.908712
-0.092016 -0.053230 0.907928
-0.090356 -0.053156 0.906676
-0.087873 -0.054108 0.896977
-0.088504 -0.052965 0.903415
-0.081473 -0.051420 0.877050
-0.079275 -0.050960 0.869211
-0.077351 -0.050662 0.864135
-0.075839 -0.050628 0.863553
-0.074304 -0.050577 0.862678
-0.072779 -0.050531 0.861888
-0.071254 -0.050482 0.861065
-0.069682 -0.050398 0.859629
-0.068114 -0.050313 0.858185
-0.066560 -0.050236 0.856863
-0.064989 -0.050141 0.855241
-0.063388 -0.050019 0.853157
-0.061815 -0.049913 0.851360
-0.060249 -0.049808 0.849569
-0.058686 -0.049702 0.847745
-0.057153 -0.049614 0.846258
-0.055645 -0.049546 0.845086
-0.054137 -0.049473 0.843849
-0.052643 -0.049410 0.842765
-0.051161 -0.049355 0.841832
-0.049689 -0.049306 0.840997
-0.048233 -0.049271 0.840405
-0.046798 -0.049256 0.840148
-0.045365 -0.049243 0.839921
-0.043930 -0.049225 0.839622
-0.042509 -0.049223 0.839590
-0.041085 -0.049218 0.839497
-0.039670 -0.049223 0.839591
-0.038260 -0.049235 0.839795
-0.036862 -0.049265 0.840293
-0.035443 -0.049266 0.840325
-0.034022 -0.049266 0.840312
-0.032594 -0.049254 0.840121
-0.031158 -0.049230 0.839708
-0.029724 -0.049207 0.839303
-0.028289 -0.049178 0.838819
-0.026857 -0.049153 0.838394
-0.025425 -0.049124 0.837897
-0.024001 -0.049109 0.837642
-0.022575 -0.049087 0.837262
-0.021155 -0.049077 0.837098
-0.019740 -0.049076 0.837077
-0.018324 -0.049076 0.837077
-0.016911 -0.049082 0.837178
-0.015499 -0.049092 0.837352
-0.014088 -0.049106 0.837594
-0.012673 -0.049111 0.837673
-0.011258 -0.049116 0.837765
-0.009843 -0.049121 0.837848
-0.008428 -0.049130 0.838006
-0.007013 -0.049140 0.838165
-0.005598 -0.049158 0.838480
-0.004184 -0.049204 0.839264
-0.002768 -0.049258 0.840182
-0.001351 -0.049355 0.841830
0.000073 -0.049468 0.843757
0.001502 -0.049573 0.845553
0.002937 -0.049662 0.847073
0.004378 -0.049760 0.848750
0.005820 -0.049824 0.849827
0.007265 -0.049884 0.850860
0.008716 -0.049957 0.852106
0.010170 -0.050021 0.853202
0.011623 -0.050069 0.854015
0.013080 -0.050119 0.854867
0.014534 -0.050149 0.855374
0.015988 -0.050172 0.855770
0.026386 -0.050694 0.864677
0.027841 -0.050681 0.864453
0.029297 -0.050672 0.864298
0.030742 -0.050646 0.863851
0.032178 -0.050607 0.863182
0.033600 -0.050550 0.862220
0.035016 -0.050490 0.861194
0.036436 -0.050441 0.860361
0.037847 -0.050384 0.859380
0.039275 -0.050351 0.858819
0.040713 -0.050334 0.858538
0.042155 -0.050323 0.858346
0.043590 -0.050305 0.858032
0.045062 -0.050329 0.858441
0.046533 -0.050350 0.858803
0.048019 -0.050385 0.859411
0.049521 -0.050436 0.860267
0.051022 -0.050482 0.861062
0.052513 -0.050515 0.861630
0.054016 -0.050559 0.862378
0.055512 -0.050594 0.862964
0.056989 -0.050610 0.863249
0.058472 -0.050631 0.863597
0.059950 -0.050646 0.863847
0.061427 -0.050659 0.864083
0.062918 -0.050684 0.864502
0.064413 -0.050710 0.864955
0.065929 -0.050752 0.865659
0.067472 -0.050811 0.866678
0.069020 -0.050873 0.867721
0.070574 -0.050936 0.868797
-0.108637 -0.052303 0.918689
-0.107038 -0.052281 0.918297
-0.105420 -0.052248 0.917722
-0.103759 -0.052193 0.916751
-0.102042 -0.052108 0.915253
-0.100330 -0.052023 0.913758
-0.098660 -0.051956 0.912592
-0.097027 -0.051908 0.911745
-0.095482 -0.051906 0.911713
-0.093960 -0.051917 0.911902
-0.092390 -0.051901 0.911618
-0.090827 -0.051889 0.911402
-0.089057 -0.051755 0.909058
-0.081633 -0.050031 0.878775
-0.079260 -0.049477 0.869044
-0.077185 -0.049091 0.862272
-0.075686 -0.049065 0.861806
-0.074153 -0.049015 0.860929
-0.072623 -0.048964 0.860041
-0.071103 -0.048919 0.859246
-0.069540 -0.048841 0.857880
-0.067985 -0.048766 0.856555
-0.066445 -0.048698 0.855370
-0.064888 -0.048615 0.853910
-0.063290 -0.048498 0.851839
-0.061714 -0.048391 0.849967
-0.060144 -0.048285 0.848097
-0.058589 -0.048184 0.846341
-0.057053 -0.048095 0.844772
-0.055542 -0.048024 0.843514
-0.054036 -0.047953 0.842272
-0.052544 -0.047891 0.841181
-0.051061 -0.047834 0.840187
-0.049592 -0.047787 0.839362
-0.048140 -0.047755 0.838789
-0.046709 -0.047741 0.838544
-0.045283 -0.047732 0.838401
-0.043859 -0.047725 0.838262
-0.042448 -0.047732 0.838395
-0.041038 -0.047740 0.838532
-0.039628 -0.047750 0.838710
-0.038222 -0.047765 0.838971
-0.036825 -0.047792 0.839443
-0.035407 -0.047793 0.839466
-0.033981 -0.047784 0.839310
-0.032555 -0.047774 0.839127
-0.031122 -0.047751 0.838724
-0.029690 -0.047729 0.838333
-0.028257 -0.047702 0.837863
-0.026829 -0.047682 0.837522
-0.025401 -0.047658 0.837099
-0.023978 -0.047644 0.836845
-0.022553 -0.047622 0.836466
-0.021137 -0.047617 0.836380
-0.019723 -0.047617 0.836367
-0.018309 -0.047617 0.836372
-0.016897 -0.047622 0.836466
-0.015486 -0.047632 0.836629
-0.014075 -0.047644 0.836856
-0.012662 -0.047649 0.836943
-0.011248 -0.047654 0.837027
-0.009833 -0.047655 0.837033
-0.008419 -0.047659 0.837106
-0.007004 -0.047659 0.837114
-0.005590 -0.047672 0.837349
-0.004178 -0.047705 0.837916
-0.002763 -0.047747 0.838661
-0.001348 -0.047835 0.840196
0.000072 -0.047938 0.842016
0.001499 -0.048040 0.843809
0.002931 -0.048136 0.845484
0.004370 -0.048240 0.847318
0.005811 -0.048306 0.848478
0.007255 -0.048373 0.849657
0.008705 -0.048450 0.850996
0.010158 -0.048517 0.852176
0.011613 -0.048575 0.853209
0.013071 -0.048636 0.854267
0.014525 -0.048667 0.854821
0.015978 -0.048693 0.855272
0.026398 -0.049250 0.865047
0.027857 -0.049244 0.864958
0.029315 -0.049236 0.864819
0.030764 -0.049216 0.864451
0.032203 -0.049182 0.863858
0.033626 -0.049128 0.862904
0.035044 -0.049070 0.861898
0.036469 -0.049027 0.861143
0.037885 -0.048975 0.860231
0.039313 -0.048943 0.859661
0.040753 -0.048927 0.859379
0.042196 -0.048916 0.859180
0.043633 -0.048898 0.858868
0.045102 -0.048917 0.859203
0.046574 -0.048937 0.859563
0.048062 -0.048972 0.860179
0.049566 -0.049022 0.861047
0.051070 -0.049068 0.861855
0.052561 -0.049100 0.862418
0.054065 -0.049142 0.863161
0.055551 -0.049166 0.863575
0.057023 -0.049176 0.863753
0.058495 -0.049186 0.863930
0.059966 -0.049195 0.864085
0.061439 -0.049204 0.864251
0.062931 -0.049228 0.864675
0.064427 -0.049255 0.865142
0.065956 -0.049304 0.866008
0.067513 -0.049372 0.867203
0.069071 -0.049438 0.868360
0.070634 -0.049505 0.869533
0.072125 -0.050994 0.869788
0.072192 -0.049565 0.870597
0.073670 -0.051045 0.870662
0.073731 -0.049610 0.871388
0.075187 -0.051076 0.871191
0.075249 -0.049640 0.871909
-0.107084 -0.050746 0.918690
-0.105507 -0.050734 0.918476
-0.103870 -0.050693 0.917733
-0.102198 -0.050634 0.916650
-0.100524 -0.050571 0.915523
-0.098860 -0.050512 0.914446
-0.097233 -0.050470 0.913682
-0.095675 -0.050462 0.913555
-0.094120 -0.050457 0.913452
-0.092639 -0.050492 0.914084
-0.091172 -0.050535 0.914865
-0.089494 -0.050461 0.913523
-0.079123 -0.047921 0.867547
-0.077046 -0.047544 0.860721
-0.075535 -0.047509 0.860081
-0.073997 -0.047455 0.859112
-0.072450 -0.047393 0.857988
-0.070920 -0.047340 0.857032
-0.069357 -0.047262 0.855616
-0.067820 -0.047199 0.854478
-0.066292 -0.047140 0.853401
-0.064757 -0.047073 0.852194
-0.063184 -0.046974 0.850409
-0.061627 -0.046884 0.848764
-0.060066 -0.046786 0.846988
-0.058518 -0.046693 0.845314
-0.056983 -0.046606 0.843742
-0.055468 -0.046532 0.842395
-0.053964 -0.046463 0.841156
-0.052471 -0.046400 0.840013
-0.050996 -0.046351 0.839117
-0.049534 -0.046310 0.838381
-0.048088 -0.046283 0.837883
-0.046659 -0.046269 0.837644
-0.045239 -0.046266 0.837582
-0.043820 -0.046263 0.837527
-0.042412 -0.046271 0.837677
-0.041003 -0.046280 0.837826
-0.039588 -0.046281 0.837857
-0.038179 -0.046290 0.838026
-0.036776 -0.046308 0.838335
-0.035359 -0.046308 0.838342
-0.033936 -0.046300 0.838190
-0.032518 -0.046298 0.838160
-0.031091 -0.046284 0.837901
-0.029666 -0.046271 0.837667
-0.028235 -0.046245 0.837203
-0.026809 -0.046226 0.836866
-0.025381 -0.046203 0.836445
-0.023958 -0.046185 0.836118
-0.022532 -0.046160 0.835668
-0.021119 -0.046159 0.835652
-0.019704 -0.046155 0.835566
-0.018290 -0.046151 0.835504
-0.016879 -0.046156 0.835584
-0.015470 -0.046164 0.835741
-0.014059 -0.046173 0.835900
-0.012648 -0.046178 0.835990
-0.011236 -0.046186 0.836135
-0.009823 -0.046186 0.836133
-0.008410 -0.046190 0.836199
-0.006996 -0.046190 0.836205
-0.005584 -0.046203 0.836440
-0.004172 -0.046225 0.836847
-0.002759 -0.046257 0.837424
-0.001346 -0.046332 0.838783
0.000072 -0.046423 0.840432
0.001496 -0.046522 0.842212
0.002926 -0.046623 0.844044
0.004363 -0.046730 0.845983
0.005803 -0.046804 0.847325
0.007246 -0.046874 0.848593
0.008695 -0.046952 0.850006
0.010146 -0.047018 0.851198
0.011600 -0.047079 0.852310
0.013060 -0.047148 0.853558
0.014515 -0.047185 0.854218
0.015968 -0.047212 0.854701
0.027867 -0.047794 0.865250
0.029326 -0.047789 0.865159
0.030782 -0.047779 0.864976
0.032226 -0.047751 0.864469
0.033654 -0.047704 0.863613
0.035078 -0.047655 0.862727
0.036509 -0.047619 0.862079
0.037927 -0.047569 0.861180
0.039356 -0.047537 0.860593
0.040800 -0.047525 0.860373
0.042241 -0.047510 0.860095
0.043679 -0.047492 0.859782
0.045150 -0.047510 0.860109
0.046623 -0.047530 0.860465
0.048108 -0.047559 0.860998
0.049612 -0.047607 0.861850
0.051111 -0.047646 0.862563
0.052598 -0.047671 0.863024
0.054098 -0.047708 0.863680
0.055579 -0.047726 0.864007
0.057052 -0.047736 0.864188
0.058519 -0.047741 0.864281
0.059985 -0.047744 0.864347
0.061457 -0.047753 0.864502
0.062944 -0.047772 0.864850
0.064441 -0.047798 0.865321
0.065983 -0.047856 0.866361
0.067555 -0.047932 0.867740
0.069123 -0.048002 0.869010
0.070700 -0.048076 0.870345
0.072260 -0.048135 0.871410
0.073798 -0.048177 0.872172
0.075316 -0.048205 0.872679
-0.107174 -0.049230 0.919460
-0.105598 -0.049220 0.919273
-0.103951 -0.049176 0.918453
-0.102317 -0.049137 0.917723
-0.100675 -0.049093 0.916894
-0.099029 -0.049045 0.916007
-0.097409 -0.049009 0.915338
-0.095840 -0.048998 0.915129
-0.094256 -0.048979 0.914770
-0.092735 -0.048992 0.915021
-0.091218 -0.049009 0.915327
-0.089683 -0.049015 0.915452
-0.079025 -0.046393 0.866468
-0.076921 -0.046010 0.859321
-0.075394 -0.045965 0.858480
-0.073843 -0.045903 0.857325
-0.072278 -0.045830 0.855957
-0.070735 -0.045768 0.854801
-0.069176 -0.045692 0.853389
-0.067644 -0.045633 0.852268
-0.066127 -0.045580 0.851281
-0.064615 -0.045528 0.850318
-0.063063 -0.045446 0.848789
-0.061528 -0.045372 0.847409
-0.059972 -0.045279 0.845667
-0.058433 -0.045194 0.844085
-0.056899 -0.045110 0.842507
-0.055392 -0.045042 0.841246
-0.053892 -0.044977 0.840024
-0.052411 -0.044925 0.839052
-0.050947 -0.044885 0.838313
-0.049496 -0.044854 0.837727
-0.048056 -0.044832 0.837315
-0.046631 -0.044823 0.837149
-0.045216 -0.044823 0.837157
-0.043798 -0.044820 0.837098
-0.042387 -0.044824 0.837178
-0.040975 -0.044829 0.837263
-0.039554 -0.044822 0.837135
-0.038139 -0.044823 0.837143
-0.036730 -0.044830 0.837285
-0.035315 -0.044831 0.837293
-0.033897 -0.044827 0.837221
-0.032483 -0.044830 0.837275
-0.031062 -0.044820 0.837102
-0.029640 -0.044811 0.836933
-0.028212 -0.044791 0.836544
-0.026788 -0.044773 0.836210
-0.025361 -0.044750 0.835788
-0.023939 -0.044732 0.835458
-0.022512 -0.044704 0.834924
-0.021098 -0.044698 0.834825
-0.019683 -0.044690 0.834665
-0.018270 -0.044686 0.834591
-0.016859 -0.044686 0.834600
-0.015453 -0.044699 0.834826
-0.014043 -0.044703 0.834918
-0.012632 -0.044705 0.834937
-0.011221 -0.044709 0.835018
-0.009809 -0.044708 0.835001
-0.008398 -0.044708 0.834995
-0.006987 -0.044712 0.835068
-0.005577 -0.044728 0.835379
-0.004167 -0.044750 0.835779
-0.002756 -0.044776 0.836277
-0.001344 -0.044843 0.837531
0.000072 -0.044923 0.839011
0.001494 -0.045013 0.840708
0.002921 -0.045113 0.842559
0.004357 -0.045226 0.844673
0.005795 -0.045311 0.846264
0.007238 -0.045388 0.847705
0.008688 -0.045472 0.849274
0.010138 -0.045540 0.850535
0.011591 -0.045599 0.851640
0.013049 -0.045661 0.852807
0.014502 -0.045697 0.853468
0.015952 -0.045718 0.853867
0.026408 -0.046335 0.865393
0.027874 -0.046340 0.865478
0.029336 -0.046339 0.865455
0.030796 -0.046333 0.865347
0.032249 -0.046318 0.865080
0.033684 -0.046282 0.864393
0.035117 -0.046244 0.863695
0.036555 -0.046216 0.863162
0.037978 -0.046172 0.862345
0.039405 -0.046136 0.861676
0.040851 -0.046124 0.861447
0.042294 -0.046109 0.861171
0.043738 -0.046097 0.860942
0.045211 -0.046114 0.861268
0.046685 -0.046132 0.861604
0.048170 -0.046160 0.862113
0.049667 -0.046196 0.862796
0.051162 -0.046229 0.863412
0.052648 -0.046253 0.863849
0.054144 -0.046283 0.864419
0.055617 -0.046293 0.864599
0.057092 -0.046303 0.864793
0.058554 -0.046303 0.864801
0.060015 -0.046303 0.864793
0.061487 -0.046310 0.864926
0.062974 -0.046328 0.865263
0.064483 -0.046362 0.865891
0.066040 -0.046427 0.867109
0.067622 -0.046507 0.868606
0.069199 -0.046580 0.869966
0.070785 -0.046656 0.871383
0.072338 -0.046708 0.872350
0.073863 -0.046740 0.872951
0.075376 -0.046762 0.873373
0.076829 -0.048228 0.873111
0.076883 -0.046781 0.873724
-0.103992 -0.047638 0.918814
-0.102387 -0.047614 0.918350
-0.100772 -0.047585 0.917782
-0.099147 -0.047549 0.917103
-0.097553 -0.047528 0.916692
-0.095983 -0.047518 0.916496
-0.094388 -0.047495 0.916051
-0.092834 -0.047492 0.916005
-0.091286 -0.047492 0.916006
-0.089704 -0.047475 0.915662
-0.081040 -0.045231 0.872394
-0.078700 -0.044739 0.862902
-0.076777 -0.044470 0.857713
-0.075235 -0.044416 0.856670
-0.073672 -0.044347 0.855341
-0.072104 -0.044272 0.853897
-0.070565 -0.044213 0.852746
-0.069014 -0.044142 0.851389
-0.067483 -0.044083 0.850242
-0.065958 -0.044024 0.849103
-0.064452 -0.043976 0.848179
-0.062920 -0.043907 0.846855
-0.061403 -0.043846 0.845686
-0.059864 -0.043766 0.844134
-0.058349 -0.043701 0.842876
-0.056829 -0.043627 0.841457
-0.055329 -0.043566 0.840286
-0.053840 -0.043511 0.839220
-0.052371 -0.043469 0.838412
-0.050914 -0.043435 0.837758
-0.049463 -0.043406 0.837184
-0.048025 -0.043384 0.836772
-0.046596 -0.043372 0.836529
-0.045175 -0.043364 0.836386
-0.043753 -0.043357 0.836245
-0.042339 -0.043357 0.836238
-0.040925 -0.043356 0.836231
-0.039497 -0.043341 0.835934
-0.038083 -0.043340 0.835916
-0.036672 -0.043343 0.835969
-0.035263 -0.043347 0.836059
-0.033851 -0.043349 0.836088
-0.032446 -0.043361 0.836313
-0.031029 -0.043356 0.836229
-0.029612 -0.043351 0.836134
-0.028185 -0.043331 0.835746
-0.026762 -0.043314 0.835410
-0.025337 -0.043292 0.834989
-0.023914 -0.043271 0.834580
-0.022486 -0.043238 0.833957
-0.021071 -0.043229 0.833768
-0.019656 -0.043216 0.833517
-0.018243 -0.043208 0.833374
