1680
0.030997 -0.227227 0.914451
0.032532 -0.227148 0.914133
0.034055 -0.226998 0.913528
0.035576 -0.226853 0.912944
0.037145 -0.227005 0.913558
0.038743 -0.227319 0.914823
0.040378 -0.227819 0.916835
0.042040 -0.228430 0.919293
0.043714 -0.229060 0.921829
0.045366 -0.229533 0.923732
0.047020 -0.229983 0.925544
0.048659 -0.230334 0.926955
0.050311 -0.230727 0.928536
0.051959 -0.231074 0.929932
0.053628 -0.231491 0.931611
0.055317 -0.231967 0.933528
0.057072 -0.232689 0.936431
0.058827 -0.233373 0.939187
0.060590 -0.234049 0.941906
0.062339 -0.234638 0.944276
0.064210 -0.237256 0.948341
0.064075 -0.235153 0.946348
-0.090420 -0.246350 0.991409
-0.090308 -0.244366 0.990179
-0.088660 -0.244436 0.990465
-0.087003 -0.244486 0.990666
-0.085359 -0.244573 0.991021
-0.083723 -0.244690 0.991495
-0.082103 -0.244858 0.992175
-0.080455 -0.244947 0.992536
-0.078805 -0.245032 0.992879
-0.077176 -0.245192 0.993526
-0.075548 -0.245359 0.994205
-0.073929 -0.245564 0.995035
-0.072299 -0.245740 0.995746
-0.070662 -0.245902 0.996405
-0.068985 -0.245928 0.996508
-0.067306 -0.245948 0.996590
-0.065621 -0.245947 0.996587
-0.063944 -0.245978 0.996711
-0.062221 -0.245828 0.996104
-0.060501 -0.245681 0.995510
-0.058794 -0.245583 0.995113
-0.057072 -0.245411 0.994417
-0.038813 -0.227100 0.920220
-0.037249 -0.227054 0.920031
-0.035666 -0.226878 0.919316
-0.034086 -0.226700 0.918598
-0.032501 -0.226481 0.917711
-0.030924 -0.226292 0.916945
-0.029344 -0.226063 0.916014
-0.027769 -0.225848 0.915145
-0.026186 -0.225536 0.913879
-0.024606 -0.225216 0.912585
-0.023026 -0.224856 0.911125
-0.021452 -0.224503 0.909694
-0.019886 -0.224191 0.908431
-0.018338 -0.224038 0.907810
-0.016795 -0.223921 0.907336
-0.015257 -0.223864 0.907105
-0.013724 -0.223865 0.907109
-0.012190 -0.223858 0.907082
-0.010655 -0.223824 0.906942
-0.009116 -0.223705 0.906462
-0.006047 -0.223531 0.905755
-0.004514 -0.223434 0.905362
-0.002982 -0.223379 0.905142
-0.001452 -0.223356 0.905047
0.000078 -0.223508 0.905664
0.001611 -0.223723 0.906532
0.003148 -0.224061 0.907903
0.004690 -0.224399 0.909273
0.006235 -0.224700 0.910491
0.007781 -0.224883 0.911236
0.009326 -0.224995 0.911686
0.010869 -0.225026 0.911812
0.012409 -0.225009 0.911747
0.013952 -0.225029 0.911828
0.015489 -0.224960 0.911547
0.017029 -0.224956 0.911529
0.018572 -0.224980 0.911627
0.020120 -0.225053 0.911924
0.021673 -0.225174 0.912412
0.023230 -0.225315 0.912985
0.024780 -0.225370 0.913208
0.026331 -0.225436 0.913476
0.027886 -0.225523 0.913826
0.029426 -0.225485 0.913673
0.030968 -0.225464 0.913589
0.032508 -0.225434 0.913468
0.034037 -0.225335 0.913066
0.035569 -0.225261 0.912767
0.037141 -0.225437 0.913480
0.038721 -0.225641 0.914304
0.040323 -0.225959 0.915594
0.041954 -0.226407 0.917409
0.043591 -0.226853 0.919217
0.045211 -0.227189 0.920577
0.046863 -0.227652 0.922455
0.048508 -0.228053 0.924078
0.050161 -0.228469 0.925765
0.051800 -0.228795 0.927085
0.053467 -0.229223 0.928821
0.055133 -0.229619 0.930427
0.056858 -0.230236 0.932924
0.058610 -0.230923 0.935710
0.060384 -0.231662 0.938703
0.062148 -0.232323 0.941380
0.063915 -0.232962 0.943972
-0.090192 -0.242375 0.988905
-0.088548 -0.242452 0.989219
-0.086894 -0.242504 0.989430
-0.085253 -0.242593 0.989795
-0.083629 -0.242736 0.990377
-0.082028 -0.242953 0.991264
-0.080392 -0.243074 0.991758
-0.078761 -0.243214 0.992327
-0.077151 -0.243427 0.993198
-0.075525 -0.243598 0.993895
-0.073914 -0.243829 0.994837
-0.072292 -0.244031 0.995660
-0.070658 -0.244199 0.996348
-0.068981 -0.244225 0.996452
-0.067309 -0.244270 0.996636
-0.065630 -0.244293 0.996731
-0.063961 -0.244353 0.996975
-0.062245 -0.244234 0.996489
-0.060525 -0.244089 0.995899
-0.058820 -0.244003 0.995546
-0.057093 -0.243815 0.994781
-0.040388 -0.225649 0.920663
-0.038816 -0.225558 0.920289
-0.037246 -0.225474 0.919949
-0.035659 -0.225275 0.919137
-0.034079 -0.225100 0.918422
-0.032488 -0.224838 0.917352
-0.030911 -0.224643 0.916559
-0.029325 -0.224364 0.915421
-0.027748 -0.224125 0.914444
-0.026163 -0.223792 0.913087
-0.024585 -0.223479 0.911808
-0.023005 -0.223102 0.910269
-0.021432 -0.222749 0.908830
-0.019870 -0.222462 0.907659
-0.018323 -0.222312 0.907049
-0.016783 -0.222225 0.906693
-0.015248 -0.222194 0.906564
-0.013714 -0.222174 0.906483
-0.012179 -0.222118 0.906255
-0.010642 -0.222016 0.905841
-0.009104 -0.221868 0.905234
-0.007570 -0.221746 0.904736
-0.006039 -0.221694 0.904524
-0.004508 -0.221621 0.904227
-0.002979 -0.221605 0.904163
-0.001451 -0.221579 0.904057
0.000078 -0.221710 0.904592
0.001608 -0.221875 0.905263
0.003142 -0.222120 0.906262
0.004679 -0.222359 0.907241
0.006219 -0.222566 0.908084
0.007758 -0.222679 0.908545
0.009298 -0.222771 0.908921
0.010839 -0.222868 0.909317
0.012379 -0.222924 0.909545
0.013924 -0.223038 0.910009
0.015464 -0.223063 0.910112
0.017008 -0.223128 0.910377
0.018551 -0.223176 0.910572
0.020099 -0.223272 0.910964
0.021648 -0.223370 0.911366
0.023201 -0.223488 0.911846
0.024749 -0.223539 0.912054
0.026298 -0.223606 0.912327
0.027852 -0.223696 0.912694
0.029396 -0.223704 0.912728
0.030943 -0.223733 0.912846
0.032491 -0.223770 0.912998
0.034028 -0.223723 0.912803
0.035570 -0.223720 0.912790
0.037143 -0.223898 0.913519
0.038718 -0.224076 0.914244
0.040292 -0.224236 0.914897
0.041898 -0.224554 0.916196
0.043504 -0.224850 0.917402
0.045097 -0.225055 0.918238
0.046732 -0.225457 0.919878
0.048379 -0.225887 0.921635
0.050035 -0.226329 0.923436
0.051671 -0.226657 0.924777
0.053330 -0.227063 0.926431
0.054982 -0.227418 0.927881
0.056672 -0.227906 0.929871
0.058408 -0.228550 0.932498
0.060179 -0.229290 0.935517
0.061956 -0.230016 0.938481
0.063735 -0.230714 0.941328
-0.090071 -0.240375 0.987576
-0.088423 -0.240434 0.987817
-0.086777 -0.240501 0.988094
-0.085129 -0.240563 0.988349
-0.083506 -0.240703 0.988922
-0.081908 -0.240921 0.989817
-0.080291 -0.241090 0.990514
-0.078681 -0.241286 0.991320
-0.077082 -0.241529 0.992315
-0.075466 -0.241724 0.993118
-0.073872 -0.242002 0.994261
-0.072252 -0.242208 0.995106
-0.070620 -0.242381 0.995818
-0.068953 -0.242436 0.996044
-0.067281 -0.242482 0.996231
-0.065603 -0.242504 0.996324
-0.063943 -0.242594 0.996693
-0.062234 -0.242503 0.996320
-0.060521 -0.242386 0.995840
-0.058817 -0.242301 0.995489
-0.057090 -0.242113 0.994718
-0.040394 -0.224123 0.920805
-0.038821 -0.224026 0.920407
-0.037250 -0.223939 0.920048
-0.035660 -0.223722 0.919156
-0.034080 -0.223547 0.918439
-0.032486 -0.223263 0.917270
-0.030902 -0.223023 0.916285
-0.029310 -0.222696 0.914941
-0.027727 -0.222410 0.913768
-0.026141 -0.222058 0.912319
-0.024562 -0.221729 0.910970
-0.022986 -0.221379 0.909533
-0.021417 -0.221053 0.908193
-0.019858 -0.220792 0.907118
-0.018314 -0.220666 0.906603
-0.016778 -0.220627 0.906442
-0.015245 -0.220617 0.906400
-0.013712 -0.220600 0.906329
-0.012176 -0.220543 0.906095
-0.010639 -0.220425 0.905612
-0.009100 -0.220237 0.904841
-0.007565 -0.220073 0.904167
-0.006034 -0.219993 0.903838
-0.004504 -0.219897 0.903441
-0.002976 -0.219841 0.903211
-0.001449 -0.219817 0.903115
0.000078 -0.219944 0.903637
0.001606 -0.220086 0.904219
0.003138 -0.220280 0.905018
0.004672 -0.220470 0.905796
0.006208 -0.220651 0.906538
0.007743 -0.220720 0.906823
0.009279 -0.220789 0.907106
0.010817 -0.220881 0.907484
0.012358 -0.220998 0.907967
0.013903 -0.221163 0.908643
0.015445 -0.221240 0.908962
0.016991 -0.221374 0.909509
0.018537 -0.221462 0.909872
0.020081 -0.221535 0.910173
0.021627 -0.221611 0.910483
0.023179 -0.221728 0.910963
0.024724 -0.221777 0.911165
0.026275 -0.221865 0.911528
0.027830 -0.221978 0.911994
0.029379 -0.222033 0.912217
0.030932 -0.222108 0.912525
0.032487 -0.222194 0.912881
0.034028 -0.222177 0.912810
0.035578 -0.222220 0.912987
0.037148 -0.222378 0.913635
0.038719 -0.222530 0.914258
0.040281 -0.222620 0.914629
0.041873 -0.222864 0.915631
0.043459 -0.223061 0.916442
0.045029 -0.223163 0.916859
0.046646 -0.223485 0.918183
0.048283 -0.223879 0.919802
0.049936 -0.224318 0.921608
0.051570 -0.224650 0.922968
0.053225 -0.225051 0.924619
0.054867 -0.225372 0.925936
0.056539 -0.225799 0.927689
0.058269 -0.226429 0.930279
0.060035 -0.227158 0.933274
0.061825 -0.227942 0.936495
0.063615 -0.228685 0.939547
-0.089976 -0.238451 0.986542
-0.088316 -0.238471 0.986626
-0.086656 -0.238494 0.986721
-0.085000 -0.238527 0.986856
-0.083370 -0.238638 0.987316
-0.081767 -0.238829 0.988106
-0.080162 -0.239025 0.988918
-0.078563 -0.239247 0.989834
-0.076976 -0.239515 0.990945
-0.075378 -0.239763 0.991968
-0.073801 -0.240088 0.993313
-0.072191 -0.240318 0.994267
-0.070569 -0.240516 0.995087
-0.068910 -0.240598 0.995425
-0.067240 -0.240644 0.995615
-0.065564 -0.240670 0.995722
-0.063904 -0.240758 0.996086
-0.062204 -0.240698 0.995840
-0.060499 -0.240613 0.995486
-0.058797 -0.240532 0.995151
-0.057076 -0.240369 0.994476
-0.040394 -0.222562 0.920805
-0.038821 -0.222467 0.920410
-0.037254 -0.222402 0.920144
-0.035664 -0.222187 0.919251
-0.034083 -0.222014 0.918537
-0.032486 -0.221709 0.917277
-0.030895 -0.221425 0.916101
-0.029295 -0.221032 0.914474
-0.027710 -0.220720 0.913185
-0.026122 -0.220348 0.911646
-0.024544 -0.220023 0.910299
-0.022974 -0.219723 0.909059
-0.021408 -0.219423 0.907816
-0.019852 -0.219188 0.906846
-0.018308 -0.219066 0.906338
-0.016773 -0.219026 0.906176
-0.015239 -0.218997 0.906054
-0.013708 -0.218999 0.906064
-0.012173 -0.218945 0.905839
-0.010636 -0.218823 0.905333
-0.009098 -0.218640 0.904579
-0.007563 -0.218478 0.903907
-0.006032 -0.218376 0.903487
-0.004502 -0.218262 0.903015
-0.002975 -0.218195 0.902735
-0.001448 -0.218174 0.902649
0.000078 -0.218279 0.903086
0.001605 -0.218378 0.903492
0.003135 -0.218543 0.904178
0.004666 -0.218666 0.904684
0.006200 -0.218817 0.905311
0.007731 -0.218843 0.905416
0.009265 -0.218906 0.905678
0.010799 -0.218974 0.905960
0.012338 -0.219111 0.906526
0.013881 -0.219279 0.907222
0.015424 -0.219404 0.907737
0.016971 -0.219564 0.908399
0.018516 -0.219673 0.908850
0.020063 -0.219786 0.909318
0.021607 -0.219860 0.909624
0.023157 -0.219974 0.910095
0.024701 -0.220020 0.910287
0.026252 -0.220128 0.910735
0.027806 -0.220244 0.911212
0.029358 -0.220325 0.911551
0.030912 -0.220422 0.911951
0.032474 -0.220556 0.912503
0.034017 -0.220561 0.912524
0.035568 -0.220611 0.912731
0.037140 -0.220786 0.913458
0.038710 -0.220933 0.914065
0.040271 -0.221016 0.914409
0.041854 -0.221212 0.915218
0.043439 -0.221406 0.916022
0.044995 -0.221442 0.916169
0.046605 -0.221735 0.917384
0.048232 -0.222082 0.918817
0.049882 -0.222515 0.920611
0.051510 -0.222824 0.921887
0.053163 -0.223220 0.923526
0.054797 -0.223517 0.924757
0.056458 -0.223905 0.926359
0.058176 -0.224490 0.928782
0.059937 -0.225210 0.931761
0.061732 -0.226012 0.935079
0.063519 -0.226748 0.938124
0.065405 -0.229392 0.942452
0.065306 -0.227451 0.941033
-0.091573 -0.236595 0.985775
-0.089882 -0.236530 0.985505
-0.088209 -0.236513 0.985437
-0.086536 -0.236494 0.985357
-0.084870 -0.236493 0.985350
-0.083224 -0.236550 0.985588
-0.081614 -0.236710 0.986257
-0.080013 -0.236907 0.987075
-0.078425 -0.237152 0.988099
-0.076851 -0.237449 0.989334
-0.075272 -0.237746 0.990570
-0.073699 -0.238073 0.991933
-0.072099 -0.238327 0.992992
-0.070478 -0.238522 0.993804
-0.068820 -0.238601 0.994135
-0.067153 -0.238646 0.994323
-0.065479 -0.238672 0.994429
-0.063814 -0.238732 0.994681
-0.062123 -0.238697 0.994536
-0.060428 -0.238643 0.994310
-0.058727 -0.238562 0.993971
-0.057011 -0.238415 0.993358
-0.055291 -0.238239 0.992628
-0.040368 -0.220860 0.920218
-0.038801 -0.220795 0.919944
-0.037239 -0.220756 0.919784
-0.035657 -0.220584 0.919068
-0.034080 -0.220436 0.918450
-0.032486 -0.220155 0.917277
-0.030889 -0.219829 0.915921
-0.029285 -0.219411 0.914181
-0.027697 -0.219073 0.912771
-0.026107 -0.218680 0.911133
-0.024531 -0.218359 0.909798
-0.022966 -0.218107 0.908747
-0.021403 -0.217835 0.907611
-0.019849 -0.217625 0.906736
-0.018308 -0.217522 0.906310
-0.016771 -0.217460 0.906049
-0.015237 -0.217429 0.905920
-0.013706 -0.217431 0.905930
-0.012171 -0.217381 0.905720
-0.010634 -0.217262 0.905227
-0.009097 -0.217083 0.904479
-0.007561 -0.216901 0.903721
-0.006030 -0.216778 0.903211
-0.004501 -0.216664 0.902735
-0.002973 -0.216580 0.902385
-0.001448 -0.216580 0.902385
0.000078 -0.216666 0.902741
0.001604 -0.216739 0.903046
0.003133 -0.216858 0.903543
0.004662 -0.216952 0.903934
0.006193 -0.217059 0.904379
0.007722 -0.217060 0.904384
0.009253 -0.217101 0.904554
0.010784 -0.217144 0.904734
0.012321 -0.217278 0.905292
0.013864 -0.217465 0.906069
0.015408 -0.217638 0.906791
0.016955 -0.217820 0.907551
0.018500 -0.217951 0.908095
0.020048 -0.218082 0.908641
0.021591 -0.218155 0.908947
0.023140 -0.218270 0.909426
0.024685 -0.218338 0.909710
0.026238 -0.218468 0.910248
0.027792 -0.218583 0.910728
0.029345 -0.218687 0.911162
0.030902 -0.218805 0.911654
0.032470 -0.218980 0.912385
0.034016 -0.219008 0.912502
0.035567 -0.219059 0.912711
0.037136 -0.219209 0.913337
0.038701 -0.219329 0.913836
0.040253 -0.219367 0.913997
0.041827 -0.219521 0.914636
0.043416 -0.219737 0.915538
0.044976 -0.219799 0.915794
0.046589 -0.220101 0.917054
0.048214 -0.220446 0.918490
0.049863 -0.220870 0.920259
0.051489 -0.221173 0.921521
0.053141 -0.221564 0.923150
0.054786 -0.221908 0.924581
0.056444 -0.222279 0.926129
0.058160 -0.222858 0.928540
0.059908 -0.223521 0.931304
0.061693 -0.224287 0.934497
0.063460 -0.224950 0.937256
0.065237 -0.225618 0.940040
-0.091515 -0.234775 0.985151
-0.089813 -0.234680 0.984753
-0.088124 -0.234616 0.984483
-0.086420 -0.234506 0.984024
-0.084734 -0.234446 0.983772
-0.083080 -0.234471 0.983877
-0.081455 -0.234583 0.984344
-0.079848 -0.234750 0.985047
-0.078271 -0.235015 0.986157
-0.076693 -0.235287 0.987301
-0.075112 -0.235564 0.988463
-0.073536 -0.235868 0.989738
-0.071938 -0.236116 0.990779
-0.070312 -0.236281 0.991470
-0.068666 -0.236384 0.991903
-0.067002 -0.236431 0.992099
-0.065338 -0.236479 0.992300
-0.063676 -0.236534 0.992530
-0.061999 -0.236541 0.992560
-0.060321 -0.236540 0.992558
-0.058634 -0.236502 0.992400
-0.056934 -0.236410 0.992010
-0.055236 -0.236321 0.991637
-0.038800 -0.219231 0.919928
-0.037238 -0.219190 0.919756
-0.035656 -0.219021 0.919045
-0.034080 -0.218877 0.918441
-0.032486 -0.218600 0.917277
-0.030883 -0.218233 0.915737
-0.029276 -0.217791 0.913886
-0.027682 -0.217410 0.912285
-0.026090 -0.216996 0.910546
-0.024513 -0.216659 0.909134
-0.022954 -0.216451 0.908261
-0.021394 -0.216208 0.907241
-0.019845 -0.216042 0.906544
-0.018306 -0.215963 0.906213
-0.016769 -0.215897 0.905938
-0.015233 -0.215840 0.905697
-0.013702 -0.215839 0.905692
-0.012168 -0.215791 0.905491
-0.010631 -0.215660 0.904941
-0.009095 -0.215505 0.904291
-0.007560 -0.215344 0.903614
-0.006029 -0.215205 0.903032
-0.004499 -0.215072 0.902476
-0.002973 -0.214987 0.902119
-0.001447 -0.214966 0.902030
0.000078 -0.215030 0.902296
0.001604 -0.215099 0.902588
0.003131 -0.215194 0.902986
0.004659 -0.215260 0.903264
0.006188 -0.215344 0.903615
0.007715 -0.215321 0.903521
0.009243 -0.215344 0.903615
0.010772 -0.215364 0.903698
0.012307 -0.215495 0.904251
0.013848 -0.215678 0.905017
0.015391 -0.215868 0.905816
0.016939 -0.216075 0.906685
0.018487 -0.216251 0.907423
0.020033 -0.216383 0.907975
0.021577 -0.216476 0.908368
0.023125 -0.216594 0.908861
0.024670 -0.216666 0.909162
0.026223 -0.216796 0.909709
0.027778 -0.216930 0.910271
0.029333 -0.217053 0.910786
0.030890 -0.217172 0.911287
0.032457 -0.217347 0.912021
0.034006 -0.217395 0.912224
0.035556 -0.217441 0.912415
0.037120 -0.217569 0.912954
0.038684 -0.217685 0.913437
0.040239 -0.217744 0.913689
0.041809 -0.217878 0.914251
0.043407 -0.218139 0.915343
0.044981 -0.218270 0.915894
0.046600 -0.218600 0.917279
0.048233 -0.218972 0.918838
0.049890 -0.219431 0.920765
0.051526 -0.219768 0.922179
0.053175 -0.220142 0.923749
0.054834 -0.220533 0.925389
0.056507 -0.220955 0.927162
0.058208 -0.221463 0.929291
0.059925 -0.222006 0.931572
0.061697 -0.222718 0.934556
0.063444 -0.223306 0.937025
0.065191 -0.223865 0.939370
-0.091462 -0.232970 0.984582
-0.089762 -0.232879 0.984197
-0.088064 -0.232789 0.983817
-0.086332 -0.232601 0.983022
-0.084630 -0.232491 0.982557
-0.082958 -0.232462 0.982432
-0.081308 -0.232493 0.982567
-0.079686 -0.232605 0.983040
-0.078095 -0.232819 0.983943
-0.076511 -0.233060 0.984962
-0.074934 -0.233335 0.986124
-0.073353 -0.233609 0.987280
-0.071758 -0.233850 0.988300
-0.070142 -0.234033 0.989073
-0.068500 -0.234137 0.989513
-0.066842 -0.234189 0.989731
-0.065183 -0.234237 0.989937
-0.063516 -0.234263 0.990045
-0.061843 -0.234266 0.990057
-0.060182 -0.234315 0.990264
-0.058508 -0.234317 0.990272
-0.056828 -0.234289 0.990156
-0.055150 -0.234273 0.990088
-0.053479 -0.234287 0.990147
-0.038783 -0.217572 0.919505
-0.037225 -0.217554 0.919431
-0.035652 -0.217438 0.918941
-0.034080 -0.217320 0.918440
-0.032492 -0.217088 0.917459
-0.030889 -0.216722 0.915913
-0.029278 -0.216262 0.913967
-0.027679 -0.215836 0.912168
-0.026084 -0.215401 0.910330
-0.024504 -0.215045 0.908826
-0.022946 -0.214842 0.907968
-0.021390 -0.214625 0.907049
-0.019842 -0.214465 0.906376
-0.018304 -0.214408 0.906135
-0.016766 -0.214322 0.905772
-0.015229 -0.214244 0.905439
-0.013698 -0.214238 0.905414
-0.012166 -0.214208 0.905288
-0.010629 -0.214080 0.904746
-0.009094 -0.213949 0.904196
-0.007560 -0.213812 0.903615
-0.006028 -0.213652 0.902938
-0.004498 -0.213497 0.902283
-0.002972 -0.213389 0.901825
-0.001447 -0.213344 0.901636
0.000078 -0.213385 0.901810
0.001603 -0.213453 0.902099
0.003129 -0.213545 0.902485
0.004656 -0.213612 0.902768
0.006185 -0.213693 0.903111
0.007711 -0.213672 0.903025
0.009238 -0.213693 0.903111
0.010765 -0.213694 0.903115
0.012299 -0.213819 0.903646
0.013837 -0.213978 0.904317
0.015379 -0.214169 0.905124
0.016926 -0.214377 0.906004
0.018475 -0.214575 0.906839
0.020022 -0.214729 0.907489
0.021570 -0.214865 0.908067
0.023120 -0.215005 0.908657
0.024667 -0.215101 0.909061
0.026220 -0.215230 0.909608
0.027774 -0.215362 0.910164
0.029329 -0.215480 0.910665
0.030886 -0.215602 0.911180
0.032453 -0.215778 0.911923
0.034009 -0.215868 0.912305
0.035559 -0.215915 0.912502
0.037120 -0.216020 0.912948
0.038683 -0.216132 0.913420
0.040238 -0.216191 0.913669
0.041801 -0.216285 0.914066
0.043403 -0.216565 0.915251
0.044990 -0.216761 0.916078
0.046611 -0.217096 0.917495
0.048250 -0.217492 0.919166
0.049918 -0.217989 0.921268
0.051560 -0.218347 0.922782
0.053222 -0.218769 0.924564
0.054896 -0.219211 0.926431
0.056583 -0.219681 0.928419
0.058273 -0.220136 0.930341
0.059971 -0.220594 0.932277
0.061703 -0.221156 0.934652
0.063955 -0.223503 0.944572
-0.091441 -0.231248 0.984354
-0.089731 -0.231131 0.983859
-0.088028 -0.231025 0.983405
-0.086282 -0.230803 0.982459
-0.084563 -0.230643 0.981778
-0.082873 -0.230559 0.981422
-0.081206 -0.230538 0.981333
-0.079558 -0.230570 0.981467
-0.077951 -0.230724 0.982123
-0.076352 -0.230908 0.982908
-0.074760 -0.231125 0.983832
-0.073164 -0.231339 0.984741
-0.071572 -0.231572 0.985736
-0.069960 -0.231754 0.986510
-0.068325 -0.231865 0.986982
-0.066680 -0.231945 0.987324
-0.065025 -0.231996 0.987540
-0.063362 -0.232019 0.987639
-0.061699 -0.232045 0.987746
-0.060049 -0.232121 0.988073
-0.058386 -0.232153 0.988206
-0.056725 -0.232192 0.988375
-0.055056 -0.232197 0.988396
-0.053390 -0.232220 0.988491
-0.038770 -0.215945 0.919216
-0.037216 -0.215945 0.919216
-0.035652 -0.215881 0.918941
-0.034080 -0.215767 0.918457
-0.032499 -0.215580 0.917660
-0.030899 -0.215239 0.916211
-0.029288 -0.214783 0.914270
-0.027682 -0.214317 0.912284
-0.026084 -0.213859 0.910334
-0.024501 -0.213476 0.908706
-0.022939 -0.213236 0.907684
-0.021383 -0.213022 0.906773
-0.019838 -0.212888 0.906200
-0.018301 -0.212834 0.905972
-0.016762 -0.212732 0.905537
-0.015225 -0.212650 0.905189
-0.013694 -0.212641 0.905152
-0.012162 -0.212612 0.905026
-0.010626 -0.212486 0.904491
-0.009092 -0.212377 0.904026
-0.007559 -0.212258 0.903521
-0.006027 -0.212079 0.902760
-0.004497 -0.211902 0.902006
-0.002971 -0.211786 0.901510
-0.001446 -0.211717 0.901216
0.000078 -0.211736 0.901300
0.001602 -0.211807 0.901600
0.003127 -0.211901 0.902002
0.004654 -0.211971 0.902300
0.006182 -0.212052 0.902645
0.007707 -0.212034 0.902565
0.009233 -0.212052 0.902645
0.010759 -0.212053 0.902649
0.012292 -0.212157 0.903092
0.013827 -0.212293 0.903668
0.015370 -0.212498 0.904543
0.016915 -0.212705 0.905424
0.018465 -0.212928 0.906370
0.020016 -0.213124 0.907205
0.021567 -0.213302 0.907964
0.023120 -0.213461 0.908643
0.024672 -0.213600 0.909233
0.026225 -0.213730 0.909785
0.027780 -0.213860 0.910340
0.029335 -0.213975 0.910829
0.030892 -0.214095 0.911341
0.032459 -0.214273 0.912098
0.034023 -0.214409 0.912675
0.035574 -0.214459 0.912889
0.037139 -0.214586 0.913429
0.038703 -0.214695 0.913896
0.040255 -0.214730 0.914044
0.041818 -0.214822 0.914432
0.043416 -0.215079 0.915529
0.045008 -0.215292 0.916434
0.046629 -0.215626 0.917857
0.048274 -0.216042 0.919627
0.049939 -0.216522 0.921671
0.051598 -0.216946 0.923474
0.053270 -0.217394 0.925384
0.054946 -0.217841 0.927284
0.056635 -0.218306 0.929265
0.058302 -0.218667 0.930803
0.059973 -0.219021 0.932309
0.061671 -0.219456 0.934161
-0.091400 -0.229476 0.983911
-0.089687 -0.229349 0.983368
-0.087991 -0.229262 0.982995
-0.086253 -0.229059 0.982126
-0.084516 -0.228853 0.981240
-0.082817 -0.228741 0.980762
-0.081139 -0.228685 0.980520
-0.079465 -0.228639 0.980325
-0.077842 -0.228738 0.980746
-0.076226 -0.228864 0.981287
-0.074610 -0.228995 0.981852
-0.072993 -0.229131 0.982433
-0.071395 -0.229334 0.983303
-0.069781 -0.229493 0.983984
-0.068145 -0.229585 0.984378
-0.066511 -0.229689 0.984825
-0.064867 -0.229762 0.985137
-0.063208 -0.229787 0.985247
-0.061557 -0.229840 0.985471
-0.059924 -0.229967 0.986018
-0.058272 -0.230026 0.986272
-0.056631 -0.230132 0.986726
-0.054971 -0.230166 0.986872
-0.053310 -0.230201 0.987021
-0.038789 -0.214493 0.919670
-0.037235 -0.214493 0.919671
-0.035670 -0.214432 0.919407
-0.034098 -0.214320 0.918928
-0.032517 -0.214139 0.918151
-0.030916 -0.213804 0.916714
-0.029302 -0.213335 0.914704
-0.027690 -0.212829 0.912536
-0.026087 -0.212343 0.910451
-0.024501 -0.211935 0.908704
-0.022934 -0.211653 0.907493
-0.021379 -0.211440 0.906582
-0.019835 -0.211326 0.906092
-0.018299 -0.211272 0.905860
-0.016759 -0.211170 0.905422
-0.015224 -0.211111 0.905171
-0.013693 -0.211084 0.905055
-0.012161 -0.211055 0.904930
-0.010625 -0.210930 0.904395
-0.009091 -0.210822 0.903931
-0.007559 -0.210707 0.903439
-0.006026 -0.210527 0.902665
-0.004496 -0.210328 0.901813
-0.002970 -0.210189 0.901216
-0.001445 -0.210097 0.900823
0.000078 -0.210097 0.900823
0.001601 -0.210189 0.901216
0.003126 -0.210287 0.901636
0.004652 -0.210379 0.902030
0.006180 -0.210462 0.902385
0.007705 -0.210462 0.902385
0.009231 -0.210462 0.902385
0.010756 -0.210462 0.902385
0.012287 -0.210545 0.902741
0.013822 -0.210676 0.903305
0.015362 -0.210859 0.904089
0.016908 -0.211083 0.905049
0.018461 -0.211344 0.906170
0.020014 -0.211566 0.907122
0.021570 -0.211788 0.908073
0.023127 -0.211991 0.908941
0.024685 -0.212168 0.909702
0.026237 -0.212281 0.910186
0.027792 -0.212410 0.910738
0.029347 -0.212520 0.911212
0.030904 -0.212637 0.911712
0.032473 -0.212817 0.912482
0.034042 -0.212978 0.913175
0.035598 -0.213055 0.913506
0.037161 -0.213163 0.913970
0.038725 -0.213268 0.914418
0.040277 -0.213297 0.914541
0.041844 -0.213408 0.915016
0.043439 -0.213644 0.916028
0.045032 -0.213851 0.916918
0.046648 -0.214155 0.918222
0.048288 -0.214546 0.919896
0.049950 -0.215004 0.921863
0.051621 -0.215473 0.923871
0.053309 -0.215985 0.926066
0.054993 -0.216452 0.928070
0.056677 -0.216892 0.929956
0.058342 -0.217240 0.931446
0.059989 -0.217499 0.932559
0.061643 -0.217774 0.933740
-0.089650 -0.227590 0.982968
-0.087952 -0.227496 0.982565
-0.086217 -0.227300 0.981716
-0.084480 -0.227092 0.980820
-0.082780 -0.226977 0.980324
-0.081085 -0.226872 0.979870
-0.079403 -0.226800 0.979557
-0.077763 -0.226846 0.979754
-0.076123 -0.226895 0.979967
-0.074484 -0.226947 0.980194
-0.072852 -0.227026 0.980533
-0.071241 -0.227177 0.981184
-0.069624 -0.227313 0.981773
-0.067991 -0.227400 0.982148
-0.066367 -0.227524 0.982687
-0.064732 -0.227620 0.983098
-0.063085 -0.227672 0.983323
-0.061444 -0.227752 0.983671
-0.059828 -0.227930 0.984440
-0.058186 -0.228017 0.984814
-0.056553 -0.228145 0.985368
-0.054904 -0.228216 0.985672
-0.053251 -0.228273 0.985920
-0.051578 -0.228247 0.985807
-0.038827 -0.213138 0.920552
-0.037266 -0.213113 0.920442
-0.035689 -0.212989 0.919909
-0.034113 -0.212859 0.919344
-0.032531 -0.212677 0.918559
-0.030933 -0.212364 0.917210
-0.029321 -0.211920 0.915289
-0.027705 -0.211400 0.913043
-0.026104 -0.210931 0.911021
-0.024513 -0.210501 0.909162
-0.022941 -0.210174 0.907748
-0.021381 -0.209921 0.906658
-0.019837 -0.209802 0.906144
-0.018297 -0.209709 0.905742
-0.016757 -0.209606 0.905295
-0.015222 -0.209547 0.905041
-0.013689 -0.209503 0.904853
-0.012157 -0.209457 0.904653
-0.010621 -0.209332 0.904113
-0.009088 -0.209223 0.903643
-0.007556 -0.209109 0.903152
-0.006025 -0.208955 0.902486
-0.004495 -0.208760 0.901643
-0.002969 -0.208621 0.901043
-0.001445 -0.208509 0.900558
0.000077 -0.208507 0.900551
0.001601 -0.208600 0.900951
0.003126 -0.208719 0.901463
0.004652 -0.208830 0.901946
0.006180 -0.208932 0.902385
0.007705 -0.208932 0.902385
0.009231 -0.208932 0.902385
0.010756 -0.208932 0.902385
0.012287 -0.209013 0.902735
0.013820 -0.209123 0.903211
0.015359 -0.209282 0.903898
0.016903 -0.209483 0.904766
0.018457 -0.209765 0.905984
0.020012 -0.210011 0.907048
0.021573 -0.210280 0.908208
0.023138 -0.210545 0.909352
0.024703 -0.210785 0.910389
0.026260 -0.210923 0.910984
0.027817 -0.211052 0.911541
0.029372 -0.211158 0.912001
0.030930 -0.211268 0.912475
0.032497 -0.211427 0.913163
0.034065 -0.211573 0.913793
0.035622 -0.211652 0.914132
0.037186 -0.211756 0.914581
0.038751 -0.211856 0.915015
0.040307 -0.211907 0.915234
0.041881 -0.212043 0.915821
0.043469 -0.212237 0.916661
0.045058 -0.212421 0.917452
0.046663 -0.212666 0.918514
0.048298 -0.213028 0.920076
0.049955 -0.213463 0.921955
0.051636 -0.213971 0.924151
0.053331 -0.214503 0.926445
0.055016 -0.214967 0.928450
0.056688 -0.215357 0.930136
0.058341 -0.215657 0.931431
0.059968 -0.215844 0.932237
0.062127 -0.217888 0.941065
-0.089604 -0.225808 0.982466
-0.087909 -0.225720 0.982082
-0.086197 -0.225584 0.981492
-0.084461 -0.225379 0.980598
-0.082753 -0.225242 0.980002
-0.081051 -0.225115 0.979451
-0.079369 -0.225043 0.979138
-0.077714 -0.225043 0.979138
-0.076066 -0.225066 0.979236
-0.074419 -0.225090 0.979342
-0.072779 -0.225139 0.979557
-0.071155 -0.225238 0.979988
-0.069530 -0.225342 0.980440
-0.067890 -0.225402 0.980698
-0.066261 -0.225500 0.981125
-0.064623 -0.225571 0.981434
-0.062986 -0.225650 0.981779
-0.061355 -0.225757 0.982244
-0.059742 -0.225936 0.983023
-0.058109 -0.226049 0.983513
-0.056478 -0.226176 0.984069
-0.054839 -0.226275 0.984499
-0.053187 -0.226328 0.984731
-0.051524 -0.226335 0.984760
-0.038886 -0.211898 0.921946
-0.037314 -0.211825 0.921629
-0.035724 -0.211635 0.920800
-0.034139 -0.211459 0.920036
-0.032552 -0.211251 0.919132
-0.030955 -0.210959 0.917858
-0.029344 -0.210538 0.916029
-0.027728 -0.210027 0.913804
-0.026126 -0.209564 0.911789
-0.024532 -0.209113 0.909829
-0.022951 -0.208725 0.908139
-0.021387 -0.208448 0.906934
-0.019840 -0.208308 0.906325
-0.018297 -0.208174 0.905744
-0.016757 -0.208069 0.905285
-0.015222 -0.208008 0.905020
-0.013686 -0.207925 0.904660
-0.012154 -0.207877 0.904450
-0.010620 -0.207768 0.903978
-0.009087 -0.207662 0.903516
-0.007555 -0.207552 0.903037
-0.006025 -0.207404 0.902394
-0.004495 -0.207212 0.901557
-0.002969 -0.207076 0.900963
-0.001445 -0.206964 0.900478
0.000078 -0.206963 0.900475
0.001601 -0.207073 0.900951
0.003126 -0.207190 0.901463
0.004652 -0.207301 0.901946
0.006180 -0.207402 0.902385
0.007705 -0.207402 0.902385
0.009231 -0.207402 0.902385
0.010757 -0.207421 0.902468
0.012288 -0.207503 0.902822
0.013821 -0.207612 0.903298
0.015358 -0.207748 0.903887
0.016903 -0.207944 0.904742
0.018457 -0.208223 0.905956
0.020016 -0.208513 0.907216
0.021580 -0.208809 0.908505
0.023153 -0.209138 0.909937
0.024727 -0.209444 0.911270
0.026290 -0.209624 0.912052
0.027850 -0.209759 0.912637
0.029413 -0.209901 0.913257
0.030975 -0.210028 0.913810
0.032545 -0.210187 0.914502
0.034111 -0.210309 0.915031
0.035670 -0.210381 0.915346
0.037227 -0.210437 0.915589
0.038786 -0.210496 0.915844
0.040340 -0.210528 0.915984
0.041913 -0.210652 0.916526
0.043492 -0.210792 0.917131
0.045075 -0.210943 0.917791
0.046673 -0.211158 0.918724
0.048298 -0.211469 0.920078
0.049955 -0.211900 0.921953
0.051642 -0.212427 0.924246
0.053341 -0.212976 0.926634
0.055027 -0.213438 0.928646
0.056694 -0.213805 0.930242
0.058335 -0.214055 0.931332
0.059954 -0.214213 0.932017
0.062122 -0.216277 0.940999
-0.089556 -0.224021 0.981934
-0.087875 -0.223967 0.981699
-0.086186 -0.223891 0.981365
-0.084458 -0.223709 0.980567
-0.082751 -0.223576 0.979985
-0.081050 -0.223452 0.979441
-0.079369 -0.223383 0.979138
-0.077714 -0.223383 0.979138
-0.076059 -0.223383 0.979138
-0.074403 -0.223383 0.979138
-0.072755 -0.223406 0.979236
-0.071115 -0.223454 0.979448
-0.069476 -0.223506 0.979675
-0.067828 -0.223534 0.979798
-0.066193 -0.223605 0.980111
-0.064550 -0.223656 0.980335
-0.062916 -0.223736 0.980685
-0.061293 -0.223865 0.981249
-0.059682 -0.224043 0.982031
-0.058056 -0.224176 0.982612
-0.056427 -0.224306 0.983181
-0.054795 -0.224428 0.983716
-0.053142 -0.224469 0.983899
-0.051484 -0.224494 0.984009
-0.040551 -0.210892 0.924388
-0.038961 -0.210743 0.923734
-0.037371 -0.210583 0.923033
-0.035766 -0.210322 0.921887
-0.034171 -0.210099 0.920909
-0.032572 -0.209825 0.919711
-0.030970 -0.209508 0.918319
-0.029362 -0.209114 0.916591
-0.027752 -0.208653 0.914573
-0.026152 -0.208226 0.912699
-0.024558 -0.207797 0.910821
-0.022975 -0.207405 0.909103
-0.021407 -0.207101 0.907771
-0.019855 -0.206925 0.906998
-0.018306 -0.206751 0.906235
-0.016766 -0.206643 0.905760
-0.015229 -0.206576 0.905470
-0.013691 -0.206453 0.904928
-0.012157 -0.206383 0.904622
-0.010621 -0.206253 0.904051
-0.009087 -0.206124 0.903486
-0.007553 -0.205960 0.902766
-0.006023 -0.205812 0.902118
-0.004493 -0.205622 0.901285
-0.002968 -0.205508 0.900786
-0.001445 -0.205399 0.900307
0.000077 -0.205436 0.900471
0.001601 -0.205545 0.900951
0.003126 -0.205662 0.901463
0.004652 -0.205773 0.901946
0.006180 -0.205873 0.902385
0.007705 -0.205873 0.902385
0.009231 -0.205873 0.902385
0.010758 -0.205912 0.902558
0.012290 -0.206015 0.903009
0.013824 -0.206127 0.903499
0.015362 -0.206261 0.904088
0.016906 -0.206450 0.904916
0.018462 -0.206742 0.906194
0.020022 -0.207033 0.907469
0.021591 -0.207374 0.908965
0.023170 -0.207749 0.910612
0.024753 -0.208116 0.912217
0.026321 -0.208323 0.913125
0.027888 -0.208499 0.913898
0.029460 -0.208688 0.914724
0.031032 -0.208857 0.915468
0.032604 -0.209015 0.916159
0.034169 -0.209113 0.916589
0.035725 -0.209155 0.916771
0.037276 -0.209161 0.916800
0.038829 -0.209176 0.916865
0.040382 -0.209192 0.916934
0.041957 -0.209315 0.917472
0.043527 -0.209409 0.917887
0.045102 -0.209514 0.918345
0.046696 -0.209699 0.919157
0.048311 -0.209967 0.920332
0.049965 -0.210380 0.922142
0.051653 -0.210905 0.924445
0.053353 -0.211452 0.926839
0.055034 -0.211890 0.928762
0.056695 -0.212232 0.930261
0.058324 -0.212436 0.931155
0.059935 -0.212567 0.931728
-0.091187 -0.222285 0.981619
-0.089538 -0.222312 0.981739
-0.087863 -0.222274 0.981569
-0.086177 -0.222204 0.981259
-0.084458 -0.222047 0.980567
-0.082751 -0.221915 0.979985
-0.081050 -0.221792 0.979441
-0.079369 -0.221723 0.979138
-0.077714 -0.221723 0.979138
-0.076059 -0.221723 0.979138
-0.074403 -0.221723 0.979138
-0.072748 -0.221723 0.979138
-0.071100 -0.221746 0.979236
-0.069452 -0.221770 0.979342
-0.067797 -0.221772 0.979353
-0.066155 -0.221818 0.979557
-0.064513 -0.221867 0.979770
-0.062872 -0.221920 0.980005
-0.061244 -0.222023 0.980459
-0.059633 -0.222198 0.981231
-0.058009 -0.222329 0.981812
-0.056381 -0.222457 0.982378
-0.054750 -0.222579 0.982916
-0.053099 -0.222623 0.983110
-0.051437 -0.222620 0.983097
-0.040619 -0.209674 0.925928
-0.039028 -0.209539 0.925332
-0.037432 -0.209357 0.924528
-0.035820 -0.209071 0.923266
-0.034218 -0.208821 0.922162
-0.032609 -0.208504 0.920759
-0.030999 -0.208146 0.919180
-0.029392 -0.207772 0.917530
-0.027789 -0.207383 0.915811
-0.026194 -0.207008 0.914155
-0.024603 -0.206628 0.912475
-0.023023 -0.206293 0.910996
-0.021451 -0.205986 0.909641
-0.019892 -0.205771 0.908691
-0.018339 -0.205579 0.907846
-0.016794 -0.205449 0.907269
-0.015251 -0.205337 0.906774
-0.013706 -0.205151 0.905956
-0.012168 -0.205039 0.905461
-0.010629 -0.204887 0.904787
-0.009094 -0.204758 0.904217
-0.007558 -0.204571 0.903390
-0.006027 -0.204438 0.902804
-0.004497 -0.204245 0.901954
-0.002970 -0.204110 0.901355
-0.001445 -0.203987 0.900813
0.000078 -0.204008 0.900904
0.001601 -0.204097 0.901300
0.003127 -0.204213 0.901810
0.004653 -0.204304 0.902213
0.006181 -0.204384 0.902568
0.007707 -0.204382 0.902558
0.009233 -0.204381 0.902552
0.010761 -0.204424 0.902741
0.012294 -0.204551 0.903304
0.013829 -0.204668 0.903819
0.015367 -0.204798 0.904395
0.016911 -0.204982 0.905206
0.018467 -0.205270 0.906479
0.020028 -0.205562 0.907770
0.021603 -0.205942 0.909447
0.023189 -0.206377 0.911365
0.024779 -0.206784 0.913166
0.026354 -0.207035 0.914275
0.027930 -0.207258 0.915259
0.029510 -0.207492 0.916290
0.031086 -0.207668 0.917070
0.032656 -0.207791 0.917613
0.034215 -0.207843 0.917843
0.035769 -0.207856 0.917898
0.037311 -0.207799 0.917647
0.038857 -0.207770 0.917520
0.040413 -0.207797 0.917638
0.041983 -0.207890 0.918051
0.043550 -0.207959 0.918356
0.045123 -0.208057 0.918786
0.046718 -0.208243 0.919607
0.048331 -0.208493 0.920710
0.049991 -0.208926 0.922624
0.051675 -0.209429 0.924844
0.053371 -0.209952 0.927153
0.055051 -0.210381 0.929049
0.056713 -0.210719 0.930544
0.058336 -0.210900 0.931343
0.059936 -0.210989 0.931734
-0.091223 -0.220709 0.982008
-0.089564 -0.220712 0.982023
-0.087885 -0.220664 0.981810
-0.086196 -0.220590 0.981481
-0.084478 -0.220438 0.980803
-0.082762 -0.220282 0.980111
-0.081059 -0.220158 0.979557
-0.079377 -0.220086 0.979236
-0.077714 -0.220064 0.979138
-0.076059 -0.220064 0.979138
-0.074403 -0.220064 0.979138
-0.072748 -0.220064 0.979138
-0.071093 -0.220064 0.979138
-0.069438 -0.220064 0.979138
-0.067782 -0.220064 0.979138
-0.066134 -0.220086 0.979236
-0.064485 -0.220110 0.979342
-0.062843 -0.220158 0.979557
-0.061208 -0.220233 0.979889
-0.059591 -0.220378 0.980538
-0.057968 -0.220510 0.981125
-0.056342 -0.220639 0.981697
-0.054713 -0.220761 0.982242
-0.053068 -0.220825 0.982526
-0.051405 -0.220818 0.982494
-0.042567 -0.209995 0.934337
-0.040671 -0.208374 0.927125
-0.039079 -0.208243 0.926545
-0.037480 -0.208061 0.925736
-0.035870 -0.207798 0.924565
-0.034263 -0.207532 0.923380
-0.032652 -0.207214 0.921967
-0.031042 -0.206874 0.920454
-0.029444 -0.206579 0.919139
-0.027850 -0.206279 0.917804
-0.026262 -0.205999 0.916559
-0.024674 -0.205673 0.915108
-0.023093 -0.205377 0.913792
-0.021514 -0.205050 0.912336
-0.019945 -0.204774 0.911108
-0.018384 -0.204543 0.910081
-0.016833 -0.204387 0.909388
-0.015285 -0.204254 0.908796
-0.013736 -0.204066 0.907959
-0.012195 -0.203954 0.907460
-0.010651 -0.203762 0.906606
-0.009110 -0.203578 0.905787
-0.007569 -0.203334 0.904702
-0.006034 -0.203149 0.903881
-0.004501 -0.202926 0.902888
-0.002973 -0.202795 0.902304
-0.001447 -0.202709 0.901921
0.000078 -0.202708 0.901916
0.001603 -0.202774 0.902209
0.003129 -0.202850 0.902547
0.004657 -0.202920 0.902858
0.006185 -0.202979 0.903121
0.007711 -0.202974 0.903099
0.009237 -0.202953 0.903005
0.010767 -0.203015 0.903282
0.012304 -0.203184 0.904036
0.013841 -0.203305 0.904572
0.015382 -0.203457 0.905248
0.016928 -0.203656 0.906135
0.018486 -0.203943 0.907413
0.020047 -0.204216 0.908629
0.021626 -0.204616 0.910405
0.023216 -0.205066 0.912407
0.024807 -0.205475 0.914230
0.026388 -0.205746 0.915433
0.027969 -0.205991 0.916525
0.029555 -0.206247 0.917663
0.031133 -0.206428 0.918469
0.032706 -0.206551 0.919014
0.034267 -0.206600 0.919236
0.035823 -0.206611 0.919284
0.037367 -0.206553 0.919025
0.038911 -0.206504 0.918805
0.040465 -0.206505 0.918811
0.042027 -0.206550 0.919010
0.043585 -0.206572 0.919108
0.045152 -0.206630 0.919369
0.046753 -0.206838 0.920293
0.048368 -0.207089 0.921411
0.050030 -0.207524 0.923343
0.051709 -0.207998 0.925452
0.053394 -0.208468 0.927546
0.055062 -0.208849 0.929239
0.056724 -0.209184 0.930730
0.058332 -0.209307 0.931277
0.059925 -0.209373 0.931570
-0.091354 -0.219358 0.983417
-0.089659 -0.219280 0.983066
-0.087945 -0.219151 0.982486
-0.086244 -0.219049 0.982028
-0.084517 -0.218875 0.981248
-0.082800 -0.218720 0.980556
-0.081096 -0.218595 0.979995
-0.079403 -0.218497 0.979557
-0.077730 -0.218449 0.979342
-0.076066 -0.218426 0.979236
-0.074403 -0.218404 0.979138
-0.072748 -0.218404 0.979138
-0.071093 -0.218404 0.979138
-0.069438 -0.218404 0.979138
-0.067782 -0.218404 0.979138
-0.066127 -0.218404 0.979138
-0.064472 -0.218404 0.979138
-0.062823 -0.218426 0.979236
-0.061180 -0.218473 0.979448
-0.059558 -0.218593 0.979988
-0.057935 -0.218722 0.980564
-0.056311 -0.218853 0.981152
-0.054683 -0.218976 0.981704
-0.053041 -0.219050 0.982033
-0.051382 -0.219054 0.982053
-0.049724 -0.219063 0.982092
-0.042590 -0.208523 0.934842
-0.040715 -0.207022 0.928111
-0.039127 -0.206923 0.927669
-0.037532 -0.206779 0.927021
-0.035928 -0.206563 0.926053
-0.034322 -0.206321 0.924970
-0.032712 -0.206030 0.923665
-0.031103 -0.205714 0.922248
-0.029507 -0.205463 0.921120
-0.027921 -0.205247 0.920152
-0.026337 -0.205023 0.919148
-0.024750 -0.204750 0.917927
-0.023167 -0.204480 0.916717
-0.021585 -0.204169 0.915319
-0.020008 -0.203867 0.913968
-0.018442 -0.203634 0.912925
-0.016884 -0.203459 0.912137
-0.015330 -0.203305 0.911447
-0.013775 -0.203094 0.910501
-0.012226 -0.202925 0.909746
-0.010673 -0.202654 0.908531
-0.009126 -0.202402 0.907401
-0.007580 -0.202096 0.906027
-0.006041 -0.201843 0.904894
-0.004508 -0.201672 0.904124
-0.002978 -0.201586 0.903739
-0.001450 -0.201533 0.903501
0.000078 -0.201506 0.903382
0.001605 -0.201544 0.903553
0.003133 -0.201556 0.903606
0.004661 -0.201585 0.903736
0.006189 -0.201601 0.903810
0.007716 -0.201573 0.903683
0.009242 -0.201531 0.903496
0.010775 -0.201631 0.903942
0.012315 -0.201824 0.904808
0.013854 -0.201964 0.905437
0.015399 -0.202156 0.906296
0.016951 -0.202394 0.907363
0.018510 -0.202667 0.908589
0.020071 -0.202919 0.909718
0.021651 -0.203311 0.911474
0.023240 -0.203737 0.913383
0.024832 -0.204126 0.915129
0.026414 -0.204400 0.916358
0.028002 -0.204680 0.917611
0.029592 -0.204951 0.918828
0.031175 -0.205148 0.919708
0.032753 -0.205289 0.920340
0.034320 -0.205358 0.920650
0.035879 -0.205369 0.920699
0.037425 -0.205316 0.920463
0.038969 -0.205251 0.920170
0.040521 -0.205232 0.920086
0.042077 -0.205235 0.920099
0.043632 -0.205234 0.920095
0.045200 -0.205292 0.920353
0.046809 -0.205522 0.921386
0.048427 -0.205778 0.922536
0.050090 -0.206206 0.924451
0.051759 -0.206630 0.926356
0.053422 -0.207005 0.928034
0.055073 -0.207314 0.929418
0.056723 -0.207603 0.930717
0.058326 -0.207708 0.931188
0.060486 -0.209739 0.940291
-0.091536 -0.218126 0.985381
-0.089797 -0.217949 0.984580
-0.088036 -0.217710 0.983501
-0.086302 -0.217531 0.982691
-0.084564 -0.217332 0.981796
-0.082839 -0.217162 0.981025
-0.081134 -0.217036 0.980458
-0.079432 -0.216914 0.979907
-0.077748 -0.216839 0.979566
-0.076075 -0.216789 0.979342
-0.074403 -0.216744 0.979138
-0.072748 -0.216744 0.979138
-0.071093 -0.216744 0.979138
-0.069438 -0.216744 0.979138
-0.067782 -0.216744 0.979138
-0.066127 -0.216744 0.979138
-0.064472 -0.216744 0.979138
-0.062816 -0.216744 0.979138
-0.061167 -0.216766 0.979236
-0.059544 -0.216882 0.979761
-0.057921 -0.217009 0.980335
-0.056299 -0.217142 0.980937
-0.054671 -0.217267 0.981499
-0.053035 -0.217360 0.981918
-0.051375 -0.217360 0.981918
-0.049715 -0.217360 0.981918
-0.042607 -0.207020 0.935208
-0.040758 -0.205669 0.929107
-0.039171 -0.205582 0.928714
-0.037581 -0.205471 0.928213
-0.035981 -0.205298 0.927431
-0.034380 -0.205103 0.926548
-0.032776 -0.204864 0.925469
-0.031171 -0.204597 0.924265
-0.029582 -0.204414 0.923435
-0.028003 -0.204283 0.922846
-0.026423 -0.204128 0.922144
-0.024838 -0.203922 0.921216
-0.023257 -0.203714 0.920276
-0.021668 -0.203400 0.918857
-0.020081 -0.203055 0.917296
-0.018508 -0.202817 0.916224
-0.016941 -0.202603 0.915258
-0.015381 -0.202431 0.914479
-0.013822 -0.202240 0.913617
-0.012269 -0.202096 0.912967
-0.010709 -0.201791 0.911588
-0.009156 -0.201520 0.910365
-0.007603 -0.201168 0.908775
-0.004521 -0.200737 0.906828
-0.002987 -0.200679 0.906564
-0.001454 -0.200622 0.906305
0.000078 -0.200542 0.905946
0.001609 -0.200496 0.905737
0.003139 -0.200426 0.905420
0.004669 -0.200392 0.905270
0.006199 -0.200361 0.905126
0.007727 -0.200309 0.904895
0.009254 -0.200248 0.904619
0.010789 -0.200352 0.905088
0.012333 -0.200582 0.906126
0.013875 -0.200725 0.906773
0.015421 -0.200899 0.907559
0.016974 -0.201118 0.908549
0.018533 -0.201370 0.909685
0.020092 -0.201581 0.910640
0.021672 -0.201966 0.912377
0.023261 -0.202367 0.914188
0.024851 -0.202732 0.915839
0.026432 -0.202982 0.916970
0.028023 -0.203276 0.918296
0.029611 -0.203525 0.919422
0.031198 -0.203738 0.920383
0.032780 -0.203898 0.921107
0.034352 -0.203988 0.921515
0.035913 -0.204005 0.921589
0.037469 -0.203995 0.921545
0.039019 -0.203954 0.921358
0.040574 -0.203940 0.921296
0.042132 -0.203944 0.921313
0.043693 -0.203959 0.921384
0.045264 -0.204016 0.921641
0.046875 -0.204249 0.922690
0.048496 -0.204505 0.923848
0.050152 -0.204891 0.925591
0.051805 -0.205241 0.927174
0.053445 -0.205520 0.928431
0.055078 -0.205757 0.929502
0.056714 -0.205993 0.930569
0.058316 -0.206095 0.931029
-0.093511 -0.217173 0.988645
-0.091753 -0.216968 0.987713
-0.089957 -0.216665 0.986332
-0.088146 -0.216313 0.984730
-0.086370 -0.216034 0.983460
-0.084611 -0.215788 0.982342
-0.082878 -0.215599 0.981480
-0.081165 -0.215458 0.980839
-0.079462 -0.215334 0.980277
-0.077766 -0.215229 0.979798
-0.076083 -0.215153 0.979451
-0.074403 -0.215084 0.979138
-0.072748 -0.215084 0.979138
-0.071093 -0.215084 0.979138
-0.069438 -0.215084 0.979138
-0.067782 -0.215084 0.979138
-0.066127 -0.215084 0.979138
-0.064472 -0.215084 0.979138
-0.062816 -0.215084 0.979138
-0.061161 -0.215084 0.979138
-0.059537 -0.215198 0.979656
-0.057915 -0.215323 0.980226
-0.056293 -0.215456 0.980831
-0.054666 -0.215581 0.981401
-0.053040 -0.215717 0.982017
-0.051381 -0.215721 0.982038
-0.049723 -0.215730 0.982077
-0.042622 -0.205508 0.935541
-0.040792 -0.204261 0.929867
-0.039209 -0.204207 0.929623
-0.037622 -0.204121 0.929228
-0.036028 -0.203991 0.928636
-0.034432 -0.203838 0.927940
-0.032835 -0.203663 0.927145
-0.031238 -0.203470 0.926267
-0.029662 -0.203396 0.925931
-0.028090 -0.203353 0.925732
-0.026513 -0.203260 0.925311
-0.024931 -0.203116 0.924653
-0.023347 -0.202929 0.923801
-0.021749 -0.202595 0.922281
-0.020157 -0.202266 0.920785
-0.018578 -0.202028 0.919702
-0.017003 -0.201780 0.918570
-0.015434 -0.201569 0.917611
-0.013869 -0.201373 0.916717
-0.012309 -0.201212 0.915986
-0.010749 -0.200988 0.914968
-0.004543 -0.200187 0.911321
-0.003000 -0.199993 0.910438
-0.001459 -0.199801 0.909562
0.000078 -0.199660 0.908920
0.001614 -0.199550 0.908421
0.003148 -0.199415 0.907805
0.004682 -0.199391 0.907695
0.006214 -0.199320 0.907371
0.007745 -0.199248 0.907047
0.009276 -0.199186 0.906762
0.010813 -0.199269 0.907143
0.012355 -0.199405 0.907759
0.013898 -0.199528 0.908318
0.015447 -0.199694 0.909077
0.016999 -0.199876 0.909905
0.018556 -0.200085 0.910854
0.020115 -0.200267 0.911685
0.021692 -0.200604 0.913220
0.023278 -0.200961 0.914842
0.024867 -0.201303 0.916403
0.026450 -0.201568 0.917609
0.028042 -0.201861 0.918942
0.029632 -0.202109 0.920069
0.031218 -0.202307 0.920971
0.032801 -0.202467 0.921699
0.034375 -0.202561 0.922130
0.035941 -0.202599 0.922301
0.037506 -0.202630 0.922443
0.039062 -0.202613 0.922363
0.040627 -0.202642 0.922497
0.042188 -0.202648 0.922524
0.043759 -0.202701 0.922767
0.045336 -0.202777 0.923111
0.046951 -0.203011 0.924177
0.048570 -0.203250 0.925265
0.050217 -0.203585 0.926790
0.051848 -0.203837 0.927934
0.053461 -0.204006 0.928708
0.055080 -0.204190 0.929542
0.056707 -0.204390 0.930456
0.058310 -0.204495 0.930931
-0.093638 -0.215790 0.989992
-0.091881 -0.215596 0.989098
-0.090062 -0.215244 0.987487
-0.088238 -0.214868 0.985760
-0.086438 -0.214535 0.984234
-0.084667 -0.214264 0.982991
-0.082924 -0.214054 0.982026
-0.081202 -0.213892 0.981285
-0.079489 -0.213747 0.980616
-0.077784 -0.213617 0.980021
-0.076091 -0.213516 0.979557
-0.074403 -0.213425 0.979138
-0.072748 -0.213425 0.979138
-0.071093 -0.213425 0.979138
-0.069438 -0.213425 0.979138
-0.067782 -0.213425 0.979138
-0.066127 -0.213425 0.979138
-0.064472 -0.213425 0.979138
-0.062816 -0.213425 0.979138
-0.061161 -0.213425 0.979138
-0.059537 -0.213537 0.979656
-0.057915 -0.213662 0.980226
-0.056293 -0.213793 0.980831
-0.054666 -0.213918 0.981401
-0.053041 -0.214054 0.982024
-0.051382 -0.214061 0.982057
-0.049599 -0.213530 0.979624
-0.042548 -0.203567 0.933912
-0.040852 -0.202983 0.931235
-0.039260 -0.202896 0.930834
-0.037671 -0.202809 0.930436
-0.036081 -0.202714 0.930001
-0.034490 -0.202603 0.929490
-0.032901 -0.202496 0.929002
-0.031317 -0.202412 0.928616
-0.029750 -0.202428 0.928687
-0.028178 -0.202411 0.928609
-0.026598 -0.202337 0.928273
-0.025011 -0.202193 0.927609
-0.023419 -0.201989 0.926673
-0.021815 -0.201641 0.925076
-0.020220 -0.201333 0.923666
-0.018636 -0.201094 0.922570
-0.017056 -0.200845 0.921428
-0.015481 -0.200633 0.920454
-0.013913 -0.200452 0.919625
-0.012350 -0.200313 0.918985
-0.010787 -0.200152 0.918248
-0.009236 -0.200173 0.918344
-0.004562 -0.199475 0.915140
-0.003011 -0.199198 0.913872
-0.001464 -0.198921 0.912599
0.000078 -0.198774 0.911925
0.001619 -0.198660 0.911401
0.003157 -0.198506 0.910696
0.004697 -0.198502 0.910677
0.006234 -0.198432 0.910358
0.007770 -0.198359 0.910021
0.009305 -0.198279 0.909654
0.010845 -0.198320 0.909844
0.012386 -0.198370 0.910071
0.013930 -0.198443 0.910408
0.015479 -0.198565 0.910964
0.017029 -0.198682 0.911503
0.018583 -0.198826 0.912162
0.020141 -0.198980 0.912872
0.021714 -0.199252 0.914120
0.023291 -0.199528 0.915384
0.024876 -0.199828 0.916763
0.026463 -0.200107 0.918039
0.028056 -0.200404 0.919401
0.029648 -0.200657 0.920564
0.031242 -0.200896 0.921660
0.032835 -0.201113 0.922654
0.034414 -0.201228 0.923182
0.035986 -0.201288 0.923458
0.037561 -0.201360 0.923787
0.039123 -0.201362 0.923798
0.040695 -0.201412 0.924029
0.042262 -0.201439 0.924152
0.043846 -0.201536 0.924597
0.045431 -0.201637 0.925059
0.047050 -0.201873 0.926142
0.048663 -0.202066 0.927028
0.050296 -0.202331 0.928244
0.051903 -0.202479 0.928924
0.053497 -0.202569 0.929335
0.055091 -0.202654 0.929727
0.056699 -0.202782 0.930312
0.058291 -0.202848 0.930617
-0.093725 -0.214311 0.990909
-0.091961 -0.214103 0.989950
-0.090135 -0.213744 0.988287
-0.088309 -0.213367 0.986547
-0.086489 -0.212992 0.984814
-0.084706 -0.212696 0.983445
-0.082960 -0.212483 0.982457
-0.081229 -0.212298 0.981606
-0.079506 -0.212131 0.980831
-0.077800 -0.212000 0.980226
-0.076099 -0.211877 0.979656
-0.074403 -0.211765 0.979138
-0.072748 -0.211765 0.979138
-0.071093 -0.211765 0.979138
-0.069438 -0.211765 0.979138
-0.067782 -0.211765 0.979138
-0.066127 -0.211765 0.979138
-0.064472 -0.211765 0.979138
-0.062816 -0.211765 0.979138
-0.061167 -0.211786 0.979236
-0.059544 -0.211900 0.979761
-0.057921 -0.212024 0.980335
-0.056304 -0.212175 0.981035
-0.054683 -0.212320 0.981704
-0.053058 -0.212458 0.982343
-0.051404 -0.212485 0.982467
-0.049475 -0.211342 0.977182
-0.042440 -0.201470 0.931540
-0.040871 -0.201498 0.931669
-0.039287 -0.201456 0.931475
-0.037701 -0.201392 0.931179
-0.036121 -0.201359 0.931027
-0.034538 -0.201308 0.930789
-0.032954 -0.201248 0.930510
-0.031379 -0.201231 0.930435
-0.029815 -0.201294 0.930725
-0.028240 -0.201282 0.930671
-0.026657 -0.201207 0.930322
-0.025068 -0.201076 0.929718
-0.023472 -0.200874 0.928783
-0.021867 -0.200551 0.927289
-0.020274 -0.200306 0.926155
-0.018688 -0.200088 0.925147
-0.017103 -0.199841 0.924008
-0.015525 -0.199627 0.923016
-0.013950 -0.199426 0.922085
-0.012381 -0.199260 0.921318
