1714
0.125991 -0.071054 0.919501
0.127677 -0.071128 0.920456
0.129408 -0.071223 0.921695
0.131165 -0.071332 0.923095
0.132984 -0.071471 0.924894
0.134837 -0.071625 0.926884
0.136654 -0.071756 0.928586
0.138462 -0.071879 0.930181
0.140257 -0.071994 0.931662
0.142004 -0.072081 0.932795
0.145059 -0.074420 0.942394
0.143708 -0.072145 0.933614
0.007471 -0.066125 0.874911
0.008951 -0.066136 0.875048
0.010432 -0.066142 0.875131
0.011915 -0.066165 0.875434
0.013395 -0.066165 0.875437
0.014869 -0.066140 0.875106
0.016340 -0.066105 0.874649
0.017809 -0.066068 0.874159
0.019271 -0.066014 0.873446
0.020737 -0.065982 0.873012
0.022215 -0.065987 0.873085
0.023696 -0.066001 0.873272
0.025180 -0.066022 0.873542
0.026673 -0.066060 0.874055
0.028156 -0.066075 0.874248
0.029621 -0.066046 0.873859
0.031085 -0.066016 0.873466
0.032555 -0.066003 0.873296
0.034018 -0.065978 0.872962
0.035500 -0.065989 0.873104
0.037006 -0.066042 0.873810
0.038525 -0.066114 0.874767
0.040042 -0.066178 0.875604
0.041595 -0.066293 0.877133
0.043129 -0.066372 0.878179
0.044656 -0.066435 0.879003
0.046163 -0.066466 0.879417
0.047648 -0.066463 0.879375
0.049090 -0.066403 0.878589
0.050525 -0.066336 0.877700
0.051953 -0.066266 0.876771
0.053375 -0.066191 0.875779
0.054816 -0.066143 0.875150
0.056252 -0.066092 0.874476
0.057707 -0.066065 0.874115
0.059164 -0.066042 0.873817
0.060633 -0.066034 0.873699
0.062135 -0.066059 0.874037
0.063635 -0.066083 0.874349
0.065173 -0.066144 0.875155
0.066726 -0.066217 0.876122
0.068291 -0.066298 0.877198
0.069842 -0.066363 0.878051
0.071426 -0.066455 0.879278
0.073001 -0.066536 0.880343
0.074623 -0.066656 0.881928
0.076273 -0.066795 0.883770
0.077955 -0.066956 0.885905
0.079628 -0.067104 0.887864
0.081278 -0.067227 0.889492
0.082865 -0.067295 0.890382
0.084459 -0.067366 0.891327
0.086054 -0.067435 0.892242
0.087675 -0.067522 0.893391
0.089327 -0.067629 0.894810
0.091025 -0.067767 0.896632
0.092724 -0.067901 0.898407
0.094433 -0.068038 0.900221
0.096140 -0.068169 0.901953
0.097828 -0.068283 0.903462
0.099488 -0.068374 0.904670
0.101112 -0.068438 0.905517
0.102700 -0.068477 0.906023
0.104287 -0.068512 0.906498
0.105862 -0.068540 0.906863
0.107427 -0.068561 0.907135
0.109006 -0.068589 0.907514
0.110610 -0.068633 0.908089
0.112262 -0.068704 0.909032
0.113921 -0.068778 0.910005
0.115676 -0.068907 0.911713
0.117454 -0.069046 0.913555
0.119232 -0.069182 0.915350
0.120964 -0.069287 0.916749
0.122739 -0.069415 0.918436
0.124411 -0.069481 0.919319
0.126077 -0.069543 0.920130
0.127792 -0.069630 0.921283
0.129526 -0.069725 0.922537
0.131257 -0.069816 0.923743
0.133032 -0.069928 0.925228
0.134826 -0.070048 0.926808
0.136600 -0.070154 0.928214
0.138376 -0.070259 0.929606
0.140172 -0.070372 0.931094
0.141931 -0.070464 0.932311
0.143675 -0.070546 0.933406
0.008961 -0.064724 0.876027
0.010443 -0.064730 0.876096
0.011929 -0.064758 0.876480
0.013414 -0.064774 0.876699
0.014894 -0.064764 0.876556
0.016368 -0.064730 0.876104
0.017835 -0.064680 0.875422
0.019294 -0.064611 0.874488
0.020752 -0.064546 0.873610
0.022219 -0.064519 0.873251
0.023689 -0.064501 0.873006
0.025165 -0.064502 0.873008
0.026648 -0.064520 0.873264
0.028128 -0.064528 0.873370
0.029600 -0.064518 0.873228
0.031075 -0.064515 0.873187
0.032559 -0.064530 0.873400
0.034046 -0.064552 0.873685
0.035554 -0.064608 0.874443
0.037079 -0.064688 0.875538
0.038610 -0.064775 0.876709
0.040139 -0.064850 0.877721
0.041674 -0.064929 0.878795
0.043184 -0.064965 0.879287
0.044683 -0.064985 0.879551
0.046159 -0.064969 0.879338
0.047615 -0.064927 0.878770
0.049042 -0.064850 0.877722
0.050469 -0.064776 0.876729
0.051891 -0.064703 0.875728
0.053321 -0.064641 0.874900
0.054772 -0.064608 0.874444
0.056218 -0.064571 0.873943
0.057678 -0.064551 0.873675
0.059140 -0.064535 0.873456
0.060608 -0.064526 0.873334
0.062103 -0.064545 0.873593
0.063614 -0.064580 0.874068
0.065160 -0.064647 0.874976
0.066713 -0.064719 0.875948
0.068283 -0.064804 0.877101
0.069832 -0.064865 0.877931
0.071410 -0.064951 0.879086
0.072985 -0.065029 0.880151
0.074600 -0.065141 0.881659
0.076240 -0.065269 0.883391
0.077928 -0.065432 0.885603
0.079602 -0.065578 0.887574
0.081254 -0.065700 0.889232
0.082865 -0.065786 0.890389
0.084477 -0.065869 0.891513
0.086090 -0.065950 0.892613
0.087723 -0.066043 0.893870
0.089376 -0.066148 0.895294
0.091057 -0.066270 0.896942
0.092735 -0.066386 0.898508
0.094414 -0.066499 0.900040
0.096110 -0.066619 0.901671
0.097789 -0.066725 0.903100
0.099448 -0.066814 0.904306
0.101080 -0.066882 0.905227
0.102686 -0.066932 0.905901
0.104274 -0.066968 0.906392
0.105861 -0.067002 0.906856
0.107427 -0.067023 0.907132
0.109004 -0.067049 0.907492
0.110595 -0.067084 0.907966
0.112247 -0.067154 0.908909
0.113908 -0.067227 0.909902
0.115675 -0.067360 0.911704
0.117466 -0.067504 0.913651
0.119258 -0.067645 0.915551
0.121005 -0.067756 0.917061
0.122793 -0.067888 0.918840
0.124491 -0.067966 0.919905
0.126172 -0.068034 0.920824
0.127905 -0.068128 0.922096
0.129645 -0.068223 0.923383
0.131363 -0.068305 0.924489
0.133109 -0.068399 0.925765
0.134858 -0.068493 0.927031
0.136603 -0.068582 0.928236
0.138351 -0.068671 0.929440
0.140146 -0.068780 0.930923
0.141919 -0.068877 0.932231
0.143712 -0.068981 0.933643
0.008964 -0.063261 0.876318
0.010447 -0.063269 0.876434
0.011936 -0.063306 0.876947
0.013426 -0.063342 0.877446
0.014910 -0.063346 0.877499
0.016390 -0.063332 0.877313
0.017862 -0.063294 0.876776
0.019326 -0.063232 0.875917
0.020779 -0.063148 0.874763
0.022240 -0.063097 0.874051
0.023700 -0.063052 0.873436
0.025167 -0.063027 0.873085
0.026638 -0.063015 0.872921
0.028117 -0.063022 0.873015
0.029601 -0.063041 0.873278
0.031090 -0.063066 0.873624
0.032592 -0.063115 0.874301
0.034108 -0.063185 0.875274
0.035634 -0.063266 0.876395
0.037167 -0.063354 0.877614
0.038706 -0.063445 0.878876
0.040237 -0.063516 0.879859
0.041750 -0.063555 0.880401
0.043239 -0.063556 0.880413
0.044712 -0.063535 0.880115
0.046157 -0.063475 0.879290
0.047584 -0.063397 0.878205
0.048999 -0.063307 0.876958
0.050420 -0.063229 0.875875
0.051842 -0.063157 0.874888
0.053286 -0.063116 0.874317
0.054747 -0.063097 0.874045
0.056199 -0.063068 0.873649
0.057670 -0.063061 0.873555
0.059139 -0.063053 0.873440
0.060609 -0.063046 0.873340
0.062104 -0.063065 0.873606
0.063627 -0.063110 0.874238
0.065166 -0.063170 0.875066
0.066720 -0.063241 0.876042
0.068290 -0.063323 0.877183
0.069832 -0.063377 0.877925
0.071403 -0.063454 0.878998
0.072971 -0.063525 0.879980
0.074571 -0.063622 0.881319
0.076195 -0.063733 0.882865
0.077879 -0.063891 0.885046
0.079553 -0.064033 0.887022
0.081214 -0.064161 0.888789
0.082850 -0.064264 0.890225
0.084488 -0.064366 0.891625
0.086120 -0.064459 0.892924
0.087763 -0.064557 0.894281
0.089417 -0.064660 0.895703
0.091078 -0.064765 0.897157
0.092736 -0.064863 0.898519
0.094394 -0.064959 0.899845
0.096069 -0.065063 0.901288
0.097746 -0.065166 0.902708
0.099397 -0.065247 0.903841
0.101028 -0.065314 0.904761
0.102642 -0.065368 0.905509
0.104230 -0.065404 0.906004
0.105818 -0.065439 0.906492
0.107405 -0.065472 0.906945
0.108981 -0.065498 0.907307
0.110572 -0.065532 0.907778
0.112234 -0.065606 0.908806
0.113906 -0.065684 0.909890
0.115675 -0.065816 0.911712
0.117490 -0.065969 0.913839
0.119295 -0.066113 0.915833
0.121055 -0.066229 0.917435
0.122844 -0.066358 0.919219
0.124566 -0.066447 0.920464
0.126262 -0.066521 0.921484
0.128013 -0.066622 0.922877
0.129755 -0.066715 0.924172
0.131461 -0.066788 0.925182
0.133192 -0.066872 0.926343
0.134914 -0.066949 0.927413
0.136644 -0.067029 0.928517
0.138380 -0.067109 0.929630
0.140187 -0.067222 0.931199
0.141977 -0.067324 0.932612
0.143846 -0.067462 0.934514
0.010527 -0.062256 0.883141
0.011985 -0.062074 0.880563
0.013479 -0.062102 0.880949
0.014968 -0.062097 0.880888
0.016426 -0.061981 0.879234
0.017902 -0.061946 0.878735
0.019366 -0.061875 0.877728
0.020814 -0.061770 0.876240
0.022270 -0.061699 0.875245
0.023725 -0.061634 0.874321
0.025184 -0.061590 0.873686
0.026648 -0.061559 0.873256
0.028135 -0.061582 0.873584
0.029633 -0.061626 0.874202
0.031137 -0.061678 0.874941
0.032656 -0.061754 0.876017
0.034192 -0.061854 0.877436
0.035725 -0.061939 0.878640
0.037262 -0.062025 0.879859
0.038790 -0.062089 0.880775
0.040303 -0.062126 0.881302
0.041792 -0.062126 0.881290
0.043260 -0.062093 0.880834
0.044711 -0.062041 0.880094
0.046141 -0.061964 0.878999
0.047558 -0.061874 0.877721
0.048966 -0.061778 0.876358
0.050380 -0.061696 0.875189
0.051797 -0.061621 0.874133
0.053252 -0.061595 0.873762
0.054724 -0.061589 0.873684
0.056188 -0.061575 0.873476
0.057671 -0.061581 0.873568
0.059151 -0.061585 0.873623
0.060633 -0.061591 0.873700
0.062136 -0.061616 0.874060
0.063672 -0.061673 0.874866
0.065212 -0.061730 0.875685
0.066761 -0.061794 0.876584
0.068318 -0.061861 0.877543
0.069859 -0.061912 0.878268
0.071424 -0.061982 0.879251
0.072979 -0.062040 0.880080
0.074572 -0.062128 0.881321
0.076178 -0.062223 0.882670
0.077845 -0.062363 0.884654
0.079502 -0.062489 0.886451
0.081170 -0.062621 0.888315
0.082824 -0.062736 0.889950
0.084489 -0.062855 0.891636
0.086140 -0.062960 0.893132
0.087800 -0.063068 0.894663
0.089454 -0.063168 0.896082
0.091098 -0.063257 0.897346
0.092734 -0.063339 0.898505
0.094362 -0.063412 0.899545
0.096016 -0.063500 0.900791
0.097684 -0.063595 0.902133
0.099325 -0.063669 0.903183
0.100955 -0.063734 0.904107
0.102577 -0.063793 0.904938
0.104166 -0.063828 0.905447
0.105764 -0.063869 0.906023
0.107361 -0.063908 0.906576
0.108938 -0.063934 0.906950
0.110550 -0.063980 0.907593
0.112235 -0.064066 0.908812
0.113920 -0.064149 0.909998
0.115702 -0.064285 0.911918
0.117538 -0.064446 0.914210
0.119331 -0.064580 0.916113
0.121092 -0.064693 0.917717
0.122870 -0.064813 0.919415
0.124606 -0.064907 0.920753
0.126315 -0.064986 0.921866
0.128080 -0.065091 0.923356
0.129835 -0.065189 0.924741
0.131542 -0.065260 0.925751
0.133259 -0.065334 0.926807
0.134967 -0.065403 0.927778
0.136710 -0.065486 0.928967
0.138436 -0.065560 0.930010
0.140274 -0.065684 0.931775
0.142109 -0.065805 0.933480
0.144044 -0.065968 0.935800
0.012069 -0.061007 0.886741
0.013531 -0.060838 0.884293
0.014992 -0.060705 0.882353
0.016454 -0.060594 0.880747
0.017939 -0.060580 0.880547
0.019410 -0.060524 0.879727
0.020866 -0.060434 0.878418
0.022325 -0.060364 0.877396
0.023773 -0.060275 0.876108
0.025225 -0.060205 0.875085
0.026687 -0.060166 0.874525
0.028177 -0.060190 0.874874
0.029682 -0.060243 0.875642
0.031203 -0.060322 0.876784
0.032735 -0.060415 0.878141
0.034275 -0.060513 0.879562
0.035807 -0.060589 0.880670
0.037336 -0.060654 0.881609
0.038850 -0.060691 0.882155
0.040352 -0.060706 0.882376
0.041825 -0.060679 0.881980
0.043276 -0.060624 0.881175
0.044720 -0.060561 0.880266
0.046141 -0.060474 0.879000
0.047553 -0.060379 0.877620
0.048955 -0.060279 0.876158
0.050368 -0.060198 0.874982
0.051786 -0.060126 0.873941
0.053252 -0.060113 0.873753
0.054731 -0.060115 0.873783
0.056206 -0.060114 0.873761
0.057700 -0.060131 0.874016
0.059193 -0.060147 0.874240
0.060684 -0.060159 0.874421
0.062183 -0.060179 0.874717
0.063726 -0.060240 0.875597
0.065261 -0.060291 0.876337
0.066804 -0.060347 0.877148
0.068349 -0.060401 0.877939
0.069896 -0.060456 0.878731
0.071446 -0.060511 0.879531
0.072994 -0.060561 0.880268
0.074573 -0.060635 0.881335
0.076163 -0.060714 0.882493
0.077812 -0.060837 0.884277
0.079465 -0.060959 0.886041
0.081134 -0.061087 0.887912
0.082805 -0.061213 0.889741
0.084495 -0.061348 0.891707
0.086165 -0.061464 0.893387
0.087827 -0.061570 0.894930
0.089481 -0.061667 0.896343
0.091106 -0.061742 0.897425
0.092723 -0.061808 0.898394
0.094321 -0.061861 0.899154
0.095955 -0.061934 0.900216
0.097611 -0.062019 0.901459
0.099240 -0.062085 0.902415
0.100870 -0.062149 0.903351
0.102501 -0.062212 0.904263
0.104108 -0.062259 0.904944
0.105718 -0.062306 0.905629
0.107336 -0.062357 0.906362
0.108925 -0.062390 0.906841
0.110549 -0.062441 0.907585
0.112235 -0.062525 0.908814
0.113934 -0.062614 0.910110
0.115718 -0.062748 0.912045
0.117556 -0.062906 0.914348
0.119346 -0.063035 0.916227
0.121117 -0.063151 0.917908
0.122896 -0.063268 0.919612
0.124659 -0.063374 0.921146
0.126382 -0.063457 0.922355
0.128160 -0.063565 0.923933
0.129916 -0.063661 0.925317
0.131623 -0.063730 0.926322
0.133328 -0.063796 0.927291
0.135050 -0.063869 0.928350
0.136811 -0.063959 0.929650
0.138554 -0.064038 0.930803
0.140412 -0.064168 0.932690
0.142265 -0.064293 0.934506
0.144250 -0.064474 0.937140
0.004818 -0.064269 0.934166
0.003243 -0.062761 0.935286
0.004813 -0.062623 0.933231
0.006381 -0.062521 0.931705
0.013624 -0.059751 0.890431
0.015057 -0.059462 0.886115
0.016495 -0.059249 0.882952
0.017988 -0.059250 0.882967
0.019465 -0.059201 0.882238
0.020927 -0.059119 0.881013
0.022387 -0.059039 0.879825
0.023834 -0.058941 0.878365
0.025284 -0.058860 0.877156
0.026752 -0.058827 0.876658
0.028248 -0.058857 0.877102
0.029761 -0.058917 0.877993
0.031294 -0.059007 0.879338
0.032834 -0.059103 0.880773
0.034370 -0.059185 0.881998
0.035895 -0.059241 0.882823
0.037411 -0.059279 0.883389
0.038906 -0.059280 0.883408
0.040388 -0.059264 0.883174
0.041846 -0.059213 0.882418
0.043289 -0.059147 0.881431
0.044729 -0.059081 0.880448
0.046157 -0.059004 0.879292
0.047578 -0.058924 0.878098
0.048986 -0.058831 0.876726
0.050405 -0.058758 0.875627
0.051837 -0.058703 0.874812
0.053320 -0.058707 0.874877
0.054807 -0.058716 0.875009
0.056296 -0.058726 0.875153
0.057797 -0.058748 0.875482
0.059287 -0.058758 0.875627
0.060774 -0.058765 0.875730
0.062271 -0.058779 0.875950
0.063810 -0.058833 0.876751
0.065334 -0.058871 0.877313
0.066866 -0.058914 0.877958
0.068392 -0.058950 0.878495
0.069932 -0.058996 0.879185
0.071469 -0.059039 0.879814
0.073011 -0.059083 0.880466
0.074575 -0.059142 0.881355
0.076148 -0.059207 0.882327
0.077780 -0.059314 0.883918
0.079424 -0.059426 0.885583
0.081092 -0.059551 0.887455
0.082771 -0.059680 0.889373
0.084478 -0.059825 0.891527
0.086157 -0.059944 0.893303
0.087827 -0.060053 0.894930
0.089481 -0.060148 0.896343
0.091097 -0.060214 0.897336
0.092704 -0.060273 0.898212
0.094291 -0.060317 0.898868
0.095913 -0.060381 0.899824
0.097557 -0.060458 0.900959
0.099185 -0.060522 0.901914
0.100822 -0.060589 0.902923
0.102464 -0.060657 0.903937
0.104082 -0.060710 0.904724
0.105703 -0.060762 0.905502
0.107333 -0.060819 0.906341
0.108934 -0.060857 0.906910
0.110570 -0.060914 0.907754
0.112268 -0.061003 0.909081
0.113981 -0.061097 0.910489
0.115767 -0.061228 0.912432
0.117593 -0.061376 0.914640
0.119382 -0.061501 0.916504
0.121154 -0.061614 0.918187
0.122936 -0.061729 0.919906
0.124713 -0.061839 0.921547
0.126450 -0.061927 0.922857
0.128231 -0.062034 0.924446
0.130002 -0.062133 0.925932
0.131723 -0.062207 0.927028
0.133445 -0.062279 0.928103
0.135182 -0.062357 0.929257
0.136960 -0.062451 0.930663
0.138709 -0.062530 0.931847
0.140573 -0.062659 0.933762
0.143190 -0.063116 0.940579
0.001665 -0.062885 0.937134
0.003239 -0.061113 0.934333
0.004808 -0.060969 0.932128
0.006373 -0.060865 0.930544
0.007914 -0.062196 0.926863
0.007933 -0.060766 0.929019
0.009453 -0.060445 0.924118
0.015171 -0.058400 0.892856
0.016588 -0.058076 0.887892
0.018061 -0.057988 0.886554
0.019527 -0.057889 0.885032
0.020982 -0.057775 0.883301
0.022445 -0.057698 0.882123
0.023895 -0.057599 0.880602
0.025346 -0.057514 0.879309
0.026822 -0.057491 0.878960
0.028328 -0.057531 0.879572
0.029847 -0.057593 0.880509
0.031385 -0.057684 0.881908
0.032925 -0.057770 0.883223
0.034451 -0.057825 0.884068
0.035961 -0.057850 0.884440
0.037468 -0.057869 0.884729
0.038949 -0.057847 0.884392
0.040417 -0.057808 0.883806
0.041870 -0.057752 0.882940
0.043314 -0.057686 0.881939
0.044756 -0.057624 0.880980
0.046191 -0.057555 0.879938
0.047624 -0.057490 0.878941
0.049044 -0.057413 0.877757
0.050470 -0.057347 0.876753
0.051924 -0.057316 0.876273
0.053420 -0.057332 0.876524
0.054917 -0.057347 0.876751
0.056413 -0.057361 0.876973
0.057916 -0.057382 0.877282
0.059391 -0.057374 0.877171
0.060870 -0.057370 0.877102
0.062360 -0.057377 0.877216
0.063882 -0.057412 0.877744
0.065394 -0.057436 0.878119
0.066913 -0.057467 0.878580
0.068433 -0.057495 0.879018
0.069967 -0.057535 0.879624
0.071498 -0.057570 0.880167
0.073033 -0.057607 0.880731
0.074589 -0.057659 0.881524
0.076155 -0.057717 0.882404
0.077772 -0.057810 0.883825
0.079407 -0.057913 0.885402
0.081075 -0.058035 0.887267
0.082754 -0.058161 0.889197
0.084462 -0.058302 0.891354
0.086149 -0.058424 0.893218
0.087827 -0.058536 0.894930
0.089481 -0.058628 0.896343
0.091088 -0.058688 0.897253
0.092695 -0.058745 0.898123
0.094272 -0.058782 0.898686
0.095884 -0.058838 0.899549
0.097526 -0.058911 0.900670
0.099161 -0.058979 0.901698
0.100791 -0.059040 0.902641
0.102443 -0.059113 0.903750
0.104072 -0.059171 0.904633
0.105694 -0.059223 0.905427
0.107326 -0.059279 0.906283
0.108926 -0.059315 0.906847
0.110561 -0.059370 0.907686
0.112270 -0.059462 0.909093
0.114004 -0.059566 0.910675
0.115804 -0.059700 0.912722
0.117643 -0.059850 0.915024
0.119431 -0.059972 0.916880
0.121201 -0.060081 0.918548
0.122974 -0.060188 0.920195
0.124744 -0.060292 0.921773
0.126496 -0.060385 0.923192
0.128290 -0.060495 0.924873
0.130076 -0.060598 0.926457
0.131815 -0.060678 0.927672
0.133566 -0.060761 0.928942
0.135334 -0.060850 0.930304
0.137143 -0.060954 0.931906
0.138910 -0.061039 0.933191
0.140774 -0.061163 0.935098
0.146001 -0.063649 0.948512
0.144211 -0.061961 0.947290
0.004802 -0.059323 0.931093
0.006365 -0.059213 0.929370
0.007923 -0.059116 0.927842
0.009471 -0.058987 0.925817
0.010939 -0.060023 0.917664
0.010996 -0.058774 0.922479
0.012454 -0.058299 0.915019
0.016694 -0.056933 0.893584
0.018143 -0.056741 0.890572
0.019596 -0.056588 0.888162
0.021043 -0.056443 0.885889
0.022498 -0.056335 0.884197
0.023954 -0.056244 0.882775
0.025412 -0.056170 0.881599
0.026905 -0.056175 0.881682
0.028414 -0.056210 0.882230
0.029931 -0.056258 0.882989
0.031469 -0.056340 0.884278
0.033005 -0.056410 0.885380
0.034515 -0.056431 0.885704
0.036013 -0.056432 0.885716
0.037510 -0.056432 0.885720
0.038981 -0.056394 0.885113
0.040443 -0.056346 0.884360
0.041888 -0.056279 0.883320
0.043332 -0.056215 0.882310
0.044779 -0.056159 0.881432
0.046224 -0.056104 0.880577
0.047670 -0.056054 0.879777
0.049106 -0.055995 0.878864
0.050544 -0.055943 0.878041
0.052021 -0.055935 0.877920
0.053533 -0.055964 0.878377
0.055036 -0.055982 0.878658
0.056540 -0.056001 0.878951
0.058039 -0.056013 0.879140
0.059493 -0.055983 0.878670
0.060954 -0.055961 0.878320
0.062433 -0.055955 0.878239
0.063942 -0.055976 0.878568
0.065447 -0.055994 0.878839
0.066960 -0.056016 0.879187
0.068473 -0.056038 0.879536
0.070014 -0.056081 0.880211
0.071534 -0.056106 0.880604
0.073062 -0.056137 0.881083
0.074610 -0.056181 0.881779
0.076169 -0.056231 0.882564
0.077771 -0.056311 0.883821
0.079401 -0.056407 0.885325
0.081067 -0.056525 0.887181
0.082745 -0.056647 0.889100
0.084453 -0.056785 0.891261
0.086140 -0.056904 0.893134
0.087827 -0.057019 0.894930
0.089481 -0.057109 0.896343
0.091088 -0.057167 0.897253
0.092695 -0.057222 0.898123
0.094264 -0.057253 0.898603
0.095874 -0.057308 0.899462
0.097517 -0.057379 0.900589
0.099164 -0.057452 0.901723
0.100804 -0.057518 0.902760
0.102467 -0.057595 0.903968
0.104107 -0.057657 0.904939
0.105730 -0.057707 0.905735
0.107360 -0.057761 0.906573
0.108961 -0.057797 0.907135
0.110605 -0.057855 0.908048
0.112316 -0.057945 0.909468
0.114063 -0.058052 0.911142
0.115864 -0.058183 0.913201
0.117693 -0.058324 0.915414
0.119471 -0.058437 0.917182
0.121228 -0.058536 0.918749
0.123001 -0.058642 0.920397
0.124758 -0.058736 0.921883
0.126536 -0.058838 0.923481
0.128356 -0.058957 0.925350
0.130184 -0.059076 0.927222
0.131955 -0.059168 0.928656
0.133752 -0.059269 0.930238
0.135541 -0.059363 0.931722
0.137365 -0.059471 0.933416
0.139147 -0.059558 0.934784
0.140999 -0.059673 0.936591
0.004794 -0.057644 0.929463
0.006355 -0.057553 0.928004
0.007914 -0.057477 0.926774
0.009460 -0.057352 0.924757
0.011003 -0.057247 0.923062
0.012492 -0.056919 0.917783
0.013952 -0.056550 0.911837
0.016803 -0.055781 0.899424
0.018241 -0.055529 0.895367
0.019694 -0.055358 0.892618
0.021144 -0.055204 0.890130
0.022600 -0.055085 0.888201
0.024061 -0.054992 0.886701
0.025531 -0.054929 0.885698
0.027031 -0.054936 0.885799
0.028534 -0.054946 0.885962
0.030045 -0.054970 0.886361
0.031573 -0.055022 0.887195
0.033088 -0.055047 0.887597
0.034578 -0.055031 0.887331
0.036067 -0.055013 0.887050
0.037552 -0.054991 0.886701
0.039012 -0.054938 0.885833
0.040471 -0.054885 0.884988
0.041914 -0.054816 0.883866
0.043355 -0.054748 0.882769
0.044802 -0.054693 0.881885
0.046256 -0.054650 0.881188
0.047712 -0.054611 0.880561
0.049165 -0.054571 0.879916
0.050616 -0.054531 0.879282
0.052107 -0.054537 0.879366
0.053633 -0.054577 0.880016
0.055146 -0.054602 0.880412
0.056658 -0.054625 0.880783
0.058159 -0.054636 0.880970
0.059614 -0.054604 0.880454
0.061058 -0.054565 0.879816
0.062526 -0.054547 0.879541
0.064012 -0.054547 0.879531
0.065506 -0.054553 0.879625
0.067007 -0.054564 0.879804
0.068521 -0.054585 0.880147
0.070057 -0.054623 0.880755
0.071578 -0.054648 0.881156
0.073107 -0.054676 0.881621
0.074654 -0.054719 0.882300
0.076200 -0.054757 0.882919
0.077796 -0.054830 0.884095
0.079416 -0.054917 0.885503
0.081074 -0.055026 0.887260
0.082744 -0.055140 0.889091
0.084452 -0.055274 0.891252
0.086140 -0.055390 0.893128
0.087827 -0.055502 0.894930
0.089481 -0.055590 0.896343
0.091097 -0.055651 0.897336
0.092704 -0.055705 0.898212
0.094282 -0.055741 0.898778
0.095894 -0.055794 0.899647
0.097547 -0.055870 0.900867
0.099197 -0.055942 0.902023
0.100850 -0.056013 0.903168
0.102525 -0.056094 0.904474
0.104184 -0.056164 0.905603
0.105807 -0.056213 0.906394
0.107438 -0.056264 0.907224
0.109048 -0.056304 0.907860
0.110684 -0.056355 0.908690
0.112385 -0.056438 0.910029
0.114134 -0.056543 0.911711
0.115938 -0.056671 0.913783
0.117747 -0.056798 0.915836
0.119524 -0.056907 0.917590
0.121278 -0.057003 0.919128
0.123049 -0.057104 0.920755
0.124807 -0.057196 0.922239
0.126597 -0.057300 0.923929
0.128444 -0.057427 0.925979
0.130304 -0.057558 0.928077
0.132121 -0.057666 0.929825
0.133953 -0.057778 0.931638
0.135772 -0.057882 0.933312
0.137573 -0.057976 0.934830
0.139369 -0.058066 0.936280
0.141198 -0.058167 0.937910
0.007905 -0.055847 0.925796
0.009449 -0.055719 0.923683
0.010989 -0.055610 0.921867
0.012497 -0.055389 0.918208
0.013984 -0.055132 0.913943
0.015379 -0.056133 0.905101
0.015444 -0.054830 0.908932
0.016889 -0.054534 0.904028
0.018335 -0.054289 0.899971
0.019790 -0.054106 0.896945
0.021240 -0.053939 0.894169
0.022699 -0.053815 0.892111
0.024168 -0.053728 0.890676
0.025652 -0.053682 0.889912
0.027152 -0.053674 0.889780
0.028655 -0.053672 0.889735
0.030162 -0.053677 0.889823
0.031670 -0.053682 0.889913
0.033163 -0.053664 0.889612
0.034642 -0.053625 0.888966
0.036119 -0.053587 0.888327
0.037594 -0.053548 0.887694
0.039048 -0.053484 0.886634
0.040500 -0.053423 0.885618
0.041940 -0.053350 0.884408
0.043385 -0.053289 0.883385
0.044829 -0.053230 0.882412
0.046288 -0.053192 0.881790
0.047749 -0.053159 0.881246
0.049213 -0.053131 0.880779
0.050671 -0.053099 0.880247
0.052174 -0.053114 0.880494
0.053712 -0.053163 0.881314
0.055228 -0.053188 0.881722
0.056749 -0.053217 0.882197
0.058247 -0.053223 0.882299
0.059693 -0.053182 0.881622
0.061126 -0.053132 0.880795
0.062594 -0.053114 0.880496
0.064064 -0.053099 0.880247
0.065554 -0.053100 0.880264
0.067055 -0.053111 0.880446
0.068570 -0.053131 0.880784
0.070109 -0.053169 0.881411
0.071639 -0.053199 0.881896
0.073175 -0.053232 0.882451
0.074724 -0.053273 0.883123
0.076262 -0.053304 0.883643
0.077843 -0.053364 0.884637
0.079440 -0.053432 0.885770
0.081082 -0.053527 0.887346
0.082743 -0.053632 0.889078
0.084444 -0.053758 0.891164
0.086132 -0.053871 0.893047
0.087835 -0.053990 0.895013
0.089498 -0.054081 0.896515
0.091124 -0.054146 0.897606
0.092733 -0.054200 0.898492
0.094320 -0.054239 0.899144
0.095933 -0.054291 0.900011
0.097587 -0.054366 0.901241
0.099248 -0.054441 0.902489
0.100923 -0.054521 0.903821
0.102610 -0.054606 0.905228
0.104273 -0.054676 0.906380
0.105906 -0.054727 0.907242
0.107538 -0.054778 0.908071
0.109150 -0.054816 0.908714
0.110801 -0.054873 0.909652
0.112516 -0.054959 0.911087
0.114267 -0.055061 0.912772
0.116060 -0.055180 0.914744
0.117857 -0.055298 0.916690
0.119610 -0.055392 0.918252
0.121364 -0.055484 0.919782
0.123137 -0.055582 0.921413
0.124909 -0.055678 0.922993
0.126739 -0.055797 0.924965
0.128617 -0.055933 0.927230
0.130498 -0.056068 0.929464
0.132349 -0.056187 0.931427
0.134199 -0.056302 0.933345
0.135995 -0.056393 0.934847
0.137783 -0.056478 0.936254
0.139579 -0.056564 0.937686
0.141384 -0.056652 0.939145
0.009439 -0.054096 0.922707
0.010979 -0.054001 0.921072
0.012504 -0.053863 0.918724
0.014009 -0.053677 0.915561
0.015494 -0.053459 0.911843
0.016967 -0.053245 0.908180
0.018424 -0.053019 0.904333
0.019885 -0.052839 0.901269
0.021339 -0.052669 0.898359
0.022804 -0.052544 0.896224
0.024279 -0.052457 0.894752
0.025769 -0.052412 0.893984
0.027266 -0.052384 0.893504
0.028763 -0.052359 0.893072
0.030260 -0.052337 0.892705
0.031751 -0.052308 0.892198
0.033230 -0.052262 0.891416
0.034700 -0.052206 0.890466
0.036168 -0.052152 0.889537
0.037633 -0.052098 0.888619
0.039084 -0.052030 0.887455
0.040533 -0.051964 0.886335
0.041974 -0.051893 0.885120
0.043424 -0.051838 0.884183
0.044873 -0.051785 0.883286
0.046338 -0.051754 0.882749
0.047801 -0.051722 0.882213
0.049272 -0.051701 0.881843
0.050742 -0.051679 0.881479
0.052246 -0.051693 0.881712
0.053780 -0.051735 0.882431
0.055300 -0.051761 0.882870
0.056820 -0.051786 0.883295
0.058306 -0.051779 0.883184
0.059743 -0.051731 0.882362
0.061170 -0.051676 0.881430
0.062627 -0.051649 0.880966
0.064093 -0.051630 0.880639
0.065583 -0.051631 0.880664
0.067098 -0.051651 0.880999
0.068627 -0.051681 0.881510
0.070174 -0.051723 0.882231
0.071714 -0.051758 0.882823
0.073259 -0.051796 0.883463
0.074810 -0.051835 0.884144
0.076335 -0.051856 0.884495
0.077894 -0.051898 0.885218
0.079473 -0.051952 0.886134
0.081097 -0.052033 0.887512
0.082743 -0.052124 0.889072
0.084436 -0.052242 0.891083
0.086132 -0.052357 0.893047
0.087844 -0.052478 0.895102
0.089516 -0.052572 0.896703
0.091154 -0.052642 0.897901
0.092773 -0.052700 0.898882
0.094380 -0.052748 0.899716
0.095993 -0.052799 0.900576
0.097658 -0.052876 0.901892
0.099328 -0.052954 0.903215
0.101015 -0.053037 0.904646
0.102706 -0.053121 0.906071
0.104382 -0.053195 0.907327
0.106020 -0.053247 0.908215
0.107655 -0.053296 0.909056
0.109269 -0.053334 0.909707
0.110912 -0.053385 0.910569
0.112619 -0.053464 0.911926
0.114370 -0.053562 0.913598
0.116162 -0.053677 0.915549
0.117947 -0.053785 0.917390
0.119699 -0.053875 0.918935
0.121478 -0.053976 0.920645
0.123269 -0.054078 0.922401
0.125062 -0.054179 0.924123
0.126935 -0.054313 0.926397
0.128846 -0.054458 0.928879
0.130731 -0.054590 0.931122
0.132586 -0.054706 0.933100
0.134424 -0.054812 0.934913
0.136194 -0.054888 0.936211
0.137964 -0.054963 0.937489
0.139762 -0.055047 0.938915
0.141554 -0.055127 0.940280
0.009431 -0.052492 0.921996
0.010974 -0.052415 0.920655
0.012504 -0.052305 0.918720
0.014015 -0.052149 0.915972
0.015514 -0.051983 0.913063
0.017005 -0.051822 0.910238
0.018479 -0.051642 0.907074
0.019961 -0.051507 0.904702
0.021436 -0.051377 0.902423
0.022910 -0.051263 0.900416
0.024397 -0.051187 0.899085
0.025894 -0.051144 0.898321
0.027387 -0.051096 0.897476
0.028875 -0.051044 0.896563
0.030364 -0.050998 0.895766
0.031834 -0.050928 0.894523
0.033299 -0.050856 0.893270
0.034758 -0.050781 0.891950
0.036217 -0.050712 0.890745
0.037669 -0.050640 0.889472
0.039116 -0.050567 0.888192
0.040562 -0.050498 0.886980
0.042004 -0.050429 0.885767
0.043461 -0.050382 0.884930
0.044912 -0.050332 0.884058
0.046388 -0.050311 0.883690
0.047853 -0.050280 0.883155
0.049325 -0.050259 0.882787
0.050797 -0.050239 0.882429
0.052297 -0.050247 0.882569
0.053826 -0.050282 0.883184
0.055341 -0.050301 0.883523
0.056855 -0.050320 0.883844
0.058336 -0.050308 0.883640
0.059774 -0.050261 0.882815
0.061190 -0.050198 0.881716
0.062646 -0.050171 0.881228
0.064112 -0.050152 0.880906
0.065604 -0.050154 0.880942
0.067132 -0.050183 0.881449
0.068675 -0.050222 0.882135
0.070232 -0.050269 0.882954
0.071781 -0.050309 0.883654
0.073337 -0.050351 0.884395
0.074883 -0.050386 0.885001
0.076395 -0.050396 0.885180
0.077937 -0.050425 0.885699
0.079499 -0.050466 0.886421
0.081105 -0.050534 0.887602
0.082750 -0.050622 0.889153
0.084452 -0.050741 0.891248
0.086157 -0.050859 0.893310
0.087887 -0.050986 0.895547
0.089580 -0.051088 0.897335
0.091230 -0.051162 0.898649
0.092852 -0.051219 0.899648
0.094469 -0.051271 0.900561
0.096074 -0.051315 0.901334
0.097731 -0.051385 0.902564
0.099402 -0.051461 0.903887
0.101100 -0.051547 0.905406
0.102804 -0.051635 0.906941
0.104504 -0.051717 0.908391
0.106165 -0.051778 0.909464
0.107814 -0.051832 0.910401
0.109443 -0.051874 0.911150
0.111077 -0.051918 0.911921
0.112763 -0.051985 0.913086
0.114492 -0.052069 0.914571
0.116261 -0.052169 0.916326
0.118036 -0.052269 0.918082
0.119802 -0.052362 0.919724
0.121623 -0.052477 0.921742
0.123457 -0.052595 0.923809
0.125309 -0.052717 0.925952
0.127218 -0.052860 0.928463
0.129148 -0.053007 0.931055
0.131023 -0.053130 0.933205
0.132875 -0.053240 0.935132
0.134672 -0.053325 0.936637
0.136415 -0.053388 0.937733
0.138172 -0.053454 0.938901
0.139955 -0.053529 0.940213
0.141723 -0.053597 0.941401
0.144146 -0.055512 0.946860
0.144125 -0.053900 0.946722
0.009440 -0.050976 0.922842
0.010984 -0.050901 0.921484
0.012519 -0.050809 0.919837
0.014034 -0.050663 0.917182
0.015536 -0.050507 0.914363
0.017040 -0.050382 0.912096
0.018530 -0.050241 0.909546
0.020027 -0.050140 0.907724
0.021519 -0.050040 0.905912
0.023012 -0.049957 0.904393
0.024502 -0.049879 0.902985
0.026004 -0.049831 0.902128
0.027491 -0.049761 0.900860
0.028974 -0.049694 0.899635
0.030455 -0.049628 0.898447
0.031910 -0.049530 0.896668
0.033364 -0.049438 0.894998
0.034815 -0.049350 0.893417
0.036265 -0.049268 0.891931
0.037707 -0.049182 0.890377
0.039152 -0.049106 0.888995
0.040595 -0.049034 0.887701
0.042043 -0.048973 0.886593
0.043502 -0.048928 0.885781
0.044960 -0.048885 0.884999
0.046442 -0.048870 0.884721
0.047909 -0.048841 0.884199
0.049383 -0.048820 0.883825
0.050856 -0.048800 0.883453
0.052348 -0.048799 0.883439
0.053864 -0.048819 0.883804
0.055373 -0.048832 0.884039
0.056875 -0.048839 0.884155
0.058350 -0.048822 0.883858
0.059786 -0.048774 0.882991
0.061201 -0.048713 0.881874
0.062650 -0.048680 0.881293
0.064116 -0.048662 0.880964
0.065609 -0.048665 0.881006
0.067145 -0.048698 0.881618
0.068703 -0.048747 0.882493
0.070270 -0.048798 0.883428
0.071834 -0.048847 0.884299
0.073397 -0.048892 0.885120
0.074944 -0.048925 0.885719
0.076449 -0.048930 0.885811
0.077983 -0.048953 0.886230
0.079537 -0.048988 0.886851
0.081136 -0.049047 0.887933
0.082790 -0.049138 0.889583
0.084502 -0.049260 0.891782
0.086227 -0.049384 0.894033
0.087977 -0.049518 0.896462
0.089682 -0.049623 0.898357
0.091335 -0.049696 0.899682
0.092959 -0.049752 0.900682
0.094586 -0.049806 0.901673
0.096185 -0.049845 0.902375
0.097844 -0.049913 0.903610
0.099527 -0.049991 0.905025
0.101227 -0.050075 0.906545
0.102934 -0.050160 0.908084
0.104647 -0.050246 0.909633
0.106323 -0.050311 0.910813
0.107965 -0.050359 0.911678
0.109605 -0.050404 0.912498
0.111228 -0.050441 0.913161
0.112903 -0.050499 0.914221
0.114619 -0.050575 0.915587
0.116412 -0.050682 0.917518
0.118205 -0.050785 0.919397
0.120015 -0.050894 0.921361
0.121880 -0.051022 0.923691
0.123748 -0.051149 0.925988
0.125621 -0.051275 0.928258
0.127537 -0.051415 0.930791
0.129446 -0.051548 0.933205
0.131295 -0.051655 0.935139
0.133132 -0.051754 0.936938
0.134890 -0.051821 0.938153
0.136619 -0.051875 0.939133
0.138901 -0.052136 0.943852
0.141247 -0.052415 0.948894
0.010998 -0.049402 0.922676
0.012538 -0.049323 0.921196
0.014055 -0.049183 0.918589
0.015563 -0.049042 0.915939
0.017069 -0.048919 0.913640
0.018563 -0.048786 0.911159
0.020061 -0.048684 0.909251
0.021557 -0.048592 0.907538
0.023055 -0.048515 0.906104
0.024551 -0.048444 0.904780
0.026053 -0.048393 0.903831
0.027542 -0.048325 0.902547
0.029025 -0.048253 0.901215
0.030502 -0.048180 0.899845
0.031954 -0.048075 0.897891
0.033409 -0.047985 0.896208
0.034858 -0.047895 0.894523
0.036303 -0.047806 0.892859
0.037742 -0.047717 0.891195
0.039187 -0.047642 0.889791
0.040628 -0.047568 0.888416
0.042078 -0.047510 0.887328
0.043543 -0.047471 0.886605
0.045006 -0.047434 0.885907
0.046489 -0.047419 0.885626
0.047958 -0.047390 0.885093
0.049433 -0.047370 0.884728
0.050912 -0.047355 0.884430
0.052406 -0.047354 0.884417
0.053908 -0.047360 0.884527
0.055407 -0.047363 0.884586
0.056892 -0.047354 0.884418
0.058344 -0.047319 0.883767
0.059763 -0.047259 0.882649
0.061176 -0.047199 0.881520
0.062619 -0.047163 0.880847
0.064083 -0.047145 0.880511
0.065576 -0.047147 0.880561
0.067118 -0.047185 0.881267
0.068684 -0.047238 0.882249
0.070258 -0.047293 0.883283
0.071836 -0.047349 0.884321
0.073412 -0.047401 0.885303
0.074959 -0.047433 0.885901
0.076471 -0.047442 0.886068
0.078006 -0.047465 0.886486
0.079561 -0.047498 0.887114
0.081162 -0.047557 0.888218
0.082841 -0.047660 0.890131
0.084582 -0.047793 0.892622
0.086338 -0.047930 0.895178
0.088109 -0.048071 0.897806
0.089833 -0.048181 0.899870
0.091479 -0.048247 0.901099
0.093095 -0.048295 0.902003
0.094715 -0.048344 0.902905
0.096306 -0.048376 0.903513
0.097968 -0.048443 0.904754
0.099663 -0.048524 0.906263
0.101366 -0.048605 0.907792
0.103087 -0.048693 0.909436
0.104802 -0.048776 0.910982
0.106471 -0.048835 0.912080
0.108114 -0.048881 0.912934
0.109746 -0.048920 0.913671
0.111348 -0.048946 0.914148
0.113010 -0.048996 0.915093
0.114736 -0.049073 0.916523
0.116546 -0.049183 0.918571
0.118370 -0.049295 0.920679
0.120226 -0.049419 0.922979
0.122135 -0.049560 0.925620
0.124032 -0.049693 0.928112
0.125908 -0.049815 0.930379
0.127826 -0.049950 0.932897
0.129710 -0.050068 0.935107
0.131544 -0.050165 0.936914
0.133358 -0.050251 0.938528
0.135104 -0.050311 0.939643
0.136826 -0.050360 0.940559
0.139671 -0.050816 0.949085
0.142613 -0.051298 0.958073
0.143624 -0.052698 0.954031
0.009464 -0.047970 0.925215
0.011014 -0.047908 0.924022
0.012556 -0.047832 0.922555
0.014077 -0.047698 0.919974
0.015588 -0.047564 0.917394
0.017094 -0.047441 0.915009
0.018590 -0.047312 0.912520
0.020089 -0.047208 0.910510
0.021587 -0.047118 0.908784
0.023084 -0.047038 0.907248
0.024582 -0.046969 0.905921
0.026081 -0.046911 0.904785
0.027571 -0.046843 0.903489
0.029053 -0.046770 0.902074
0.030529 -0.046695 0.900627
0.031985 -0.046598 0.898760
0.033444 -0.046514 0.897145
0.034892 -0.046423 0.895379
0.036337 -0.046336 0.893703
0.037777 -0.046248 0.892014
0.039219 -0.046171 0.890524
0.040661 -0.046100 0.889142
0.042117 -0.046048 0.888141
0.043579 -0.046006 0.887332
0.045046 -0.045973 0.886693
0.046530 -0.045957 0.886396
0.048000 -0.045930 0.885872
0.049477 -0.045911 0.885512
0.050962 -0.045900 0.885297
0.052462 -0.045903 0.885357
0.053960 -0.045904 0.885378
0.055454 -0.045902 0.885332
0.056923 -0.045879 0.884895
0.058363 -0.045836 0.884050
0.059770 -0.045768 0.882757
0.061174 -0.045702 0.881482
0.062605 -0.045660 0.880654
0.064074 -0.045646 0.880385
0.065565 -0.045647 0.880417
0.067102 -0.045680 0.881054
0.068674 -0.045736 0.882124
0.070248 -0.045789 0.883160
0.071826 -0.045843 0.884198
0.073402 -0.045894 0.885186
0.074951 -0.045926 0.885798
0.076464 -0.045936 0.885981
0.078006 -0.045962 0.886492
0.079577 -0.046004 0.887295
0.081203 -0.046075 0.888675
0.082920 -0.046195 0.890978
0.084700 -0.046345 0.893868
0.086486 -0.046492 0.896720
0.088262 -0.046630 0.899369
0.089979 -0.046732 0.901337
0.091607 -0.046785 0.902366
0.093214 -0.046826 0.903156
0.094826 -0.046868 0.903969
0.096429 -0.046905 0.904667
0.098103 -0.046974 0.905999
0.099801 -0.047052 0.907516
0.101507 -0.047132 0.909057
0.103241 -0.047222 0.910794
0.104959 -0.047302 0.912342
0.106618 -0.047354 0.913341
0.108261 -0.047398 0.914178
0.109893 -0.047435 0.914902
0.111478 -0.047451 0.915210
0.113154 -0.047505 0.916255
0.114895 -0.047585 0.917792
0.116733 -0.047702 0.920047
0.118578 -0.047819 0.922298
0.120489 -0.047959 0.925003
0.122393 -0.048092 0.927581
0.124293 -0.048221 0.930064
0.126154 -0.048332 0.932195
0.128032 -0.048446 0.934400
0.129877 -0.048545 0.936310
0.131713 -0.048639 0.938117
0.133529 -0.048723 0.939738
0.135272 -0.048778 0.940805
0.137024 -0.048836 0.941916
0.140418 -0.049471 0.954164
0.145632 -0.051795 0.967365
0.143968 -0.050145 0.967171
0.009477 -0.046462 0.926427
0.011028 -0.046400 0.925190
0.012573 -0.046329 0.923777
0.014097 -0.046206 0.921317
0.015611 -0.046077 0.918750
0.017118 -0.045954 0.916289
0.018618 -0.045832 0.913869
0.020116 -0.045726 0.911745
0.021614 -0.045634 0.909910
0.023110 -0.045552 0.908266
0.024607 -0.045480 0.906835
0.026104 -0.045418 0.905597
0.027595 -0.045352 0.904298
0.029079 -0.045282 0.902896
0.030557 -0.045210 0.901460
0.032017 -0.045121 0.899674
0.033478 -0.045040 0.898058
0.034924 -0.044947 0.896213
0.036371 -0.044863 0.894538
0.037809 -0.044775 0.892776
0.039252 -0.044699 0.891267
0.040691 -0.044625 0.889800
0.042144 -0.044571 0.888707
0.043597 -0.044521 0.887715
0.045061 -0.044484 0.886976
0.046540 -0.044464 0.886583
0.048010 -0.044438 0.886066
0.049493 -0.044425 0.885801
0.050980 -0.044416 0.885615
0.052481 -0.044418 0.885671
0.053974 -0.044415 0.885602
0.055461 -0.044407 0.885438
0.056923 -0.044380 0.884900
0.058362 -0.044337 0.884046
0.059769 -0.044272 0.882750
0.061167 -0.044204 0.881389
0.062593 -0.044158 0.880483
0.064061 -0.044144 0.880206
0.065551 -0.044145 0.880230
0.067080 -0.044173 0.880772
0.068652 -0.044226 0.881831
0.070230 -0.044281 0.882929
0.071807 -0.044333 0.883966
0.073391 -0.044387 0.885052
0.074956 -0.044428 0.885863
0.076485 -0.044446 0.886230
0.078044 -0.044481 0.886918
0.079646 -0.044538 0.888066
0.081301 -0.044622 0.889742
0.083048 -0.044753 0.892356
0.084867 -0.044918 0.895634
0.086669 -0.045067 0.898614
0.088440 -0.045196 0.901185
0.090149 -0.045289 0.903034
0.091767 -0.045334 0.903938
0.093350 -0.045361 0.904475
0.094955 -0.045398 0.905198
0.096551 -0.045428 0.905811
0.098226 -0.045495 0.907136
0.099927 -0.045571 0.908664
0.101648 -0.045654 0.910319
0.103385 -0.045742 0.912063
0.105105 -0.045820 0.913612
0.106754 -0.045864 0.914504
0.108397 -0.045905 0.915322
0.110031 -0.045942 0.916045
0.111641 -0.045967 0.916554
0.113346 -0.046030 0.917806
0.115116 -0.046118 0.919556
0.116973 -0.046237 0.921935
0.118835 -0.046355 0.924296
0.120750 -0.046491 0.927004
0.122644 -0.046615 0.929479
0.124520 -0.046730 0.931764
0.126355 -0.046826 0.933684
0.128196 -0.046922 0.935600
0.130014 -0.047008 0.937301
0.131841 -0.047094 0.939026
0.133674 -0.047181 0.940758
0.135425 -0.047237 0.941870
0.137195 -0.047298 0.943092
0.009488 -0.044946 0.927542
0.011042 -0.044887 0.926332
0.012589 -0.044820 0.924939
0.014115 -0.044700 0.922469
0.015631 -0.044576 0.919914
0.017140 -0.044457 0.917461
0.018642 -0.044340 0.915033
0.020139 -0.044232 0.912801
0.021634 -0.044133 0.910764
0.023127 -0.044044 0.908937
0.024622 -0.043970 0.907396
0.026118 -0.043905 0.906065
0.027610 -0.043842 0.904760
0.029094 -0.043774 0.903351
0.030573 -0.043704 0.901922
0.032037 -0.043622 0.900225
0.033502 -0.043548 0.898704
0.034953 -0.043464 0.896960
0.036405 -0.043387 0.895371
0.037848 -0.043306 0.893691
0.039292 -0.043233 0.892188
0.040733 -0.043161 0.890712
0.042182 -0.043103 0.889518
0.043628 -0.043046 0.888342
0.045091 -0.043010 0.887583
0.046567 -0.042986 0.887097
0.048039 -0.042962 0.886592
0.049528 -0.042954 0.886427
0.051026 -0.042953 0.886413
0.052524 -0.042952 0.886401
0.054018 -0.042949 0.886326
0.055501 -0.042937 0.886089
0.056954 -0.042903 0.885383
0.058382 -0.042852 0.884342
0.059783 -0.042785 0.882951
0.061175 -0.042715 0.881503
0.062595 -0.042667 0.880508
0.064062 -0.042653 0.880216
0.065558 -0.042658 0.880320
0.067088 -0.042684 0.880871
0.068659 -0.042735 0.881922
0.070236 -0.042788 0.883002
0.071818 -0.042841 0.884108
0.073404 -0.042895 0.885210
0.074979 -0.042939 0.886129
0.076524 -0.042966 0.886683
0.078100 -0.043008 0.887549
0.079735 -0.043081 0.889058
0.081427 -0.043181 0.891117
0.083205 -0.043323 0.894045
0.085048 -0.043492 0.897535
0.086851 -0.043635 0.900498
0.088597 -0.043746 0.902776
0.090279 -0.043821 0.904339
0.091881 -0.043857 0.905060
0.093457 -0.043878 0.905510
0.095065 -0.043914 0.906241
0.096671 -0.043947 0.906939
0.098367 -0.044020 0.908441
0.100073 -0.044095 0.909987
0.101797 -0.044176 0.911653
0.103536 -0.044260 0.913396
0.105249 -0.044331 0.914861
0.106878 -0.044366 0.915569
0.108534 -0.044410 0.916481
0.110182 -0.044450 0.917305
0.111830 -0.044489 0.918105
0.113577 -0.044565 0.919679
0.115379 -0.044660 0.921652
0.117252 -0.044781 0.924139
0.119102 -0.044889 0.926376
0.120992 -0.045010 0.928863
0.122851 -0.045116 0.931051
0.124692 -0.045213 0.933046
0.126490 -0.045292 0.934679
0.128305 -0.045375 0.936395
0.130100 -0.045449 0.937919
0.131927 -0.045532 0.939638
0.133778 -0.045622 0.941490
0.135544 -0.045681 0.942702
0.137318 -0.045741 0.943941
0.009493 -0.043394 0.927978
0.011048 -0.043342 0.926873
0.012598 -0.043284 0.925631
0.014130 -0.043183 0.923472
0.015651 -0.043072 0.921089
0.017162 -0.042957 0.918633
0.018665 -0.042843 0.916197
0.020163 -0.042734 0.913867
0.021657 -0.042634 0.911725
0.023149 -0.042543 0.909787
0.024642 -0.042467 0.908149
0.026139 -0.042404 0.906817
0.027632 -0.042343 0.905500
0.029118 -0.042277 0.904093
0.030597 -0.042209 0.902649
0.032066 -0.042134 0.901034
0.033530 -0.042060 0.899450
0.034986 -0.041982 0.897788
0.036443 -0.041912 0.896295
0.037883 -0.041830 0.894531
0.039326 -0.041756 0.892944
0.040763 -0.041682 0.891372
0.042205 -0.041618 0.890004
0.043647 -0.041558 0.888722
0.045110 -0.041522 0.887944
0.046586 -0.041500 0.887471
0.048068 -0.041484 0.887133
0.049564 -0.041481 0.887069
0.051068 -0.041484 0.887143
0.052568 -0.041484 0.887138
0.054058 -0.041477 0.886977
0.055536 -0.041461 0.886642
0.056984 -0.041424 0.885851
0.058403 -0.041369 0.884667
0.059804 -0.041303 0.883262
0.061195 -0.041234 0.881785
0.062607 -0.041182 0.880687
0.064063 -0.041161 0.880238
0.065559 -0.041166 0.880344
0.067085 -0.041189 0.880828
0.068656 -0.041239 0.881891
0.070234 -0.041290 0.882977
0.071829 -0.041349 0.884243
0.073423 -0.041405 0.885437
0.075012 -0.041455 0.886524
0.076582 -0.041494 0.887350
0.078182 -0.041547 0.888489
0.079846 -0.041632 0.890291
0.081566 -0.041742 0.892645
0.083351 -0.041880 0.895611
0.085187 -0.042039 0.899002
0.086971 -0.042167 0.901745
0.088690 -0.042260 0.903728
0.090354 -0.042324 0.905089
0.091958 -0.042358 0.905820
0.093537 -0.042379 0.906283
0.095156 -0.042418 0.907113
0.096782 -0.042459 0.907978
0.098492 -0.042534 0.909591
0.100201 -0.042607 0.911151
0.101938 -0.042689 0.912914
0.103678 -0.042771 0.914649
0.105391 -0.042838 0.916100
0.107033 -0.042876 0.916899
0.108715 -0.042928 0.918009
0.110381 -0.042972 0.918962
0.112070 -0.043024 0.920074
0.113836 -0.043104 0.921775
0.115644 -0.043197 0.923775
0.117485 -0.043300 0.925975
0.119298 -0.043390 0.927900
0.121137 -0.043487 0.929973
0.122956 -0.043575 0.931848
0.124773 -0.043659 0.933655
0.126574 -0.043736 0.935299
0.128376 -0.043812 0.936910
0.130170 -0.043882 0.938423
0.131995 -0.043962 0.940125
0.133836 -0.044045 0.941897
0.135603 -0.044102 0.943111
0.137376 -0.044159 0.944339
0.009499 -0.041849 0.928603
0.011057 -0.041805 0.927617
0.012610 -0.041753 0.926465
0.014146 -0.041665 0.924509
0.015672 -0.041568 0.922369
0.017185 -0.041456 0.919894
0.018691 -0.041347 0.917452
0.020190 -0.041242 0.915122
0.021685 -0.041141 0.912893
0.023178 -0.041053 0.910932
0.024668 -0.040970 0.909105
0.026162 -0.040902 0.907594
0.027653 -0.040839 0.906197
0.029143 -0.040779 0.904862
0.030626 -0.040718 0.903503
0.032102 -0.040653 0.902062
0.033571 -0.040585 0.900565
0.035029 -0.040511 0.898905
0.036488 -0.040443 0.897402
0.037926 -0.040359 0.895545
0.039362 -0.040280 0.893779
0.040793 -0.040201 0.892031
0.042231 -0.040134 0.890545
0.043669 -0.040072 0.889177
0.045129 -0.040034 0.888326
0.046606 -0.040013 0.887855
0.048094 -0.040002 0.887614
0.049591 -0.039999 0.887551
0.051096 -0.040003 0.887635
0.052601 -0.040006 0.887706
0.054097 -0.040002 0.887619
0.055576 -0.039987 0.887281
0.057030 -0.039954 0.886562
0.058455 -0.039904 0.885443
0.059851 -0.039837 0.883957
0.061237 -0.039767 0.882396
0.062655 -0.039720 0.881361
0.064106 -0.039696 0.880822
0.065604 -0.039701 0.880938
0.067136 -0.039727 0.881507
0.068711 -0.039776 0.882596
0.070291 -0.039825 0.883698
0.071889 -0.039883 0.884979
0.073484 -0.039937 0.886168
0.075082 -0.039990 0.887351
0.076676 -0.040039 0.888439
0.078297 -0.040100 0.889790
0.079989 -0.040194 0.891888
0.081729 -0.040309 0.894433
0.083502 -0.040435 0.897226
0.085304 -0.040571 0.900239
0.087052 -0.040676 0.902583
0.088742 -0.040752 0.904260
0.090390 -0.040806 0.905451
0.092006 -0.040844 0.906292
0.093606 -0.040873 0.906953
0.095256 -0.040923 0.908061
0.096913 -0.040975 0.909211
0.098637 -0.041053 0.910939
0.100362 -0.041129 0.912615
0.102101 -0.041208 0.914377
0.103831 -0.041281 0.915998
0.105545 -0.041346 0.917439
0.107213 -0.041391 0.918441
0.108924 -0.041451 0.919777
0.110631 -0.041508 0.921043
0.112370 -0.041576 0.922538
0.114152 -0.041657 0.924335
0.115942 -0.041739 0.926156
0.117737 -0.041820 0.927962
0.119510 -0.041892 0.929546
0.121298 -0.041967 0.931208
0.123071 -0.042034 0.932718
0.124865 -0.042108 0.934344
0.126666 -0.042181 0.935980
0.128456 -0.042250 0.937497
0.130238 -0.042314 0.938915
0.132050 -0.042386 0.940517
0.133889 -0.042465 0.942270
0.135643 -0.042515 0.943387
0.137388 -0.042562 0.944419
0.011072 -0.040287 0.928887
0.012628 -0.040240 0.927796
0.014168 -0.040159 0.925937
0.015698 -0.040069 0.923849
0.017215 -0.039965 0.921447
0.018726 -0.039866 0.919185
0.020229 -0.039766 0.916860
0.021722 -0.039661 0.914458
0.023215 -0.039572 0.912387
0.024702 -0.039483 0.910352
0.026192 -0.039409 0.908647
0.027683 -0.039345 0.907152
0.029174 -0.039287 0.905833
0.030662 -0.039232 0.904569
0.032141 -0.039171 0.903144
0.033612 -0.039106 0.901644
0.035074 -0.039037 0.900055
0.036534 -0.038971 0.898531
0.037970 -0.038886 0.896586
0.039407 -0.038808 0.894793
0.040834 -0.038727 0.892920
0.042261 -0.038651 0.891168
0.043695 -0.038587 0.889695
0.045152 -0.038547 0.888772
0.046626 -0.038524 0.888236
0.048115 -0.038514 0.887998
0.049617 -0.038514 0.888010
0.051123 -0.038518 0.888094
0.052624 -0.038518 0.888088
0.054115 -0.038510 0.887917
0.055599 -0.038498 0.887642
0.057058 -0.038470 0.886997
0.058490 -0.038426 0.885981
0.059894 -0.038366 0.884594
0.061287 -0.038302 0.883115
0.062707 -0.038257 0.882088
0.064152 -0.038230 0.881452
0.065650 -0.038234 0.881554
0.067189 -0.038263 0.882203
0.068766 -0.038310 0.883301
0.070355 -0.038362 0.884499
0.071962 -0.038422 0.885874
0.073565 -0.038477 0.887151
0.075180 -0.038536 0.888512
0.076807 -0.038599 0.889958
0.078450 -0.038667 0.891533
0.080163 -0.038767 0.893828
0.081899 -0.038874 0.896290
0.083638 -0.038978 0.898696
0.085397 -0.039087 0.901219
0.087100 -0.039168 0.903079
0.088764 -0.039229 0.904484
0.090415 -0.039281 0.905699
0.092052 -0.039327 0.906743
0.093675 -0.039365 0.907618
0.095355 -0.039425 0.909009
0.097037 -0.039484 0.910370
0.098776 -0.039564 0.912221
0.100515 -0.039642 0.914006
0.102246 -0.039714 0.915669
0.103967 -0.039780 0.917195
0.105702 -0.039850 0.918802
0.107397 -0.039903 0.920015
0.109140 -0.039971 0.921604
0.110900 -0.040044 0.923277
0.112675 -0.040120 0.925039
0.114427 -0.040186 0.926560
0.116182 -0.040252 0.928069
0.117926 -0.040312 0.929450
0.119638 -0.040359 0.930546
0.121364 -0.040410 0.931721
0.123123 -0.040470 0.933113
0.124906 -0.040537 0.934653
0.126697 -0.040605 0.936210
0.128501 -0.040675 0.937826
0.130281 -0.040736 0.939226
0.132080 -0.040801 0.940731
0.133904 -0.040872 0.942375
0.135669 -0.040924 0.943570
0.137400 -0.040964 0.944502
0.012640 -0.038706 0.928727
0.014186 -0.038638 0.927108
0.015720 -0.038558 0.925171
0.017241 -0.038462 0.922868
0.018759 -0.038375 0.920779
0.020266 -0.038282 0.918557
0.021762 -0.038182 0.916154
0.023255 -0.038091 0.913978
0.024742 -0.038001 0.911799
0.026228 -0.037920 0.909874
0.027714 -0.037850 0.908187
0.029207 -0.037795 0.906872
0.030701 -0.037747 0.905723
0.032185 -0.037692 0.904403
0.033659 -0.037630 0.902909
0.035126 -0.037567 0.901386
0.036584 -0.037499 0.899765
