1714
0.070469 -0.250179 0.885942
0.072139 -0.250777 0.888059
0.073841 -0.251459 0.890474
0.075558 -0.252167 0.892984
0.077226 -0.252684 0.894812
0.078914 -0.253246 0.896802
0.080601 -0.253784 0.898707
0.018290 -0.251997 0.897769
0.019775 -0.251580 0.896285
0.021265 -0.251277 0.895204
0.022738 -0.250839 0.893644
0.024194 -0.250273 0.891629
0.025645 -0.249720 0.889655
0.027109 -0.249352 0.888347
0.028561 -0.248916 0.886792
0.030010 -0.248508 0.885338
0.031452 -0.248077 0.883803
0.032908 -0.247786 0.882766
0.034362 -0.247508 0.881778
0.035820 -0.247288 0.880991
0.037281 -0.247094 0.880301
0.038740 -0.246911 0.879649
0.040189 -0.246679 0.878825
0.041628 -0.246401 0.877832
0.043064 -0.246127 0.876855
0.044501 -0.245874 0.875956
0.045949 -0.245698 0.875328
0.047405 -0.245575 0.874889
0.048879 -0.245551 0.874804
0.050388 -0.245696 0.875321
0.051900 -0.245852 0.875877
0.053416 -0.246013 0.876451
0.054946 -0.246231 0.877226
0.056469 -0.246403 0.877838
0.057967 -0.246464 0.878056
0.059476 -0.246564 0.878415
0.061001 -0.246729 0.879000
0.062508 -0.246810 0.879292
0.064035 -0.246966 0.879845
0.065581 -0.247188 0.880637
0.067137 -0.247435 0.881515
0.068731 -0.247808 0.882846
0.070367 -0.248316 0.884655
0.072049 -0.248960 0.886949
0.073770 -0.249711 0.889624
0.075502 -0.250467 0.892319
0.077182 -0.251025 0.894308
0.078878 -0.251612 0.896398
0.080583 -0.252203 0.898505
0.018283 -0.250383 0.897438
0.019769 -0.249993 0.896040
0.021250 -0.249593 0.894608
0.022718 -0.249106 0.892862
0.024172 -0.248539 0.890830
0.025622 -0.247992 0.888868
0.027080 -0.247583 0.887405
0.028532 -0.247167 0.885913
0.029977 -0.246736 0.884367
0.031419 -0.246314 0.882854
0.032877 -0.246058 0.881936
0.034336 -0.245831 0.881125
0.035795 -0.245620 0.880367
0.037257 -0.245447 0.879748
0.038716 -0.245270 0.879114
0.040162 -0.245020 0.878217
0.041599 -0.244744 0.877227
0.043038 -0.244492 0.876325
0.044474 -0.244242 0.875429
0.045921 -0.244068 0.874805
0.047381 -0.243969 0.874449
0.048855 -0.243947 0.874370
0.050363 -0.244092 0.874890
0.051880 -0.244271 0.875530
0.053395 -0.244432 0.876108
0.054925 -0.244649 0.876887
0.056446 -0.244817 0.877487
0.057942 -0.244871 0.877684
0.059444 -0.244944 0.877944
0.060968 -0.245106 0.878526
0.062469 -0.245166 0.878741
0.063982 -0.245272 0.879119
0.065513 -0.245441 0.879724
0.067054 -0.245636 0.880423
0.068626 -0.245937 0.881504
0.070260 -0.246440 0.883305
0.071954 -0.247129 0.885774
0.073688 -0.247926 0.888633
0.075440 -0.248749 0.891584
0.077155 -0.249420 0.893988
0.078866 -0.250054 0.896259
0.080586 -0.250690 0.898540
0.018284 -0.248870 0.897468
0.019764 -0.248400 0.895773
0.021236 -0.247908 0.894000
0.022696 -0.247347 0.891975
0.024144 -0.246736 0.889773
0.025589 -0.246169 0.887728
0.027042 -0.245735 0.886164
0.028495 -0.245344 0.884755
0.029939 -0.244919 0.883222
0.031384 -0.244546 0.881877
0.032847 -0.244340 0.881132
0.034312 -0.244162 0.880492
0.035772 -0.243974 0.879813
0.037234 -0.243804 0.879201
0.038692 -0.243629 0.878568
0.040136 -0.243378 0.877664
0.041574 -0.243108 0.876692
0.043012 -0.242859 0.875793
0.044451 -0.242635 0.874984
0.045897 -0.242459 0.874349
0.047355 -0.242357 0.873982
0.048829 -0.242335 0.873904
0.050336 -0.242481 0.874431
0.051853 -0.242662 0.875081
0.053368 -0.242822 0.875659
0.054892 -0.243016 0.876357
0.056406 -0.243156 0.876864
0.057895 -0.243185 0.876968
0.059390 -0.243233 0.877142
0.060907 -0.243373 0.877644
0.062400 -0.243406 0.877765
0.063910 -0.243508 0.878133
0.065433 -0.243649 0.878641
0.066971 -0.243842 0.879337
0.068528 -0.244094 0.880246
0.070153 -0.244571 0.881964
0.071844 -0.245252 0.884421
0.073584 -0.246073 0.887382
0.075338 -0.246903 0.890377
0.077110 -0.247762 0.893475
0.078875 -0.248562 0.896358
0.080627 -0.249295 0.899002
0.082915 -0.253165 0.907412
0.082347 -0.249901 0.901188
0.016789 -0.247686 0.898692
0.018287 -0.247387 0.897606
0.019763 -0.246873 0.895742
0.021229 -0.246316 0.893721
0.022689 -0.245761 0.891710
0.024132 -0.245107 0.889334
0.025571 -0.244492 0.887106
0.027015 -0.243989 0.885280
0.028464 -0.243577 0.883783
0.029906 -0.243153 0.882247
0.031356 -0.242835 0.881091
0.032821 -0.242653 0.880433
0.034291 -0.242526 0.879969
0.035754 -0.242359 0.879365
0.037211 -0.242167 0.878669
0.038668 -0.241986 0.878010
0.040107 -0.241715 0.877029
0.041544 -0.241448 0.876060
0.042981 -0.241203 0.875171
0.044424 -0.241005 0.874451
0.045869 -0.240828 0.873811
0.047331 -0.240750 0.873526
0.048803 -0.240727 0.873442
0.050305 -0.240848 0.873881
0.051821 -0.241027 0.874530
0.053333 -0.241183 0.875097
0.054847 -0.241333 0.875642
0.056349 -0.241425 0.875976
0.057836 -0.241451 0.876070
0.059323 -0.241475 0.876159
0.060828 -0.241571 0.876507
0.062318 -0.241603 0.876621
0.063826 -0.241700 0.876973
0.065345 -0.241836 0.877469
0.066876 -0.242007 0.878087
0.068431 -0.242257 0.878995
0.070045 -0.242701 0.880606
0.071711 -0.243304 0.882792
0.073415 -0.244005 0.885337
0.075791 -0.246870 0.895733
0.085384 -0.254413 0.917458
0.084405 -0.254581 0.923710
0.086044 -0.254812 0.924548
0.015292 -0.246513 0.899971
0.016798 -0.246293 0.899169
0.018293 -0.245951 0.897922
0.019768 -0.245420 0.895983
0.021229 -0.244800 0.893719
0.022683 -0.244181 0.891459
0.024118 -0.243455 0.888807
0.025550 -0.242787 0.886369
0.026987 -0.242233 0.884348
0.028434 -0.241826 0.882860
0.029881 -0.241457 0.881512
0.031339 -0.241213 0.880623
0.032804 -0.241039 0.879987
0.034274 -0.240916 0.879539
0.035734 -0.240728 0.878854
0.037186 -0.240512 0.878064
0.038633 -0.240283 0.877229
0.040071 -0.240008 0.876224
0.041506 -0.239741 0.875249
0.042946 -0.239524 0.874457
0.044393 -0.239354 0.873836
0.045842 -0.239205 0.873293
0.047307 -0.239150 0.873093
0.048779 -0.239127 0.873006
0.050279 -0.239245 0.873436
0.051793 -0.239417 0.874066
0.053300 -0.239550 0.874553
0.054802 -0.239651 0.874919
0.056296 -0.239716 0.875156
0.057775 -0.239713 0.875148
0.059250 -0.239694 0.875079
0.060753 -0.239788 0.875420
0.062247 -0.239841 0.875614
0.063752 -0.239936 0.875959
0.065271 -0.240075 0.876469
0.066806 -0.240268 0.877173
0.068353 -0.240493 0.877994
0.069951 -0.240883 0.879418
0.071590 -0.241398 0.881298
0.073290 -0.242092 0.883832
0.082663 -0.254028 0.921703
0.080788 -0.253035 0.918100
0.080982 -0.252081 0.920300
0.082944 -0.253323 0.924832
0.084679 -0.253838 0.926714
0.085593 -0.251917 0.919703
0.015290 -0.244962 0.899879
0.016799 -0.244777 0.899197
0.018295 -0.244452 0.898006
0.019770 -0.243920 0.896051
0.021228 -0.243270 0.893662
0.022674 -0.242579 0.891125
0.024100 -0.241776 0.888176
0.025525 -0.241050 0.885509
0.026955 -0.240451 0.883306
0.028398 -0.240030 0.881762
0.029847 -0.239692 0.880521
0.031310 -0.239500 0.879814
0.032778 -0.239357 0.879287
0.034248 -0.239239 0.878854
0.035706 -0.239052 0.878167
0.037159 -0.238854 0.877439
0.038602 -0.238602 0.876514
0.040038 -0.238328 0.875507
0.041475 -0.238083 0.874608
0.042915 -0.237868 0.873818
0.044365 -0.237724 0.873288
0.045819 -0.237606 0.872856
0.047285 -0.237557 0.872675
0.048756 -0.237535 0.872594
0.050259 -0.237670 0.873093
0.051767 -0.237818 0.873635
0.053269 -0.237927 0.874036
0.054763 -0.237999 0.874301
0.056250 -0.238035 0.874433
0.057720 -0.238002 0.874312
0.059193 -0.237981 0.874234
0.060690 -0.238055 0.874507
0.062188 -0.238131 0.874786
0.063693 -0.238228 0.875141
0.065216 -0.238390 0.875737
0.066751 -0.238584 0.876448
0.068304 -0.238832 0.877360
0.069879 -0.239148 0.878521
0.071506 -0.239622 0.880261
0.073191 -0.240269 0.882637
0.081117 -0.250939 0.921837
0.083128 -0.252315 0.926892
0.084866 -0.252823 0.928758
0.085681 -0.250614 0.920643
0.013778 -0.243601 0.900487
0.015288 -0.243402 0.899752
0.016796 -0.243215 0.899061
0.018292 -0.242900 0.897895
0.019766 -0.242359 0.895896
0.021224 -0.241713 0.893506
0.022663 -0.240954 0.890702
0.024083 -0.240094 0.887522
0.025500 -0.239313 0.884635
0.026926 -0.238697 0.882357
0.028366 -0.238262 0.880752
0.029819 -0.237980 0.879708
0.031288 -0.237835 0.879171
0.032754 -0.237694 0.878651
0.034220 -0.237553 0.878132
0.035679 -0.237384 0.877506
0.037131 -0.237188 0.876780
0.038570 -0.236920 0.875791
0.040009 -0.236674 0.874880
0.041449 -0.236452 0.874059
0.042892 -0.236262 0.873358
0.044347 -0.236144 0.872921
0.045809 -0.236074 0.872661
0.047279 -0.236050 0.872572
0.048750 -0.236029 0.872498
0.050249 -0.236144 0.872921
0.051748 -0.236247 0.873300
0.053243 -0.236330 0.873609
0.054726 -0.236355 0.873702
0.056205 -0.236363 0.873733
0.057668 -0.236308 0.873526
0.059144 -0.236305 0.873518
0.060634 -0.236358 0.873712
0.062138 -0.236458 0.874081
0.063648 -0.236579 0.874529
0.065172 -0.236743 0.875137
0.066706 -0.236936 0.875851
0.068264 -0.237206 0.876847
0.069819 -0.237455 0.877767
0.071411 -0.237813 0.879089
0.073090 -0.238444 0.881422
0.080864 -0.248601 0.918968
0.082899 -0.250053 0.924336
0.084668 -0.250663 0.926592
0.085603 -0.248828 0.919808
0.087780 -0.252173 0.926369
0.087029 -0.248458 0.918443
0.013772 -0.241966 0.900082
0.015283 -0.241802 0.899473
0.016791 -0.241616 0.898780
0.018285 -0.241278 0.897522
0.019758 -0.240742 0.895532
0.021213 -0.240077 0.893055
0.022645 -0.239251 0.889982
0.024061 -0.238370 0.886705
0.025476 -0.237590 0.883805
0.026898 -0.236958 0.881456
0.028338 -0.236533 0.879874
0.029795 -0.236297 0.878995
0.031262 -0.236150 0.878448
0.032724 -0.235986 0.877840
0.034187 -0.235842 0.877303
0.035648 -0.235695 0.876757
0.037104 -0.235524 0.876119
0.038546 -0.235289 0.875244
0.039989 -0.235073 0.874442
0.041433 -0.234877 0.873713
0.042875 -0.234689 0.873013
0.044329 -0.234572 0.872577
0.045791 -0.234502 0.872318
0.047261 -0.234481 0.872238
0.048731 -0.234459 0.872156
0.050230 -0.234572 0.872577
0.051722 -0.234651 0.872871
0.053216 -0.234731 0.873170
0.054698 -0.234755 0.873260
0.056176 -0.234764 0.873293
0.057639 -0.234710 0.873093
0.059121 -0.234731 0.873171
0.060616 -0.234807 0.873454
0.062126 -0.234932 0.873917
0.063635 -0.235050 0.874357
0.065165 -0.235235 0.875044
0.066692 -0.235404 0.875675
0.068250 -0.235672 0.876670
0.069806 -0.235922 0.877599
0.071390 -0.236254 0.878834
0.073058 -0.236845 0.881034
0.080559 -0.246112 0.915504
0.082552 -0.247445 0.920463
0.084328 -0.248092 0.922873
0.085355 -0.246551 0.917140
0.086233 -0.244644 0.910044
0.088620 -0.248567 0.918845
0.013767 -0.240351 0.899748
0.015279 -0.240214 0.899237
0.016788 -0.240045 0.898605
0.018277 -0.239654 0.897140
0.019749 -0.239115 0.895122
0.021201 -0.238427 0.892547
0.022628 -0.237564 0.889315
0.024041 -0.236670 0.885970
0.025458 -0.235924 0.883176
0.026880 -0.235301 0.880845
0.028321 -0.234902 0.879351
0.029780 -0.234687 0.878545
0.031243 -0.234517 0.877909
0.032701 -0.234329 0.877205
0.034159 -0.234161 0.876577
0.035618 -0.234014 0.876025
0.037077 -0.233872 0.875493
0.038523 -0.233668 0.874733
0.039974 -0.233502 0.874108
0.041425 -0.233352 0.873547
0.042871 -0.233185 0.872925
0.044325 -0.233070 0.872494
0.045786 -0.233002 0.872238
0.047252 -0.232955 0.872062
0.048716 -0.232909 0.871891
0.050209 -0.232995 0.872211
0.051695 -0.233049 0.872413
0.053188 -0.233127 0.872705
0.054674 -0.233174 0.872882
0.056159 -0.233211 0.873021
0.057623 -0.233164 0.872843
0.059105 -0.233188 0.872936
0.060600 -0.233263 0.873216
0.062103 -0.233366 0.873599
0.063613 -0.233485 0.874045
0.065141 -0.233666 0.874723
0.066673 -0.233853 0.875422
0.068236 -0.234137 0.876486
0.069798 -0.234407 0.877499
0.071390 -0.234764 0.878834
0.073084 -0.235436 0.881348
0.075394 -0.239534 0.891035
0.074778 -0.236080 0.883761
0.083887 -0.240785 0.901373
0.085488 -0.241001 0.902182
0.087191 -0.243027 0.904028
0.087136 -0.241340 0.903453
0.013763 -0.238758 0.899494
0.015276 -0.238640 0.899048
0.016781 -0.238428 0.898252
0.018270 -0.238035 0.896771
0.019739 -0.237473 0.894651
0.021189 -0.236780 0.892040
0.022615 -0.235921 0.888807
0.024028 -0.235041 0.885489
0.025448 -0.234332 0.882818
0.026872 -0.233738 0.880579
0.028312 -0.233341 0.879086
0.029768 -0.233103 0.878188
0.031227 -0.232912 0.877470
0.032681 -0.232701 0.876675
0.034138 -0.232532 0.876039
0.035600 -0.232410 0.875578
0.037062 -0.232295 0.875145
0.038516 -0.232141 0.874563
0.039970 -0.231999 0.874030
0.041425 -0.231871 0.873547
0.042871 -0.231707 0.872928
0.044325 -0.231592 0.872498
0.045782 -0.231502 0.872156
0.047242 -0.231431 0.871891
0.048701 -0.231357 0.871610
0.050187 -0.231415 0.871829
0.051667 -0.231446 0.871946
0.053165 -0.231547 0.872328
0.054657 -0.231620 0.872603
0.056147 -0.231684 0.872843
0.057617 -0.231662 0.872759
0.059104 -0.231707 0.872930
0.060599 -0.231780 0.873206
0.062102 -0.231880 0.873582
0.063611 -0.231998 0.874027
0.065133 -0.232157 0.874624
0.066665 -0.232341 0.875318
0.068228 -0.232624 0.876385
0.069790 -0.232895 0.877404
0.071389 -0.233272 0.878827
0.073071 -0.233900 0.881193
0.074749 -0.234490 0.883414
0.076625 -0.237172 0.887850
0.076536 -0.235395 0.886823
0.078503 -0.238317 0.892136
0.078361 -0.236377 0.890525
0.080380 -0.239415 0.896246
0.080202 -0.237371 0.894267
0.082130 -0.240101 0.898813
0.081957 -0.238075 0.896920
0.083716 -0.238769 0.899536
0.085376 -0.239158 0.901001
0.087076 -0.239643 0.902829
0.089505 -0.243631 0.912029
0.089420 -0.241856 0.911164
0.013768 -0.237312 0.899791
0.015280 -0.237180 0.899292
0.016783 -0.236930 0.898343
0.018270 -0.236517 0.896779
0.019737 -0.235932 0.894559
0.021183 -0.235195 0.891766
0.022608 -0.234339 0.888520
0.024020 -0.233466 0.885209
0.025442 -0.232787 0.882634
0.026866 -0.232199 0.880408
0.028307 -0.231805 0.878913
0.029759 -0.231545 0.877925
0.031214 -0.231332 0.877118
0.032665 -0.231102 0.876245
0.034125 -0.230956 0.875692
0.035590 -0.230857 0.875317
0.037052 -0.230746 0.874897
0.038509 -0.230615 0.874400
0.039966 -0.230494 0.873943
0.041417 -0.230347 0.873385
0.042863 -0.230185 0.872768
0.044317 -0.230071 0.872339
0.045774 -0.229981 0.871995
0.047229 -0.229887 0.871638
0.048685 -0.229808 0.871340
0.050166 -0.229843 0.871472
0.051646 -0.229873 0.871586
0.053144 -0.229977 0.871979
0.054641 -0.230074 0.872348
0.056137 -0.230161 0.872680
0.057612 -0.230161 0.872680
0.059099 -0.230204 0.872843
0.060598 -0.230294 0.873184
0.062100 -0.230390 0.873547
0.063609 -0.230509 0.873998
0.065126 -0.230647 0.874522
0.066657 -0.230831 0.875220
0.068213 -0.231089 0.876197
0.069783 -0.231382 0.877309
0.071371 -0.231723 0.878600
0.073037 -0.232297 0.880778
0.074702 -0.232847 0.882864
0.076439 -0.233594 0.885695
0.078211 -0.234418 0.888820
0.080027 -0.235338 0.892306
0.081787 -0.236064 0.895061
0.083551 -0.236775 0.897755
0.085262 -0.237315 0.899804
0.086998 -0.237901 0.902026
0.088693 -0.238360 0.903764
0.012258 -0.236006 0.900631
0.013772 -0.235860 0.900070
0.015284 -0.235718 0.899530
0.016787 -0.235458 0.898536
0.018276 -0.235073 0.897067
0.019743 -0.234493 0.894854
0.021186 -0.233719 0.891901
0.022610 -0.232861 0.888626
0.024020 -0.231966 0.885211
0.025438 -0.231247 0.882468
0.026859 -0.230643 0.880163
0.028298 -0.230248 0.878655
0.029747 -0.229964 0.877573
0.031199 -0.229731 0.876682
0.032651 -0.229523 0.875888
0.034114 -0.229402 0.875426
0.035580 -0.229308 0.875069
0.037041 -0.229198 0.874649
0.038501 -0.229085 0.874219
0.039954 -0.228945 0.873682
0.041401 -0.228778 0.873045
0.042847 -0.228616 0.872426
0.044299 -0.228501 0.871989
0.045755 -0.228411 0.871644
0.047210 -0.228319 0.871294
0.048667 -0.228244 0.871007
0.050151 -0.228299 0.871218
0.051636 -0.228351 0.871415
0.053134 -0.228456 0.871817
0.054636 -0.228575 0.872270
0.056137 -0.228682 0.872680
0.057612 -0.228682 0.872680
0.059098 -0.228723 0.872837
0.060597 -0.228812 0.873177
0.062099 -0.228908 0.873543
0.063610 -0.229030 0.874007
0.065126 -0.229166 0.874528
0.066657 -0.229347 0.875218
0.068212 -0.229601 0.876188
0.069788 -0.229913 0.877379
0.071390 -0.230294 0.878831
0.073029 -0.230781 0.880690
0.074671 -0.231254 0.882494
0.076357 -0.231844 0.884746
0.078078 -0.232513 0.887298
0.079834 -0.233261 0.890155
0.081603 -0.234020 0.893050
0.083375 -0.234757 0.895862
0.085129 -0.235421 0.898395
0.086890 -0.236079 0.900907
0.088619 -0.236630 0.903008
0.090359 -0.238722 0.905140
0.090302 -0.237040 0.904576
0.092671 -0.240754 0.912842
0.091919 -0.237267 0.905439
0.012262 -0.234556 0.900925
0.013778 -0.234428 0.900434
0.015290 -0.234275 0.899843
0.016792 -0.234011 0.898829
0.018282 -0.233630 0.897369
0.019751 -0.233060 0.895177
0.021191 -0.232266 0.892128
0.022614 -0.231388 0.888756
0.024018 -0.230449 0.885150
0.025430 -0.229685 0.882216
0.026851 -0.229081 0.879895
0.028287 -0.228667 0.878303
0.029735 -0.228383 0.877212
0.031188 -0.228168 0.876386
0.032644 -0.227983 0.875677
0.034104 -0.227849 0.875161
0.035569 -0.227758 0.874813
0.037030 -0.227646 0.874382
0.038488 -0.227530 0.873938
0.039941 -0.227388 0.873392
0.041388 -0.227225 0.872766
0.042836 -0.227083 0.872221
0.044288 -0.226965 0.871768
0.045748 -0.226896 0.871502
0.047203 -0.226811 0.871175
0.048666 -0.226765 0.870998
0.050152 -0.226824 0.871224
0.051641 -0.226895 0.871499
0.053134 -0.226978 0.871817
0.054636 -0.227096 0.872270
0.056137 -0.227203 0.872680
0.057617 -0.227223 0.872759
0.059104 -0.227267 0.872927
0.060610 -0.227379 0.873358
0.062113 -0.227478 0.873739
0.063630 -0.227620 0.874281
0.065141 -0.227735 0.874724
0.066677 -0.227931 0.875479
0.068226 -0.228162 0.876364
0.069795 -0.228449 0.877469
0.071383 -0.228785 0.878756
0.073002 -0.229201 0.880355
0.074619 -0.229598 0.881879
0.076259 -0.230047 0.883605
0.077943 -0.230611 0.885773
0.079669 -0.231275 0.888321
0.081440 -0.232042 0.891267
0.083208 -0.232772 0.894073
0.084986 -0.233505 0.896885
0.086761 -0.234204 0.899571
0.088505 -0.234796 0.901845
0.090204 -0.235251 0.903593
0.091842 -0.235534 0.904680
0.012265 -0.233096 0.901182
0.013783 -0.232987 0.900763
0.015295 -0.232824 0.900132
0.016797 -0.232560 0.899112
0.018289 -0.232203 0.897732
0.019757 -0.231619 0.895473
0.021196 -0.230809 0.892340
0.022617 -0.229910 0.888865
0.024018 -0.228945 0.885133
0.025422 -0.228119 0.881941
0.026844 -0.227536 0.879688
0.028278 -0.227102 0.878011
0.029725 -0.226822 0.876928
0.031179 -0.226609 0.876105
0.032636 -0.226449 0.875484
0.034094 -0.226297 0.874898
0.035558 -0.226207 0.874548
0.037018 -0.226091 0.874101
0.038475 -0.225972 0.873639
0.039928 -0.225834 0.873108
0.041379 -0.225696 0.872575
0.042827 -0.225556 0.872031
0.044278 -0.225437 0.871574
0.045742 -0.225389 0.871386
0.047198 -0.225309 0.871076
0.048663 -0.225271 0.870932
0.050153 -0.225351 0.871238
0.051646 -0.225440 0.871586
0.053134 -0.225500 0.871817
0.054636 -0.225617 0.872270
0.056137 -0.225723 0.872680
0.057623 -0.225766 0.872843
0.059116 -0.225834 0.873108
0.060629 -0.225972 0.873640
0.062140 -0.226095 0.874116
0.063657 -0.226234 0.874653
0.065168 -0.226346 0.875086
0.066698 -0.226520 0.875759
0.068241 -0.226727 0.876560
0.069804 -0.226990 0.877578
0.071391 -0.227318 0.878845
0.072987 -0.227663 0.880179
0.074595 -0.228030 0.881598
0.076218 -0.228426 0.883128
0.077878 -0.228917 0.885028
0.079570 -0.229483 0.887217
0.081336 -0.230236 0.890125
0.083093 -0.230938 0.892839
0.084862 -0.231645 0.895575
0.086634 -0.232337 0.898250
0.088389 -0.232961 0.900662
0.090078 -0.233391 0.902324
0.091715 -0.233676 0.903425
0.094136 -0.237461 0.912082
0.093292 -0.233801 0.903910
0.012268 -0.231612 0.901354
0.013786 -0.231524 0.901011
0.015298 -0.231348 0.900325
0.016802 -0.231105 0.899378
0.018295 -0.230749 0.897996
0.019761 -0.230147 0.895650
0.021198 -0.229316 0.892417
0.022618 -0.228416 0.888916
0.024017 -0.227436 0.885101
0.025416 -0.226571 0.881736
0.026841 -0.226014 0.879566
0.028272 -0.225565 0.877819
0.029716 -0.225269 0.876667
0.031169 -0.225058 0.875847
0.032630 -0.224920 0.875311
0.034084 -0.224750 0.874647
0.035548 -0.224657 0.874286
0.037006 -0.224536 0.873817
0.038463 -0.224418 0.873358
0.039916 -0.224286 0.872843
0.041371 -0.224177 0.872417
0.042821 -0.224043 0.871897
0.044271 -0.223923 0.871429
0.045734 -0.223872 0.871233
0.047190 -0.223792 0.870921
0.048654 -0.223756 0.870782
0.050149 -0.223856 0.871169
0.051646 -0.223964 0.871592
0.053134 -0.224022 0.871817
0.054636 -0.224139 0.872270
0.056137 -0.224244 0.872680
0.057629 -0.224308 0.872930
0.059129 -0.224401 0.873291
0.060644 -0.224544 0.873847
0.062155 -0.224665 0.874318
0.063677 -0.224822 0.874928
0.065188 -0.224931 0.875352
0.066714 -0.225088 0.875964
0.068251 -0.225274 0.876688
0.069812 -0.225529 0.877680
0.071384 -0.225807 0.878761
0.072965 -0.226103 0.879912
0.074565 -0.226444 0.881239
0.076185 -0.226832 0.882752
0.077837 -0.227299 0.884569
0.079513 -0.227817 0.886584
0.081261 -0.228517 0.889309
0.083008 -0.229189 0.891924
0.084757 -0.229843 0.894470
0.086503 -0.230465 0.896890
0.088243 -0.231053 0.899178
0.089925 -0.231469 0.900798
0.091558 -0.231747 0.901878
0.093151 -0.231918 0.902543
0.012275 -0.230210 0.901848
0.013792 -0.230093 0.901389
0.015300 -0.229847 0.900425
0.016802 -0.229582 0.899386
0.018295 -0.229226 0.897992
0.019759 -0.228604 0.895557
0.021196 -0.227779 0.892322
0.022615 -0.226880 0.888800
0.024016 -0.225929 0.885077
0.025411 -0.225033 0.881566
0.026839 -0.224504 0.879494
0.028269 -0.224055 0.877736
0.029711 -0.223741 0.876506
0.031161 -0.223511 0.875605
0.032624 -0.223393 0.875140
0.034074 -0.223202 0.874391
0.035534 -0.223089 0.873951
0.036995 -0.222988 0.873556
0.038455 -0.222892 0.873177
0.039908 -0.222765 0.872681
0.041372 -0.222702 0.872434
0.042826 -0.222593 0.872006
0.044277 -0.222476 0.871549
0.045739 -0.222420 0.871331
0.047194 -0.222336 0.870998
0.048654 -0.222277 0.870770
0.050144 -0.222357 0.871082
0.051641 -0.222464 0.871502
0.053128 -0.222523 0.871731
0.054630 -0.222639 0.872186
0.056132 -0.222745 0.872602
0.057634 -0.222850 0.873014
0.059140 -0.222965 0.873463
0.060656 -0.223109 0.874028
0.062173 -0.223248 0.874573
0.063700 -0.223421 0.875251
0.065213 -0.223532 0.875687
0.066734 -0.223669 0.876224
0.068271 -0.223853 0.876943
0.069818 -0.224060 0.877754
0.071382 -0.224311 0.878737
0.072949 -0.224563 0.879723
0.074542 -0.224881 0.880969
0.076155 -0.225248 0.882408
0.077807 -0.225710 0.884219
0.079475 -0.226205 0.886159
0.081206 -0.226855 0.888705
0.082949 -0.227516 0.891292
0.084687 -0.228139 0.893732
0.086414 -0.228710 0.895970
0.088126 -0.229224 0.897983
0.089801 -0.229625 0.899554
0.091420 -0.229871 0.900517
0.093008 -0.230035 0.901161
0.012281 -0.228797 0.902301
0.013798 -0.228654 0.901739
0.015301 -0.228343 0.900515
0.016804 -0.228077 0.899463
0.018294 -0.227703 0.897989
0.019759 -0.227084 0.895548
0.021196 -0.226264 0.892315
0.022615 -0.225373 0.888800
0.024017 -0.224433 0.885094
0.025415 -0.223566 0.881673
0.026842 -0.223042 0.879606
0.028272 -0.222594 0.877842
0.029711 -0.222257 0.876513
0.031157 -0.222002 0.875506
0.032614 -0.221841 0.874870
0.034060 -0.221629 0.874036
0.035520 -0.221519 0.873602
0.036984 -0.221443 0.873300
0.038448 -0.221370 0.873014
0.039908 -0.221286 0.872680
0.041380 -0.221266 0.872602
0.042839 -0.221180 0.872264
0.044290 -0.221066 0.871815
0.045752 -0.221006 0.871580
0.047202 -0.220898 0.871152
0.048657 -0.220815 0.870824
0.050142 -0.220875 0.871062
0.051640 -0.220982 0.871484
0.053128 -0.221042 0.871719
0.054630 -0.221158 0.872177
0.056137 -0.221284 0.872675
0.057645 -0.221412 0.873177
0.059152 -0.221527 0.873634
0.060668 -0.221669 0.874193
0.062190 -0.221826 0.874811
0.063718 -0.221999 0.875493
0.065232 -0.222113 0.875945
0.066754 -0.222252 0.876491
0.068284 -0.222410 0.877114
0.069823 -0.222588 0.877818
0.071379 -0.222813 0.878703
0.072941 -0.223046 0.879622
0.074534 -0.223363 0.880874
0.076155 -0.223751 0.882403
0.077806 -0.224211 0.884216
0.079475 -0.224703 0.886159
0.081182 -0.225283 0.888444
0.082906 -0.225888 0.890829
0.084624 -0.226454 0.893064
0.086324 -0.226954 0.895036
0.088010 -0.227400 0.896796
0.089680 -0.227792 0.898338
0.091294 -0.228029 0.899276
0.092891 -0.228218 0.900021
0.010771 -0.227593 0.903596
0.012285 -0.227341 0.902594
0.013801 -0.227183 0.901968
0.015301 -0.226817 0.900515
0.016802 -0.226531 0.899378
0.018291 -0.226137 0.897813
0.019753 -0.225500 0.895286
0.021190 -0.224688 0.892062
0.022611 -0.223828 0.888647
0.024018 -0.222939 0.885119
0.025420 -0.222122 0.881875
0.026850 -0.221620 0.879883
0.028281 -0.221174 0.878112
0.029717 -0.220813 0.876678
0.031157 -0.220514 0.875491
0.032606 -0.220305 0.874662
0.034052 -0.220093 0.873817
0.035512 -0.219987 0.873396
0.036976 -0.219917 0.873119
0.038444 -0.219869 0.872930
0.039908 -0.219806 0.872680
0.041380 -0.219787 0.872602
0.042839 -0.219703 0.872270
0.044291 -0.219591 0.871824
0.045752 -0.219532 0.871591
0.047203 -0.219424 0.871161
0.048657 -0.219340 0.870830
0.050142 -0.219398 0.871060
0.051640 -0.219504 0.871479
0.053132 -0.219581 0.871785
0.054640 -0.219719 0.872334
0.056158 -0.219888 0.873007
0.057673 -0.220039 0.873606
0.059187 -0.220175 0.874146
0.060697 -0.220295 0.874622
0.062220 -0.220449 0.875234
0.063738 -0.220582 0.875761
0.065247 -0.220679 0.876145
0.066757 -0.220774 0.876522
0.068279 -0.220905 0.877043
0.069810 -0.221057 0.877647
0.071365 -0.221281 0.878534
0.072927 -0.221513 0.879458
0.074528 -0.221853 0.880805
0.076155 -0.222256 0.882408
0.077807 -0.222713 0.884219
0.079468 -0.223181 0.886078
0.081158 -0.223710 0.888178
0.082863 -0.224260 0.890362
0.084568 -0.224791 0.892472
0.086258 -0.225265 0.894354
0.087935 -0.225687 0.896029
0.089596 -0.226057 0.897498
0.091217 -0.226314 0.898518
0.092815 -0.226507 0.899284
0.095256 -0.230257 0.908061
0.094404 -0.226673 0.899943
0.010770 -0.226053 0.903562
0.012285 -0.225814 0.902609
0.013800 -0.225638 0.901903
0.015298 -0.225246 0.900336
0.016797 -0.224941 0.899116
0.018283 -0.224525 0.897454
0.019747 -0.223912 0.895004
0.021185 -0.223125 0.891861
0.022609 -0.222300 0.888562
0.024020 -0.221460 0.885205
0.025430 -0.220714 0.882223
0.026859 -0.220197 0.880156
0.028290 -0.219755 0.878390
0.029723 -0.219372 0.876857
0.031157 -0.219031 0.875494
0.032599 -0.218777 0.874481
0.034044 -0.218562 0.873620
0.035503 -0.218455 0.873191
0.036969 -0.218391 0.872937
0.038440 -0.218368 0.872843
0.039908 -0.218327 0.872680
0.041380 -0.218306 0.872596
0.042842 -0.218242 0.872341
0.044299 -0.218152 0.871979
0.045758 -0.218081 0.871696
0.047212 -0.217991 0.871339
0.048667 -0.217911 0.871016
0.050148 -0.217946 0.871157
0.051641 -0.218031 0.871499
0.053142 -0.218147 0.871960
0.054651 -0.218286 0.872517
0.056181 -0.218500 0.873373
0.057704 -0.218676 0.874075
0.059225 -0.218836 0.874714
0.060736 -0.218951 0.875177
0.062258 -0.219102 0.875777
0.063770 -0.219210 0.876212
0.065274 -0.219285 0.876508
0.066783 -0.219374 0.876868
0.068299 -0.219481 0.877295
0.069822 -0.219610 0.877809
0.071372 -0.219811 0.878612
0.072934 -0.220043 0.879541
0.074529 -0.220362 0.880814
0.076156 -0.220763 0.882417
0.077807 -0.221215 0.884225
0.079460 -0.221657 0.885990
0.081133 -0.222137 0.887911
0.082812 -0.222615 0.889819
0.084497 -0.223092 0.891729
0.086168 -0.223516 0.893422
0.087828 -0.223896 0.894939
0.089496 -0.224285 0.896497
0.091142 -0.224608 0.897786
0.092759 -0.224848 0.898747
0.094378 -0.225085 0.899693
0.010767 -0.224462 0.903323
0.012283 -0.224248 0.902461
0.013797 -0.224062 0.901713
0.015293 -0.223650 0.900054
0.016791 -0.223327 0.898755
0.018274 -0.222889 0.896992
0.019738 -0.222293 0.894595
0.021177 -0.221532 0.891531
0.022601 -0.220720 0.888264
0.024020 -0.219957 0.885195
0.025438 -0.219284 0.882485
0.026867 -0.218773 0.880430
0.028301 -0.218356 0.878749
0.029735 -0.217975 0.877219
0.031166 -0.217614 0.875766
0.032603 -0.217321 0.874586
0.034044 -0.217081 0.873619
0.035500 -0.216952 0.873101
0.036965 -0.216888 0.872843
0.038437 -0.216867 0.872759
0.039908 -0.216848 0.872680
0.041380 -0.216826 0.872594
0.042846 -0.216782 0.872418
0.044307 -0.216713 0.872139
0.045771 -0.216665 0.871947
0.047231 -0.216602 0.871690
0.048691 -0.216541 0.871448
0.050168 -0.216557 0.871513
0.051661 -0.216640 0.871844
0.053169 -0.216775 0.872390
0.054684 -0.216937 0.873040
0.056223 -0.217180 0.874018
0.057753 -0.217378 0.874816
0.059276 -0.217538 0.875460
0.060782 -0.217631 0.875834
0.062298 -0.217757 0.876338
0.063798 -0.217820 0.876595
0.065300 -0.217886 0.876861
0.066809 -0.217973 0.877210
0.068325 -0.218079 0.877636
0.069844 -0.218189 0.878079
0.071400 -0.218406 0.878953
0.072955 -0.218616 0.879798
0.074543 -0.218910 0.880982
0.076164 -0.219288 0.882503
0.077814 -0.219736 0.884305
0.079452 -0.220132 0.885900
0.081117 -0.220587 0.887727
0.082777 -0.221012 0.889439
0.084444 -0.221440 0.891164
0.086104 -0.221836 0.892756
0.087770 -0.222234 0.894356
0.089440 -0.222626 0.895933
0.091103 -0.222990 0.897400
0.092745 -0.223292 0.898614
0.094385 -0.223576 0.899756
0.010759 -0.222763 0.902643
0.012276 -0.222599 0.901981
0.013790 -0.222413 0.901226
0.015288 -0.222050 0.899756
0.016785 -0.221728 0.898450
0.018266 -0.221272 0.896604
0.019732 -0.220716 0.894351
0.021176 -0.220005 0.891469
0.022603 -0.219228 0.888321
0.024027 -0.218520 0.885453
0.025455 -0.217934 0.883077
0.026883 -0.217413 0.880966
0.028319 -0.216998 0.879284
0.029753 -0.216621 0.877756
0.031185 -0.216261 0.876296
0.032617 -0.215930 0.874957
0.034058 -0.215688 0.873975
0.035510 -0.215537 0.873364
0.036972 -0.215451 0.873014
0.038440 -0.215408 0.872843
0.039912 -0.215388 0.872759
0.041380 -0.215347 0.872596
0.042850 -0.215325 0.872503
0.044316 -0.215281 0.872327
0.045786 -0.215256 0.872225
0.047251 -0.215215 0.872059
0.048716 -0.215171 0.871882
0.050194 -0.215191 0.871961
0.051687 -0.215270 0.872284
0.053201 -0.215427 0.872919
0.054723 -0.215611 0.873664
0.056269 -0.215876 0.874737
0.057801 -0.216076 0.875549
0.059324 -0.216232 0.876182
0.060825 -0.216301 0.876459
0.062330 -0.216382 0.876788
0.063819 -0.216403 0.876873
0.065314 -0.216446 0.877046
0.066817 -0.216512 0.877313
0.068328 -0.216600 0.877670
0.069848 -0.216713 0.878127
0.071403 -0.216928 0.878999
0.072964 -0.217150 0.879900
0.074558 -0.217460 0.881157
0.076179 -0.217836 0.882678
0.077830 -0.218280 0.884480
0.079459 -0.218650 0.885979
0.081108 -0.219058 0.887630
0.082743 -0.219415 0.889077
0.084392 -0.219794 0.890612
0.086040 -0.220160 0.892097
0.087714 -0.220575 0.893779
0.089383 -0.220968 0.895369
0.091065 -0.221375 0.897020
0.092734 -0.221741 0.898502
0.094392 -0.222068 0.899828
0.010754 -0.221117 0.902171
0.012270 -0.220959 0.901527
0.013782 -0.220768 0.900747
0.015282 -0.220433 0.899383
0.016776 -0.220093 0.897994
0.018255 -0.219619 0.896058
0.019720 -0.219065 0.893801
0.021167 -0.218408 0.891118
0.022599 -0.217687 0.888178
0.024030 -0.217053 0.885590
0.025466 -0.216533 0.883467
0.026898 -0.216034 0.881431
0.028334 -0.215622 0.879752
0.029772 -0.215268 0.878306
0.031205 -0.214911 0.876850
0.032637 -0.214580 0.875501
0.034079 -0.214340 0.874521
0.035532 -0.214185 0.873890
0.036987 -0.214060 0.873378
0.038452 -0.213994 0.873108
0.039920 -0.213949 0.872927
0.041384 -0.213889 0.872681
0.042855 -0.213868 0.872597
0.044326 -0.213849 0.872516
0.045796 -0.213827 0.872429
0.047267 -0.213807 0.872345
0.048741 -0.213803 0.872331
0.050216 -0.213803 0.872330
0.051710 -0.213885 0.872664
0.053233 -0.214077 0.873450
0.054757 -0.214264 0.874211
0.056300 -0.214510 0.875212
0.057838 -0.214726 0.876094
0.059359 -0.214873 0.876697
0.060854 -0.214919 0.876882
0.062354 -0.214978 0.877124
0.063837 -0.214978 0.877124
0.065332 -0.215019 0.877291
0.066836 -0.215085 0.877562
0.068349 -0.215179 0.877942
0.069876 -0.215310 0.878480
0.071432 -0.215524 0.879351
0.072993 -0.215744 0.880248
0.074588 -0.216053 0.881510
0.076202 -0.216407 0.882954
0.077847 -0.216829 0.884676
0.079468 -0.217173 0.886080
0.081107 -0.217551 0.887622
0.082733 -0.217882 0.888971
0.084373 -0.218236 0.890415
0.086028 -0.218617 0.891972
0.087710 -0.219051 0.893742
0.089381 -0.219445 0.895349
0.091065 -0.219855 0.897024
0.092743 -0.220240 0.898593
0.094394 -0.220547 0.899846
0.009234 -0.219723 0.902729
0.010752 -0.219554 0.902031
0.012265 -0.219337 0.901143
0.013774 -0.219109 0.900206
0.015274 -0.218800 0.898933
0.016768 -0.218461 0.897543
0.018247 -0.218009 0.895684
0.019718 -0.217523 0.893687
0.021170 -0.216920 0.891210
0.022607 -0.216256 0.888484
0.024044 -0.215669 0.886073
0.025482 -0.215171 0.884027
0.026912 -0.214652 0.881894
0.028351 -0.214264 0.880299
0.029790 -0.213911 0.878849
0.031227 -0.213577 0.877477
0.032664 -0.213268 0.876209
0.034110 -0.213051 0.875314
0.035561 -0.212882 0.874620
0.037014 -0.212735 0.874017
0.038472 -0.212623 0.873555
0.039932 -0.212533 0.873187
0.041391 -0.212449 0.872843
0.042867 -0.212449 0.872843
0.044347 -0.212472 0.872937
0.045824 -0.212475 0.872950
0.047304 -0.212493 0.873024
0.048784 -0.212511 0.873097
0.050255 -0.212492 0.873018
0.051751 -0.212575 0.873361
0.053275 -0.212766 0.874143
0.054796 -0.212931 0.874822
0.056328 -0.213133 0.875653
0.057866 -0.213344 0.876518
0.059377 -0.213449 0.876952
0.060866 -0.213473 0.877049
0.062366 -0.213531 0.877289
0.063855 -0.213551 0.877368
0.065351 -0.213594 0.877547
0.066862 -0.213680 0.877901
0.068381 -0.213790 0.878352
0.069909 -0.213922 0.878894
0.071460 -0.214117 0.879697
0.073015 -0.214318 0.880519
0.074611 -0.214626 0.881787
0.076221 -0.214962 0.883166
0.077858 -0.215361 0.884805
0.079478 -0.215698 0.886190
0.081115 -0.216068 0.887709
0.082733 -0.216375 0.888972
0.084365 -0.216705 0.890329
0.086021 -0.217087 0.891897
0.087711 -0.217540 0.893757
0.089401 -0.217976 0.895551
0.091096 -0.218409 0.897328
0.092793 -0.218834 0.899074
0.094443 -0.219136 0.900315
0.007719 -0.218502 0.904007
0.009236 -0.218227 0.902869
0.010754 -0.218056 0.902163
0.012264 -0.217794 0.901079
0.013771 -0.217538 0.900017
0.015271 -0.217231 0.898746
0.016764 -0.216892 0.897348
0.018243 -0.216439 0.895472
0.019714 -0.215962 0.893499
0.021168 -0.215389 0.891126
0.022610 -0.214777 0.888596
0.024049 -0.214217 0.886279
0.025491 -0.213742 0.884315
0.026925 -0.213263 0.882330
0.028368 -0.212898 0.880820
0.029811 -0.212570 0.879466
0.031255 -0.212281 0.878268
0.032699 -0.212016 0.877174
0.034148 -0.211803 0.876290
0.035598 -0.211618 0.875525
0.037045 -0.211430 0.874749
0.038499 -0.211293 0.874182
0.039948 -0.211138 0.873539
0.041403 -0.211031 0.873095
0.042880 -0.211031 0.873099
0.044365 -0.211076 0.873285
0.045848 -0.211105 0.873402
0.047337 -0.211162 0.873640
0.048828 -0.211221 0.873885
0.050306 -0.211224 0.873897
0.051813 -0.211348 0.874408
0.053339 -0.211535 0.875181
0.054855 -0.211676 0.875764
0.056372 -0.211814 0.876335
0.057898 -0.211977 0.877011
0.059393 -0.212022 0.877199
0.060877 -0.212026 0.877216
0.062378 -0.212088 0.877469
0.063874 -0.212129 0.877642
0.065378 -0.212194 0.877908
0.066890 -0.212281 0.878267
0.068409 -0.212390 0.878718
0.069938 -0.212520 0.879257
0.071482 -0.212693 0.879972
0.073039 -0.212893 0.880801
0.074634 -0.213197 0.882059
0.076237 -0.213510 0.883352
0.077867 -0.213885 0.884903
0.079486 -0.214217 0.886279
0.081109 -0.214545 0.887637
0.082727 -0.214850 0.888899
0.084359 -0.215181 0.890267
0.086016 -0.215564 0.891850
0.087724 -0.216054 0.893880
0.089442 -0.216556 0.895955
0.091147 -0.217009 0.897831
0.092855 -0.217455 0.899676
0.094503 -0.217747 0.900885
0.007718 -0.216944 0.903900
0.009236 -0.216700 0.902885
0.010754 -0.216535 0.902194
0.012262 -0.216236 0.900952
0.013768 -0.215971 0.899844
0.015269 -0.215682 0.898644
0.016762 -0.215346 0.897244
0.018241 -0.214896 0.895366
0.019711 -0.214423 0.893394
0.021167 -0.213874 0.891108
0.022616 -0.213327 0.888831
0.024058 -0.212795 0.886612
0.025503 -0.212345 0.884739
0.026941 -0.211890 0.882843
0.028387 -0.211548 0.881417
0.029835 -0.211248 0.880167
0.031284 -0.210988 0.879084
0.032736 -0.210768 0.878167
0.034193 -0.210597 0.877455
0.035649 -0.210432 0.876768
0.037091 -0.210205 0.875823
0.038542 -0.210042 0.875144
0.039983 -0.209841 0.874306
0.041432 -0.209693 0.873689
0.042901 -0.209656 0.873536
0.044388 -0.209704 0.873733
0.045871 -0.209734 0.873858
0.047367 -0.209816 0.874200
0.048864 -0.209898 0.874541
0.050349 -0.209924 0.874652
0.051863 -0.210068 0.875251
0.053390 -0.210255 0.876030
0.054902 -0.210371 0.876514
0.056413 -0.210480 0.876969
0.057933 -0.210619 0.877546
0.059423 -0.210639 0.877632
0.060908 -0.210645 0.877654
0.062410 -0.210706 0.877908
0.063907 -0.210751 0.878096
0.065407 -0.210800 0.878300
0.066913 -0.210867 0.878580
0.068432 -0.210971 0.879012
0.069961 -0.211099 0.879546
0.071499 -0.211251 0.880182
0.073062 -0.211467 0.881079
0.074656 -0.211763 0.882315
0.076250 -0.212049 0.883504
0.077873 -0.212401 0.884973
0.079492 -0.212731 0.886347
0.081100 -0.213020 0.887549
0.082726 -0.213342 0.888893
0.084359 -0.213671 0.890265
0.086025 -0.214072 0.891935
0.087750 -0.214604 0.894150
0.089497 -0.215169 0.896503
0.091216 -0.215650 0.898510
0.092935 -0.216117 0.900454
0.094592 -0.216424 0.901733
0.007721 -0.215499 0.904266
0.009239 -0.215244 0.903198
0.010757 -0.215067 0.902453
0.012263 -0.214727 0.901029
0.013768 -0.214445 0.899843
0.015268 -0.214143 0.898575
0.016761 -0.213806 0.897160
0.018239 -0.213357 0.895277
0.019709 -0.212885 0.893297
0.021167 -0.212359 0.891092
0.022620 -0.211856 0.888979
0.024065 -0.211353 0.886869
0.025513 -0.210930 0.885093
0.026955 -0.210501 0.883295
0.028405 -0.210183 0.881959
0.029860 -0.209929 0.880894
0.031317 -0.209714 0.879993
0.032778 -0.209542 0.879271
0.034243 -0.209411 0.878721
0.035704 -0.209267 0.878118
0.037144 -0.209019 0.877074
0.038592 -0.208834 0.876300
0.040027 -0.208592 0.875283
0.041474 -0.208423 0.874575
0.042940 -0.208363 0.874321
0.044428 -0.208411 0.874523
0.045913 -0.208439 0.874642
0.047415 -0.208541 0.875071
0.048918 -0.208644 0.875500
0.050411 -0.208697 0.875724
0.051928 -0.208845 0.876344
0.053453 -0.209013 0.877050
0.054960 -0.209106 0.877440
0.056461 -0.209172 0.877716
0.057970 -0.209265 0.878107
0.059454 -0.209263 0.878098
0.060939 -0.209265 0.878109
0.062442 -0.209327 0.878368
0.063947 -0.209393 0.878645
0.065454 -0.209460 0.878924
0.066967 -0.209544 0.879280
0.068487 -0.209648 0.879713
0.070022 -0.209792 0.880318
0.071556 -0.209925 0.880877
0.073105 -0.210098 0.881604
0.074685 -0.210350 0.882660
0.076271 -0.210609 0.883748
0.077878 -0.210915 0.885032
0.079491 -0.211226 0.886335
0.081106 -0.211530 0.887613
0.082740 -0.211872 0.889045
0.084380 -0.212217 0.890494
0.086056 -0.212636 0.892253
0.087792 -0.213190 0.894575
0.089549 -0.213774 0.897029
0.091282 -0.214282 0.899161
0.093005 -0.214751 0.901128
0.094673 -0.215080 0.902508
0.007721 -0.213949 0.904193
0.009238 -0.213696 0.903126
0.010756 -0.213511 0.902345
0.012263 -0.213189 0.900980
0.013770 -0.212942 0.899939
0.015273 -0.212683 0.898842
0.016766 -0.212349 0.897433
0.018245 -0.211904 0.895553
0.019715 -0.211433 0.893559
0.021173 -0.210910 0.891349
0.022628 -0.210431 0.889328
0.024077 -0.209958 0.887327
0.025532 -0.209584 0.885747
0.026980 -0.209199 0.884120
0.028436 -0.208918 0.882934
0.029893 -0.208669 0.881879
0.031358 -0.208498 0.881157
0.032825 -0.208351 0.880537
0.034295 -0.208243 0.880078
0.035759 -0.208101 0.879478
0.037205 -0.207873 0.878516
0.038649 -0.207654 0.877589
0.040082 -0.207389 0.876471
0.041525 -0.207197 0.875657
0.042984 -0.207096 0.875231
0.044469 -0.207119 0.875331
0.045954 -0.207144 0.875436
0.047457 -0.207245 0.875862
0.048962 -0.207348 0.876298
0.050466 -0.207441 0.876689
0.051986 -0.207590 0.877321
0.053507 -0.207740 0.877952
0.055016 -0.207829 0.878331
0.056512 -0.207873 0.878515
0.058013 -0.207928 0.878747
0.059492 -0.207907 0.878658
0.060978 -0.207907 0.878661
0.062481 -0.207967 0.878912
0.063992 -0.208050 0.879262
0.065500 -0.208117 0.879548
0.067014 -0.208202 0.879905
0.068535 -0.208303 0.880332
0.070065 -0.208427 0.880859
0.071593 -0.208541 0.881339
0.073137 -0.208694 0.881986
0.074710 -0.208922 0.882951
0.076295 -0.209176 0.884022
0.077894 -0.209458 0.885215
0.079500 -0.209746 0.886431
0.081114 -0.210046 0.887700
0.082755 -0.210404 0.889210
0.084398 -0.210750 0.890676
0.086075 -0.211172 0.892458
0.087820 -0.211741 0.894863
0.089586 -0.212342 0.897404
0.091329 -0.212868 0.899626
0.093063 -0.213356 0.901689
0.094754 -0.213732 0.903277
0.007716 -0.212292 0.903663
0.009235 -0.212082 0.902770
0.010752 -0.211907 0.902026
0.012262 -0.211649 0.900929
0.013773 -0.211462 0.900130
0.015279 -0.211246 0.899211
0.016773 -0.210917 0.897813
0.018256 -0.210515 0.896099
0.019727 -0.210049 0.894117
0.021186 -0.209530 0.891910
0.022645 -0.209078 0.889983
0.024098 -0.208629 0.888074
0.025554 -0.208262 0.886508
0.027006 -0.207899 0.884966
0.028466 -0.207641 0.883866
0.029927 -0.207407 0.882872
0.031397 -0.207259 0.882240
0.032865 -0.207115 0.881627
0.034339 -0.207012 0.881189
0.035807 -0.206889 0.880664
0.037256 -0.206666 0.879715
0.038702 -0.206446 0.878782
0.040137 -0.206187 0.877676
0.041581 -0.205990 0.876841
0.043033 -0.205846 0.876225
0.044511 -0.205828 0.876149
0.045989 -0.205813 0.876087
0.047487 -0.205891 0.876417
0.048993 -0.205992 0.876848
0.050502 -0.206101 0.877314
0.052024 -0.206253 0.877957
0.053546 -0.206399 0.878580
0.055054 -0.206484 0.878940
0.056546 -0.206506 0.879035
0.058037 -0.206524 0.879112
0.059517 -0.206504 0.879026
0.061003 -0.206504 0.879026
0.062507 -0.206563 0.879277
0.064019 -0.206646 0.879634
0.065534 -0.206734 0.880007
0.067050 -0.206822 0.880380
0.068578 -0.206942 0.880891
0.070110 -0.207066 0.881421
0.071638 -0.207177 0.881894
0.073189 -0.207348 0.882621
0.074757 -0.207556 0.883506
0.076335 -0.207788 0.884491
0.077928 -0.208048 0.885598
0.079532 -0.208327 0.886789
0.081140 -0.208608 0.887983
0.082790 -0.208984 0.889585
0.084436 -0.209335 0.891078
0.086115 -0.209755 0.892866
0.087852 -0.210300 0.895185
0.089607 -0.210869 0.897608
0.091347 -0.211385 0.899803
0.093092 -0.211894 0.901971
0.094805 -0.212314 0.903760
0.010750 -0.210329 0.901816
0.012262 -0.210123 0.900934
0.013776 -0.209986 0.900344
0.015285 -0.209810 0.899589
0.016780 -0.209488 0.898209
0.018266 -0.209112 0.896600
0.019742 -0.208693 0.894800
0.021204 -0.208196 0.892672
0.022669 -0.207785 0.890909
0.024127 -0.207377 0.889161
0.025586 -0.207016 0.887611
0.027039 -0.206656 0.886068
0.028504 -0.206417 0.885042
0.029964 -0.206164 0.883960
0.031436 -0.206017 0.883328
0.032906 -0.205871 0.882704
0.034381 -0.205769 0.882266
0.035850 -0.205643 0.881726
0.037304 -0.205441 0.880859
0.038750 -0.205209 0.879864
0.040190 -0.204971 0.878844
0.041636 -0.204773 0.877996
0.043082 -0.204592 0.877216
0.044551 -0.204530 0.876953
0.046025 -0.204492 0.876789
0.047516 -0.204529 0.876947
0.049018 -0.204610 0.877296
0.050528 -0.204718 0.877760
0.052045 -0.204849 0.878321
0.053562 -0.204973 0.878853
0.055070 -0.205054 0.879199
0.056562 -0.205074 0.879285
0.058053 -0.205092 0.879364
0.059545 -0.205111 0.879443
0.061038 -0.205131 0.879529
0.062544 -0.205192 0.879791
0.064058 -0.205278 0.880158
0.065580 -0.205387 0.880625
0.067098 -0.205476 0.881007
0.068628 -0.205598 0.881530
0.070167 -0.205739 0.882138
0.071703 -0.205868 0.882689
0.073249 -0.206020 0.883340
0.074811 -0.206208 0.884146
0.076390 -0.206436 0.885126
0.077969 -0.206655 0.886063
0.079566 -0.206914 0.887173
0.081182 -0.207210 0.888443
0.082842 -0.207606 0.890143
0.084499 -0.207979 0.891741
0.086196 -0.208438 0.893708
0.087932 -0.208973 0.896000
0.089669 -0.209493 0.898231
0.091408 -0.209999 0.900400
0.093978 -0.212367 0.910554
0.010750 -0.208800 0.901813
0.012266 -0.208659 0.901204
0.013782 -0.208540 0.900694
0.015292 -0.208374 0.899973
0.016791 -0.208093 0.898762
0.018279 -0.207744 0.897254
0.019759 -0.207352 0.895559
0.021225 -0.206884 0.893539
0.022692 -0.206493 0.891850
0.024153 -0.206085 0.890091
0.025615 -0.205743 0.888610
0.027070 -0.205387 0.887074
0.028537 -0.205150 0.886052
0.029995 -0.204880 0.884884
0.031468 -0.204730 0.884235
0.032936 -0.204566 0.883528
0.034409 -0.204441 0.882989
0.035876 -0.204295 0.882356
0.037334 -0.204109 0.881553
0.038780 -0.203879 0.880562
0.040223 -0.203647 0.879560
0.041675 -0.203474 0.878814
0.043125 -0.203309 0.878100
0.044592 -0.203227 0.877744
0.046062 -0.203165 0.877478
0.047548 -0.203179 0.877539
0.049046 -0.203240 0.877800
0.050557 -0.203348 0.878267
0.052076 -0.203479 0.878833
0.053594 -0.203602 0.879365
0.055101 -0.203680 0.879703
0.056594 -0.203699 0.879783
0.058081 -0.203699 0.879783
0.059574 -0.203719 0.879868
0.061068 -0.203741 0.879963
0.062575 -0.203804 0.880237
0.064096 -0.203908 0.880687
0.065626 -0.204037 0.881244
0.067152 -0.204145 0.881711
0.068690 -0.204288 0.882326
0.070237 -0.204449 0.883021
0.071776 -0.204580 0.883588
0.073317 -0.204711 0.884154
0.074872 -0.204876 0.884869
0.076445 -0.205083 0.885763
0.078009 -0.205258 0.886516
0.079599 -0.205495 0.887541
0.081231 -0.205827 0.888976
0.082903 -0.206248 0.890795
0.084570 -0.206643 0.892498
0.086277 -0.207117 0.894547
0.088013 -0.207644 0.896824
0.089733 -0.208120 0.898876
0.091464 -0.208601 0.900955
0.012269 -0.207192 0.901471
0.013790 -0.207138 0.901237
0.015304 -0.207005 0.900658
0.016806 -0.206755 0.899570
0.018296 -0.206410 0.898069
0.019779 -0.206041 0.896463
0.021247 -0.205580 0.894454
0.022716 -0.205193 0.892771
0.024178 -0.204790 0.891018
0.025641 -0.204448 0.889531
0.027098 -0.204094 0.887991
0.028566 -0.203857 0.886958
0.030023 -0.203570 0.885713
0.031497 -0.203418 0.885048
0.032963 -0.203233 0.884246
0.034433 -0.203087 0.883612
0.035898 -0.202923 0.882894
0.037355 -0.202732 0.882067
0.038799 -0.202486 0.880996
0.040247 -0.202274 0.880074
0.041700 -0.202108 0.879350
0.043153 -0.201949 0.878659
0.044620 -0.201867 0.878300
0.046089 -0.201799 0.878008
0.047572 -0.201794 0.877982
0.049071 -0.201852 0.878238
0.050583 -0.201962 0.878716
0.052102 -0.202092 0.879281
0.053621 -0.202216 0.879819
0.055130 -0.202294 0.880158
0.056623 -0.202313 0.880244
0.058111 -0.202313 0.880244
0.059606 -0.202334 0.880332
0.061106 -0.202375 0.880512
0.062621 -0.202459 0.880877
0.064149 -0.202582 0.881413
0.065686 -0.202728 0.882046
0.067219 -0.202854 0.882597
0.068767 -0.203018 0.883311
0.070317 -0.203183 0.884026
0.071858 -0.203313 0.884593
0.073400 -0.203444 0.885161
0.074949 -0.203585 0.885778
0.076514 -0.203765 0.886560
0.078070 -0.203915 0.887214
0.079661 -0.204149 0.888231
0.081295 -0.204483 0.889682
0.082978 -0.204924 0.891603
0.084649 -0.205321 0.893331
0.086358 -0.205795 0.895390
0.088097 -0.206322 0.897683
0.089819 -0.206794 0.899737
0.091553 -0.207274 0.901826
0.013804 -0.205824 0.902171
0.015317 -0.205662 0.901462
0.016823 -0.205441 0.900491
0.018313 -0.205075 0.898888
0.019797 -0.204712 0.897296
0.021270 -0.204291 0.895452
0.022744 -0.203927 0.893855
0.024207 -0.203526 0.892099
0.025667 -0.203150 0.890449
0.027125 -0.202795 0.888893
0.028590 -0.202521 0.887696
0.030045 -0.202214 0.886349
0.031513 -0.202024 0.885514
0.032980 -0.201837 0.884694
0.034444 -0.201655 0.883898
0.035906 -0.201471 0.883093
0.037360 -0.201263 0.882181
0.038807 -0.201033 0.881170
0.040255 -0.200823 0.880251
0.041713 -0.200679 0.879618
0.043171 -0.200543 0.879026
0.044643 -0.200482 0.878759
0.046114 -0.200419 0.878480
0.047597 -0.200411 0.878446
0.049097 -0.200469 0.878700
0.050610 -0.200578 0.879179
0.052130 -0.200708 0.879749
0.053651 -0.200834 0.880301
0.055165 -0.200931 0.880726
0.056660 -0.200953 0.880820
0.058155 -0.200972 0.880902
0.059656 -0.201010 0.881072
0.061163 -0.201070 0.881335
0.062673 -0.201134 0.881616
0.064209 -0.201275 0.882233
0.065748 -0.201421 0.882872
0.067284 -0.201551 0.883443
0.068839 -0.201734 0.884243
0.070399 -0.201918 0.885051
0.071942 -0.202049 0.885627
0.073485 -0.202175 0.886179
0.075027 -0.202294 0.886699
0.076578 -0.202431 0.887300
0.078126 -0.202558 0.887856
0.079718 -0.202788 0.888863
0.081354 -0.203121 0.890325
0.083039 -0.203563 0.892262
0.084721 -0.203981 0.894092
0.086440 -0.204470 0.896237
0.088181 -0.204995 0.898538
0.089906 -0.205468 0.900610
0.091652 -0.205968 0.902804
0.013827 -0.204629 0.903649
0.015336 -0.204388 0.902582
0.016844 -0.204173 0.901633
0.018330 -0.203746 0.899751
0.019814 -0.203363 0.898056
0.021290 -0.202964 0.896297
0.022767 -0.202625 0.894797
0.024232 -0.202227 0.893042
0.025696 -0.201868 0.891455
0.027155 -0.201511 0.889881
0.028618 -0.201218 0.888584
0.030072 -0.200892 0.887146
0.031538 -0.200681 0.886214
0.033002 -0.200473 0.885296
0.034465 -0.200274 0.884417
0.035920 -0.200054 0.883445
0.037375 -0.199847 0.882531
0.038822 -0.199615 0.881507
0.040274 -0.199425 0.880666
0.041737 -0.199301 0.880122
0.043204 -0.199207 0.879703
0.044682 -0.199168 0.879533
0.046160 -0.199127 0.879350
0.047645 -0.199122 0.879330
0.049142 -0.199163 0.879510
0.050651 -0.199250 0.879893
0.052167 -0.199360 0.880381
0.053684 -0.199464 0.880840
0.055200 -0.199563 0.881275
0.056696 -0.199586 0.881377
0.058198 -0.199625 0.881550
0.059711 -0.199701 0.881884
0.061232 -0.199799 0.882319
