1714
0.123956 -0.103122 0.927543
0.125551 -0.103143 0.927736
0.127115 -0.103140 0.927709
0.128653 -0.103116 0.927492
0.130192 -0.103093 0.927284
0.131732 -0.103072 0.927090
0.133272 -0.103050 0.926900
0.134825 -0.103040 0.926802
0.136378 -0.103029 0.926707
0.137944 -0.103029 0.926707
0.139525 -0.103040 0.926802
0.141107 -0.103050 0.926900
0.142703 -0.103072 0.927090
0.144301 -0.103093 0.927284
0.145974 -0.103168 0.927958
0.147780 -0.103334 0.929449
0.149611 -0.103513 0.931065
0.151799 -0.103933 0.934843
0.154113 -0.104431 0.939315
0.157167 -0.107022 0.948162
0.156380 -0.104886 0.943413
0.008182 -0.104907 0.958207
0.009786 -0.104734 0.956632
0.011378 -0.104503 0.954521
0.012949 -0.104159 0.951375
0.014506 -0.103792 0.948026
0.016053 -0.103437 0.944782
0.017594 -0.103106 0.941757
0.019140 -0.102856 0.939475
0.020683 -0.102636 0.937462
0.022226 -0.102441 0.935681
0.023764 -0.102252 0.933960
0.025303 -0.102091 0.932486
0.026830 -0.101904 0.930781
0.028367 -0.101773 0.929586
0.029910 -0.101677 0.928703
0.031454 -0.101592 0.927930
0.032982 -0.101466 0.926778
0.034493 -0.101303 0.925292
0.035990 -0.101113 0.923555
0.037469 -0.100893 0.921543
0.038960 -0.100718 0.919950
0.040463 -0.100590 0.918778
0.041991 -0.100528 0.918214
0.043525 -0.100487 0.917838
0.045081 -0.100496 0.917921
0.046629 -0.100487 0.917838
0.048181 -0.100489 0.917852
0.049712 -0.100448 0.917480
0.051226 -0.100374 0.916803
0.052729 -0.100286 0.915998
0.054225 -0.100188 0.915105
0.055703 -0.100064 0.913978
0.057200 -0.099979 0.913202
0.058704 -0.099913 0.912592
0.060197 -0.099829 0.911831
0.061699 -0.099766 0.911252
0.063205 -0.099712 0.910758
0.064717 -0.099668 0.910359
0.066228 -0.099627 0.909984
0.067753 -0.099606 0.909794
0.069256 -0.099557 0.909345
0.070763 -0.099514 0.908949
0.072259 -0.099458 0.908442
0.073777 -0.099434 0.908223
0.075314 -0.099436 0.908235
0.076884 -0.099481 0.908648
0.078463 -0.099536 0.909147
0.080073 -0.099627 0.909981
0.081664 -0.099691 0.910564
0.083275 -0.099776 0.911345
0.084872 -0.099843 0.911953
0.086470 -0.099907 0.912541
0.088040 -0.099939 0.912834
0.089609 -0.099968 0.913096
0.091153 -0.099968 0.913099
0.092696 -0.099967 0.913091
0.094268 -0.099997 0.913362
0.095822 -0.100008 0.913462
0.097408 -0.100050 0.913850
0.099024 -0.100123 0.914509
0.100665 -0.100217 0.915374
0.102303 -0.100306 0.916183
0.103973 -0.100422 0.917247
0.105655 -0.100547 0.918389
0.107344 -0.100676 0.919565
0.109051 -0.100817 0.920852
0.110754 -0.100950 0.922069
0.112457 -0.101080 0.923254
0.114151 -0.101198 0.924329
0.115814 -0.101285 0.925128
0.117457 -0.101353 0.925751
0.119085 -0.101407 0.926245
0.120712 -0.101459 0.926714
0.122317 -0.101490 0.927003
0.123899 -0.101503 0.927116
0.125480 -0.101513 0.927211
0.127045 -0.101512 0.927195
0.128585 -0.101490 0.926995
0.130125 -0.101468 0.926802
0.131678 -0.101458 0.926707
0.133232 -0.101448 0.926619
0.134798 -0.101448 0.926619
0.136365 -0.101448 0.926619
0.137959 -0.101468 0.926802
0.139556 -0.101490 0.927003
0.141154 -0.101513 0.927211
0.142768 -0.101546 0.927509
0.144382 -0.101578 0.927804
0.146058 -0.101653 0.928490
0.147895 -0.101837 0.930171
0.149730 -0.102016 0.931807
0.152021 -0.102498 0.936210
0.154470 -0.103077 0.941493
0.156865 -0.103608 0.946341
0.158471 -0.105216 0.946375
0.159035 -0.103980 0.949742
0.161960 -0.106457 0.957542
0.161155 -0.104313 0.952782
0.008194 -0.103440 0.959671
0.009798 -0.103239 0.957803
0.011389 -0.102984 0.955442
0.012963 -0.102660 0.952436
0.014524 -0.102311 0.949198
0.016070 -0.101941 0.945759
0.017606 -0.101581 0.942422
0.019147 -0.101300 0.939817
0.020686 -0.101059 0.937580
0.022228 -0.100866 0.935784
0.023769 -0.100691 0.934165
0.025311 -0.100544 0.932805
0.026845 -0.100383 0.931304
0.028386 -0.100264 0.930200
0.029930 -0.100169 0.929320
0.031478 -0.100094 0.928624
0.033013 -0.099990 0.927660
0.034527 -0.099831 0.926191
0.036033 -0.099666 0.924655
0.037518 -0.099459 0.922735
0.039010 -0.099286 0.921126
0.040507 -0.099140 0.919772
0.042031 -0.099067 0.919094
0.043559 -0.099007 0.918544
0.045111 -0.099006 0.918533
0.046655 -0.098988 0.918364
0.048208 -0.098988 0.918369
0.049741 -0.098949 0.918003
0.051260 -0.098886 0.917417
0.052770 -0.098809 0.916707
0.054279 -0.098734 0.916012
0.055765 -0.098624 0.914993
0.057269 -0.098550 0.914304
0.058775 -0.098485 0.913696
0.060269 -0.098401 0.912921
0.061766 -0.098328 0.912241
0.063267 -0.098264 0.911647
0.064772 -0.098209 0.911140
0.066276 -0.098156 0.910644
0.067794 -0.098124 0.910349
0.069292 -0.098066 0.909811
0.070800 -0.098024 0.909424
0.072298 -0.097971 0.908932
0.073817 -0.097948 0.908712
0.075347 -0.097939 0.908637
0.076902 -0.097964 0.908861
0.078464 -0.097996 0.909162
0.080058 -0.098065 0.909801
0.081631 -0.098107 0.910195
0.083224 -0.098172 0.910792
0.084810 -0.098225 0.911288
0.086395 -0.098275 0.911751
0.087953 -0.098294 0.911928
0.089520 -0.098322 0.912190
0.091073 -0.098334 0.912299
0.092626 -0.098345 0.912403
0.094207 -0.098385 0.912771
0.095781 -0.098417 0.913070
0.097369 -0.098462 0.913482
0.098996 -0.098544 0.914246
0.100637 -0.098638 0.915117
0.102283 -0.098733 0.916004
0.103952 -0.098848 0.917065
0.105644 -0.098981 0.918296
0.107323 -0.099098 0.919384
0.109039 -0.099245 0.920745
0.110730 -0.099365 0.921866
0.112420 -0.099482 0.922947
0.114102 -0.099588 0.923934
0.115775 -0.099683 0.924816
0.117418 -0.099752 0.925448
0.119048 -0.099806 0.925958
0.120664 -0.099848 0.926343
0.122254 -0.099867 0.926523
0.123820 -0.099868 0.926526
0.125376 -0.099859 0.926445
0.126953 -0.099868 0.926526
0.128519 -0.099867 0.926522
0.130086 -0.099868 0.926525
0.131653 -0.099868 0.926531
0.133232 -0.099878 0.926619
0.134798 -0.099878 0.926619
0.136378 -0.099887 0.926707
0.137987 -0.099918 0.926995
0.139602 -0.099952 0.927309
0.141220 -0.099988 0.927641
0.142850 -0.100031 0.928040
0.144479 -0.100073 0.928427
0.146154 -0.100145 0.929099
0.148004 -0.100334 0.930854
0.149849 -0.100517 0.932548
0.152160 -0.101004 0.937066
0.154512 -0.101509 0.941751
0.156810 -0.101967 0.946007
0.160269 -0.103165 0.957114
0.162410 -0.103498 0.960205
0.164109 -0.105174 0.960648
0.006592 -0.102124 0.962594
0.008206 -0.101961 0.961064
0.009810 -0.101747 0.959044
0.011400 -0.101468 0.956414
0.012979 -0.101168 0.953591
0.014543 -0.100834 0.950436
0.016090 -0.100466 0.946971
0.017625 -0.100091 0.943436
0.019163 -0.099791 0.940610
0.020697 -0.099522 0.938073
0.022237 -0.099319 0.936161
0.023779 -0.099148 0.934551
0.025323 -0.099009 0.933232
0.026863 -0.098869 0.931921
0.028408 -0.098763 0.930916
0.029953 -0.098667 0.930015
0.031498 -0.098583 0.929221
0.033037 -0.098489 0.928337
0.034556 -0.098344 0.926972
0.036072 -0.098205 0.925654
0.037567 -0.098024 0.923951
0.039069 -0.097873 0.922527
0.040568 -0.097727 0.921153
0.042089 -0.097643 0.920357
0.043613 -0.097572 0.919690
0.045158 -0.097550 0.919485
0.046694 -0.097512 0.919131
0.048243 -0.097503 0.919037
0.049776 -0.097462 0.918659
0.051297 -0.097401 0.918079
0.052814 -0.097336 0.917467
0.054329 -0.097273 0.916869
0.055828 -0.097183 0.916026
0.057340 -0.097121 0.915443
0.058849 -0.097057 0.914837
0.060344 -0.096975 0.914068
0.061844 -0.096904 0.913393
0.063335 -0.096822 0.912619
0.064829 -0.096749 0.911934
0.066327 -0.096685 0.911336
0.067838 -0.096644 0.910948
0.069330 -0.096577 0.910309
0.070839 -0.096535 0.909921
0.072338 -0.096483 0.909431
0.073858 -0.096461 0.909216
0.075381 -0.096443 0.909046
0.076927 -0.096454 0.909155
0.078480 -0.096474 0.909347
0.080057 -0.096522 0.909794
0.081614 -0.096544 0.910000
0.083188 -0.096586 0.910395
0.084754 -0.096616 0.910681
0.086320 -0.096645 0.910959
0.087868 -0.096655 0.911049
0.089427 -0.096675 0.911235
0.090978 -0.096686 0.911345
0.092540 -0.096708 0.911550
0.094129 -0.096758 0.912018
0.095731 -0.096819 0.912594
0.097338 -0.096883 0.913197
0.098986 -0.096984 0.914153
0.100637 -0.097087 0.915117
0.102294 -0.097191 0.916099
0.103954 -0.097295 0.917081
0.105648 -0.097428 0.918333
0.107317 -0.097533 0.919328
0.109022 -0.097669 0.920604
0.110698 -0.097775 0.921602
0.112376 -0.097879 0.922588
0.114043 -0.097971 0.923457
0.115725 -0.098074 0.924420
0.117379 -0.098149 0.925135
0.119022 -0.098215 0.925753
0.120626 -0.098247 0.926053
0.122201 -0.098255 0.926127
0.123753 -0.098243 0.926020
0.125294 -0.098224 0.925841
0.126861 -0.098226 0.925853
0.128440 -0.098236 0.925953
0.130032 -0.098256 0.926140
0.131612 -0.098267 0.926245
0.133206 -0.098288 0.926437
0.134786 -0.098298 0.926531
0.136392 -0.098326 0.926802
0.138017 -0.098368 0.927195
0.139649 -0.098413 0.927620
0.141283 -0.098459 0.928057
0.142927 -0.098511 0.928545
0.144570 -0.098561 0.929017
0.146232 -0.098623 0.929598
0.148052 -0.098788 0.931157
0.149875 -0.098953 0.932706
0.152035 -0.099334 0.936299
0.155634 -0.100638 0.948589
0.004980 -0.100792 0.965473
0.006599 -0.100602 0.963653
0.008216 -0.100454 0.962235
0.009820 -0.100223 0.960016
0.011409 -0.099919 0.957103
0.012987 -0.099614 0.954182
0.014554 -0.099300 0.951177
0.016101 -0.098926 0.947600
0.017637 -0.098557 0.944061
0.019173 -0.098252 0.941136
0.020710 -0.097994 0.938665
0.022247 -0.097774 0.936558
0.023791 -0.097615 0.935039
0.025337 -0.097479 0.933738
0.026881 -0.097353 0.932532
0.028426 -0.097248 0.931526
0.029972 -0.097153 0.930616
0.031515 -0.097060 0.929720
0.033058 -0.096976 0.928915
0.034585 -0.096854 0.927746
0.036110 -0.096738 0.926639
0.037620 -0.096592 0.925243
0.039129 -0.096458 0.923954
0.040634 -0.096323 0.922659
0.042152 -0.096228 0.921749
0.043672 -0.096144 0.920945
0.045201 -0.096083 0.920367
0.046733 -0.096033 0.919886
0.048272 -0.096003 0.919593
0.049801 -0.095953 0.919121
0.051318 -0.095884 0.918457
0.052841 -0.095829 0.917933
0.054357 -0.095767 0.917338
0.055862 -0.095689 0.916587
0.057381 -0.095638 0.916102
0.058898 -0.095586 0.915601
0.060401 -0.095516 0.914932
0.061909 -0.095455 0.914347
0.063396 -0.095367 0.913501
0.064885 -0.095286 0.912725
0.066377 -0.095213 0.912032
0.067883 -0.095162 0.911543
0.069375 -0.095095 0.910903
0.070885 -0.095055 0.910515
0.072384 -0.095003 0.910013
0.073897 -0.094970 0.909701
0.075412 -0.094941 0.909423
0.076943 -0.094933 0.909347
0.078488 -0.094943 0.909438
0.080049 -0.094970 0.909700
0.081596 -0.094980 0.909801
0.083151 -0.095000 0.909992
0.084699 -0.095011 0.910095
0.086246 -0.095021 0.910185
0.087785 -0.095021 0.910186
0.089342 -0.095040 0.910372
0.090901 -0.095061 0.910573
0.092481 -0.095102 0.910969
0.094079 -0.095161 0.911534
0.095691 -0.095232 0.912208
0.097306 -0.095303 0.912892
0.098954 -0.095405 0.913865
0.100606 -0.095506 0.914838
0.102284 -0.095629 0.916011
0.103955 -0.095742 0.917091
0.105661 -0.095883 0.918449
0.107341 -0.095997 0.919535
0.109036 -0.096120 0.920719
0.110688 -0.096203 0.921515
0.112363 -0.096304 0.922475
0.114005 -0.096373 0.923144
0.115676 -0.096466 0.924030
0.117329 -0.096541 0.924746
0.118972 -0.096605 0.925366
0.120563 -0.096626 0.925569
0.122135 -0.096632 0.925626
0.123684 -0.096620 0.925502
0.125223 -0.096600 0.925313
0.126789 -0.096602 0.925331
0.128367 -0.096612 0.925426
0.129960 -0.096633 0.925633
0.131554 -0.096655 0.925838
0.133163 -0.096686 0.926140
0.134758 -0.096707 0.926342
0.136380 -0.096747 0.926724
0.138033 -0.096807 0.927299
0.139680 -0.096863 0.927831
0.141328 -0.096917 0.928354
0.142973 -0.096968 0.928842
0.144616 -0.097017 0.929308
0.146250 -0.097059 0.929709
0.148011 -0.097183 0.930902
0.149742 -0.097285 0.931879
0.151721 -0.097545 0.934363
0.004982 -0.099200 0.965907
0.006603 -0.099028 0.964228
0.008223 -0.098899 0.962969
0.009830 -0.098691 0.960949
0.011418 -0.098373 0.957855
0.012997 -0.098071 0.954912
0.014566 -0.097770 0.951981
0.016113 -0.097393 0.948307
0.017649 -0.097021 0.944689
0.019184 -0.096712 0.941678
0.020722 -0.096457 0.939193
0.022259 -0.096237 0.937057
0.023804 -0.096082 0.935543
0.025350 -0.095949 0.934244
0.026898 -0.095835 0.933138
0.028444 -0.095730 0.932116
0.029985 -0.095618 0.931027
0.031528 -0.095525 0.930120
0.033069 -0.095433 0.929229
0.034600 -0.095322 0.928147
0.036133 -0.095229 0.927236
0.037657 -0.095118 0.926157
0.039173 -0.094998 0.924990
0.040689 -0.094885 0.923893
0.042204 -0.094782 0.922885
0.043717 -0.094679 0.921882
0.045232 -0.094589 0.921003
0.046754 -0.094517 0.920309
0.048283 -0.094465 0.919799
0.049812 -0.094415 0.919313
0.051324 -0.094338 0.918565
0.052848 -0.094286 0.918056
0.054369 -0.094232 0.917533
0.055879 -0.094164 0.916871
0.057400 -0.094116 0.916400
0.058930 -0.094085 0.916102
0.060441 -0.094027 0.915535
0.061949 -0.093967 0.914947
0.063443 -0.093888 0.914177
0.064938 -0.093816 0.913477
0.066432 -0.093745 0.912789
0.067939 -0.093695 0.912303
0.069433 -0.093629 0.911658
0.070943 -0.093588 0.911257
0.072443 -0.093536 0.910750
0.073943 -0.093486 0.910264
0.075457 -0.093456 0.909971
0.076981 -0.093437 0.909791
0.078511 -0.093428 0.909702
0.080049 -0.093428 0.909700
0.081587 -0.093428 0.909700
0.083125 -0.093428 0.909702
0.084671 -0.093437 0.909791
0.086225 -0.093455 0.909964
0.087773 -0.093465 0.910062
0.089338 -0.093493 0.910333
0.090906 -0.093522 0.910618
0.092484 -0.093562 0.911006
0.094066 -0.093603 0.911406
0.095678 -0.093673 0.912085
0.097293 -0.093743 0.912772
0.098941 -0.093843 0.913743
0.100594 -0.093944 0.914726
0.102291 -0.094083 0.916078
0.103964 -0.094195 0.917174
0.105672 -0.094335 0.918538
0.107352 -0.094447 0.919628
0.109045 -0.094567 0.920795
0.110675 -0.094630 0.921406
0.112336 -0.094717 0.922256
0.113967 -0.094777 0.922837
0.115626 -0.094858 0.923631
0.117268 -0.094923 0.924261
0.118910 -0.094987 0.924878
0.120498 -0.095007 0.925073
0.122070 -0.095013 0.925132
0.123616 -0.094999 0.924997
0.125153 -0.094979 0.924802
0.126717 -0.094979 0.924805
0.128294 -0.094989 0.924904
0.129886 -0.095009 0.925101
0.131480 -0.095032 0.925316
0.133104 -0.095074 0.925728
0.134715 -0.095106 0.926043
0.136365 -0.095166 0.926623
0.138034 -0.095236 0.927307
0.139695 -0.095300 0.927929
0.141343 -0.095353 0.928449
0.142987 -0.095403 0.928930
0.144616 -0.095441 0.929308
0.146235 -0.095473 0.929613
0.147949 -0.095565 0.930512
0.149659 -0.095652 0.931361
0.151492 -0.095816 0.932953
0.004986 -0.097648 0.966751
0.006609 -0.097477 0.965060
0.008230 -0.097348 0.963782
0.009836 -0.097124 0.961556
0.011426 -0.096819 0.958545
0.013005 -0.096512 0.955505
0.014576 -0.096218 0.952595
0.016125 -0.095857 0.949017
0.017664 -0.095503 0.945509
0.019199 -0.095189 0.942402
0.020737 -0.094937 0.939911
0.022275 -0.094720 0.937760
0.023820 -0.094558 0.936158
0.025362 -0.094407 0.934666
0.026910 -0.094294 0.933545
0.028454 -0.094181 0.932424
0.029992 -0.094061 0.931237
0.031535 -0.093970 0.930332
0.033079 -0.093888 0.929519
0.034611 -0.093779 0.928450
0.036152 -0.093706 0.927724
0.037688 -0.093625 0.926922
0.039214 -0.093528 0.925956
0.040737 -0.093430 0.924989
0.042258 -0.093337 0.924066
0.043769 -0.093227 0.922977
0.045275 -0.093116 0.921882
0.046784 -0.093017 0.920899
0.048303 -0.092944 0.920179
0.049827 -0.092885 0.919593
0.051339 -0.092809 0.918841
0.052864 -0.092759 0.918344
0.054386 -0.092706 0.917825
0.055902 -0.092648 0.917245
0.057423 -0.092600 0.916775
0.058955 -0.092572 0.916494
0.060474 -0.092524 0.916025
0.061989 -0.092475 0.915534
0.063488 -0.092404 0.914837
0.064985 -0.092334 0.914137
0.066487 -0.092273 0.913533
0.067989 -0.092216 0.912968
0.069483 -0.092151 0.912325
0.070988 -0.092101 0.911835
0.072482 -0.092042 0.911248
0.073968 -0.091974 0.910573
0.075475 -0.091935 0.910185
0.076990 -0.091906 0.909903
0.078513 -0.091888 0.909721
0.080042 -0.091878 0.909624
0.081579 -0.091877 0.909615
0.083108 -0.091868 0.909523
0.084646 -0.091868 0.909523
0.086200 -0.091886 0.909700
0.087757 -0.091905 0.909893
0.089323 -0.091934 0.910179
0.090900 -0.091972 0.910558
0.092495 -0.092028 0.911113
0.094069 -0.092061 0.911434
0.095678 -0.092127 0.912090
0.097292 -0.092195 0.912766
0.098939 -0.092292 0.913720
0.100583 -0.092384 0.914630
0.102289 -0.092528 0.916061
0.103964 -0.092640 0.917169
0.105661 -0.092769 0.918442
0.107330 -0.092869 0.919438
0.109010 -0.092976 0.920499
0.110628 -0.093029 0.921014
0.112277 -0.093105 0.921772
0.113908 -0.093164 0.922358
0.115565 -0.093243 0.923142
0.117205 -0.093306 0.923765
0.118843 -0.093367 0.924364
0.120443 -0.093396 0.924650
0.122016 -0.093403 0.924724
0.123576 -0.093401 0.924698
0.125115 -0.093382 0.924516
0.126677 -0.093381 0.924508
0.128240 -0.093382 0.924509
0.129828 -0.093400 0.924688
0.131408 -0.093412 0.924809
0.133029 -0.093452 0.925211
0.134655 -0.093495 0.925634
0.136321 -0.093565 0.926321
0.138005 -0.093644 0.927112
0.139680 -0.093717 0.927827
0.141342 -0.093779 0.928443
0.142986 -0.093828 0.928928
0.144614 -0.093865 0.929298
0.146217 -0.093886 0.929499
0.147881 -0.093944 0.930082
0.149581 -0.094025 0.930878
0.151319 -0.094127 0.931886
0.006611 -0.095869 0.965335
0.008232 -0.095747 0.964113
0.009839 -0.095526 0.961879
0.011431 -0.095236 0.958960
0.013012 -0.094944 0.956023
0.014585 -0.094665 0.953218
0.016138 -0.094322 0.949762
0.017681 -0.093992 0.946435
0.019218 -0.093683 0.943322
0.020757 -0.093434 0.940815
0.022295 -0.093211 0.938570
0.023840 -0.093051 0.936957
0.025379 -0.092885 0.935287
0.026924 -0.092761 0.934043
0.028463 -0.092629 0.932716
0.029998 -0.092500 0.931416
0.031535 -0.092393 0.930332
0.033083 -0.092321 0.929612
0.034618 -0.092224 0.928637
0.036160 -0.092152 0.927914
0.037703 -0.092092 0.927301
0.039238 -0.092014 0.926523
0.040766 -0.091929 0.925663
0.042294 -0.091848 0.924850
0.043810 -0.091749 0.923848
0.045313 -0.091630 0.922654
0.046818 -0.091522 0.921564
0.048328 -0.091432 0.920656
0.049847 -0.091363 0.919966
0.051355 -0.091280 0.919128
0.052881 -0.091230 0.918630
0.054398 -0.091171 0.918034
0.055920 -0.091122 0.917536
0.057441 -0.091075 0.917063
0.058979 -0.091055 0.916867
0.060499 -0.091010 0.916408
0.062015 -0.090962 0.915923
0.063515 -0.090893 0.915228
0.065007 -0.090815 0.914449
0.066504 -0.090748 0.913772
0.068000 -0.090683 0.913118
0.069501 -0.090627 0.912554
0.071005 -0.090578 0.912056
0.072507 -0.090528 0.911559
0.073994 -0.090462 0.910893
0.075508 -0.090431 0.910580
0.077014 -0.090392 0.910191
0.078530 -0.090365 0.909918
0.080051 -0.090346 0.909721
0.081587 -0.090344 0.909702
0.083108 -0.090326 0.909523
0.084646 -0.090326 0.909523
0.086209 -0.090353 0.909794
0.087776 -0.090383 0.910094
0.089346 -0.090415 0.910416
0.090925 -0.090454 0.910808
0.092529 -0.090517 0.911443
0.094101 -0.090547 0.911743
0.095702 -0.090603 0.912312
0.097315 -0.090669 0.912975
0.098960 -0.090763 0.913921
0.100594 -0.090843 0.914726
0.102282 -0.090968 0.915992
0.103954 -0.091077 0.917081
0.105639 -0.091193 0.918253
0.107295 -0.091281 0.919142
0.108962 -0.091376 0.920098
0.110580 -0.091428 0.920615
0.112218 -0.091494 0.921285
0.113858 -0.091561 0.921957
0.115514 -0.091638 0.922732
0.117164 -0.091709 0.923445
0.118825 -0.091785 0.924218
0.120451 -0.091834 0.924705
0.122039 -0.091853 0.924896
0.123615 -0.091862 0.924987
0.125154 -0.091844 0.924809
0.126692 -0.091826 0.924623
0.128228 -0.091806 0.924425
0.129788 -0.091804 0.924408
0.131352 -0.091805 0.924415
0.132958 -0.091835 0.924714
0.134581 -0.091875 0.925124
0.136247 -0.091945 0.925820
0.137945 -0.092033 0.926713
0.139637 -0.092115 0.927542
0.141314 -0.092186 0.928256
0.142972 -0.092244 0.928835
0.144599 -0.092280 0.929202
0.146185 -0.092290 0.929298
0.147815 -0.092327 0.929669
0.149481 -0.092385 0.930256
0.151168 -0.092455 0.930960
0.004988 -0.094412 0.967173
0.006612 -0.094250 0.965516
0.008234 -0.094129 0.964273
0.009841 -0.093909 0.962019
0.011435 -0.093642 0.959284
0.013018 -0.093366 0.956460
0.014595 -0.093114 0.953876
0.016151 -0.092787 0.950528
0.017697 -0.092470 0.947285
0.019233 -0.092157 0.944073
0.020774 -0.091910 0.941549
0.022312 -0.091691 0.939304
0.023859 -0.091533 0.937684
0.025398 -0.091369 0.935999
0.026944 -0.091245 0.934731
0.028477 -0.091095 0.933195
0.030006 -0.090948 0.931692
0.031541 -0.090831 0.930489
0.033089 -0.090761 0.929776
0.034621 -0.090659 0.928728
0.036164 -0.090591 0.928027
0.037711 -0.090538 0.927490
0.039250 -0.090471 0.926806
0.040780 -0.090389 0.925958
0.042313 -0.090320 0.925260
0.043834 -0.090231 0.924339
0.045338 -0.090115 0.923160
0.046843 -0.090008 0.922061
0.048350 -0.089912 0.921074
0.049864 -0.089833 0.920272
0.051367 -0.089742 0.919331
0.052892 -0.089692 0.918825
0.054406 -0.089627 0.918157
0.055928 -0.089579 0.917664
0.057448 -0.089531 0.917174
0.058985 -0.089511 0.916963
0.060500 -0.089457 0.916417
0.062016 -0.089411 0.915939
0.063518 -0.089344 0.915262
0.065009 -0.089268 0.914474
0.066506 -0.089201 0.913794
0.068001 -0.089136 0.913128
0.069508 -0.089089 0.912645
0.071019 -0.089049 0.912239
0.072523 -0.089002 0.911759
0.074010 -0.088938 0.911096
0.075531 -0.088914 0.910854
0.077031 -0.088868 0.910383
0.078538 -0.088832 0.910014
0.080059 -0.088813 0.909817
0.081595 -0.088810 0.909791
0.083108 -0.088784 0.909523
0.084654 -0.088793 0.909608
0.086227 -0.088829 0.909977
0.087804 -0.088868 0.910381
0.089385 -0.088910 0.910808
0.090981 -0.088965 0.911373
0.092596 -0.089037 0.912107
0.094170 -0.089067 0.912417
0.095774 -0.089124 0.912998
0.097386 -0.089186 0.913641
0.099013 -0.089261 0.914411
0.100627 -0.089321 0.915026
0.102303 -0.089434 0.916183
0.103964 -0.089530 0.917167
0.105627 -0.089627 0.918153
0.107271 -0.089703 0.918932
0.108935 -0.089795 0.919873
0.110552 -0.089844 0.920381
0.112191 -0.089911 0.921065
0.113843 -0.089986 0.921835
0.115510 -0.090071 0.922704
0.117161 -0.090141 0.923420
0.118825 -0.090219 0.924223
0.120466 -0.090278 0.924822
0.122069 -0.090307 0.925124
0.123661 -0.090327 0.925331
0.125212 -0.090318 0.925235
0.126750 -0.090299 0.925044
0.128270 -0.090268 0.924727
0.129803 -0.090247 0.924512
0.131325 -0.090219 0.924227
0.132889 -0.090220 0.924234
0.134493 -0.090249 0.924524
0.136144 -0.090306 0.925116
0.137843 -0.090395 0.926028
0.139549 -0.090486 0.926956
0.141254 -0.090575 0.927868
0.142928 -0.090642 0.928551
0.144557 -0.090679 0.928930
0.146142 -0.090688 0.929025
0.147770 -0.090723 0.929386
0.149420 -0.090771 0.929877
0.151078 -0.090822 0.930402
0.004989 -0.092782 0.967271
0.006612 -0.092616 0.965543
0.008233 -0.092484 0.964167
0.009842 -0.092290 0.962141
0.011437 -0.092036 0.959496
0.013024 -0.091785 0.956876
0.014604 -0.091550 0.954431
0.016166 -0.091258 0.951386
0.017715 -0.090956 0.948235
0.019254 -0.090654 0.945086
0.020792 -0.090394 0.942379
0.022334 -0.090186 0.940213
0.023880 -0.090023 0.938509
0.025418 -0.089851 0.936722
0.026962 -0.089721 0.935365
0.028493 -0.089562 0.933705
0.030016 -0.089398 0.931999
0.031547 -0.089272 0.930678
0.033092 -0.089194 0.929868
0.034621 -0.089085 0.928732
0.036164 -0.089019 0.928040
0.037711 -0.088967 0.927500
0.039254 -0.088910 0.926907
0.040784 -0.088829 0.926063
0.042322 -0.088772 0.925464
0.043848 -0.088693 0.924642
0.045362 -0.088597 0.923649
0.046869 -0.088494 0.922569
0.048377 -0.088400 0.921587
0.049886 -0.088313 0.920687
0.051388 -0.088219 0.919704
0.052908 -0.088161 0.919101
0.054417 -0.088088 0.918341
0.055940 -0.088042 0.917860
0.057460 -0.087994 0.917361
0.058991 -0.087964 0.917049
0.060504 -0.087911 0.916493
0.062022 -0.087866 0.916019
0.063529 -0.087809 0.915426
0.065021 -0.087733 0.914633
0.066516 -0.087666 0.913937
0.068004 -0.087592 0.913167
0.069504 -0.087537 0.912597
0.071010 -0.087492 0.912123
0.072514 -0.087447 0.911651
0.074003 -0.087384 0.911000
0.075524 -0.087362 0.910773
0.077031 -0.087325 0.910384
0.078539 -0.087291 0.910025
0.080059 -0.087271 0.909823
0.081603 -0.087277 0.909879
0.083125 -0.087259 0.909700
0.084680 -0.087277 0.909885
0.086262 -0.087322 0.910350
0.087857 -0.087377 0.910927
0.089447 -0.087427 0.911443
0.091046 -0.087482 0.912021
0.092663 -0.087554 0.912766
0.094239 -0.087584 0.913086
0.095845 -0.087641 0.913676
0.097451 -0.087696 0.914254
0.099078 -0.087769 0.915008
0.100681 -0.087817 0.915516
0.102335 -0.087909 0.916469
0.103964 -0.087976 0.917167
0.105604 -0.088051 0.917949
0.107226 -0.088109 0.918551
0.108890 -0.088199 0.919491
0.110517 -0.088256 0.920090
0.112168 -0.088331 0.920876
0.113831 -0.088414 0.921740
0.115524 -0.088517 0.922811
0.117189 -0.088597 0.923644
0.118868 -0.088684 0.924553
0.120523 -0.088752 0.925259
0.122139 -0.088790 0.925656
0.123731 -0.088809 0.925853
0.125283 -0.088800 0.925761
0.126820 -0.088780 0.925551
0.128326 -0.088740 0.925134
0.129845 -0.088709 0.924809
0.131326 -0.088653 0.924234
0.132858 -0.088633 0.924022
0.134445 -0.088649 0.924192
0.136093 -0.088705 0.924771
0.137793 -0.088793 0.925687
0.139526 -0.088901 0.926809
0.141261 -0.089006 0.927914
0.142952 -0.089083 0.928706
0.144598 -0.089130 0.929196
0.146201 -0.089149 0.929397
0.147846 -0.089194 0.929863
0.149498 -0.089241 0.930361
0.151158 -0.089293 0.930899
0.004990 -0.091156 0.967416
0.006612 -0.090977 0.965521
0.008232 -0.090837 0.964036
0.009841 -0.090646 0.962011
0.011437 -0.090406 0.959462
0.013024 -0.090163 0.956879
0.014607 -0.089955 0.954669
0.016175 -0.089696 0.951922
0.017729 -0.089417 0.948964
0.019271 -0.089130 0.945912
0.020810 -0.088874 0.943202
0.022353 -0.088670 0.941030
0.023898 -0.088500 0.939226
0.025437 -0.088331 0.937440
0.026983 -0.088203 0.936085
0.028513 -0.088040 0.934354
0.030037 -0.087878 0.932629
0.031564 -0.087742 0.931184
0.033106 -0.087654 0.930254
0.034629 -0.087529 0.928929
0.036172 -0.087463 0.928227
0.037715 -0.087403 0.927595
0.039262 -0.087355 0.927083
0.040792 -0.087276 0.926245
0.042339 -0.087237 0.925831
0.043871 -0.087170 0.925119
0.045395 -0.087095 0.924316
0.046904 -0.086995 0.923260
0.048413 -0.086902 0.922268
0.049913 -0.086799 0.921184
0.051414 -0.086704 0.920171
0.052924 -0.086630 0.919381
0.054427 -0.086549 0.918524
0.055945 -0.086495 0.917953
0.057466 -0.086447 0.917447
0.058991 -0.086410 0.917047
0.060510 -0.086365 0.916571
0.062027 -0.086320 0.916091
0.063528 -0.086256 0.915413
0.065013 -0.086172 0.914528
0.066500 -0.086096 0.913717
0.067981 -0.086015 0.912861
0.069474 -0.085954 0.912208
0.070980 -0.085909 0.911736
0.072484 -0.085865 0.911263
0.073978 -0.085811 0.910694
0.075492 -0.085782 0.910387
0.077007 -0.085755 0.910104
0.078523 -0.085731 0.909842
0.080059 -0.085728 0.909816
0.081611 -0.085744 0.909977
0.083151 -0.085744 0.909987
0.084724 -0.085780 0.910365
0.086317 -0.085833 0.910927
0.087914 -0.085889 0.911520
0.089504 -0.085936 0.912022
0.091103 -0.085990 0.912597
0.092713 -0.086052 0.913256
0.094300 -0.086092 0.913677
0.095908 -0.086148 0.914275
0.097515 -0.086203 0.914852
0.099134 -0.086266 0.915521
0.100726 -0.086304 0.915924
0.102348 -0.086366 0.916582
0.103953 -0.086412 0.917072
0.105581 -0.086476 0.917752
0.107192 -0.086524 0.918258
0.108856 -0.086613 0.919204
0.110494 -0.086679 0.919903
0.112169 -0.086771 0.920885
0.113848 -0.086864 0.921872
0.115565 -0.086984 0.923143
0.117244 -0.087072 0.924071
0.118947 -0.087175 0.925166
0.120613 -0.087249 0.925950
0.122243 -0.087295 0.926438
0.123834 -0.087313 0.926630
0.125388 -0.087303 0.926533
0.126912 -0.087275 0.926229
0.128409 -0.087228 0.925728
0.129901 -0.087179 0.925211
0.131368 -0.087114 0.924524
0.132870 -0.087075 0.924104
0.134439 -0.087079 0.924152
0.136074 -0.087126 0.924644
0.137776 -0.087213 0.925574
0.139525 -0.087329 0.926799
0.141301 -0.087458 0.928173
0.143023 -0.087552 0.929170
0.144705 -0.087619 0.929880
0.146340 -0.087657 0.930281
0.148004 -0.087711 0.930853
0.149643 -0.087749 0.931266
0.151305 -0.087800 0.931800
0.154283 -0.090200 0.940353
0.152997 -0.087867 0.932514
0.006608 -0.089282 0.964893
0.008226 -0.089141 0.963369
0.009837 -0.088983 0.961658
0.011434 -0.088756 0.959200
0.013023 -0.088537 0.956843
0.014610 -0.088353 0.954851
0.016182 -0.088120 0.952335
0.017738 -0.087856 0.949478
0.019282 -0.087576 0.946452
0.020822 -0.087325 0.943743
0.022366 -0.087124 0.941569
0.023911 -0.086955 0.939737
0.025454 -0.086798 0.938040
0.027001 -0.086673 0.936698
0.028535 -0.086523 0.935076
0.030060 -0.086365 0.933360
0.031586 -0.086222 0.931824
0.033121 -0.086116 0.930675
0.034640 -0.085982 0.929222
0.036176 -0.085898 0.928322
0.037715 -0.085831 0.927595
0.039262 -0.085784 0.927083
0.040792 -0.085707 0.926252
0.042340 -0.085670 0.925848
0.043876 -0.085613 0.925236
0.045406 -0.085548 0.924540
0.046925 -0.085468 0.923671
0.048440 -0.085386 0.922785
0.049940 -0.085284 0.921684
0.051436 -0.085181 0.920574
0.052940 -0.085098 0.919668
0.054434 -0.085002 0.918634
0.055946 -0.084939 0.917956
0.057466 -0.084892 0.917447
0.058991 -0.084855 0.917043
0.060510 -0.084812 0.916579
0.062028 -0.084768 0.916111
0.063524 -0.084697 0.915344
0.065001 -0.084606 0.914354
0.066481 -0.084522 0.913449
0.067960 -0.084441 0.912577
0.069453 -0.084381 0.911922
0.070964 -0.084345 0.911534
0.072473 -0.084307 0.911129
0.073974 -0.084262 0.910642
0.075495 -0.084242 0.910425
0.077012 -0.084218 0.910161
0.078528 -0.084194 0.909904
0.080074 -0.084202 0.909984
0.081636 -0.084226 0.910249
0.083179 -0.084230 0.910295
0.084772 -0.084284 0.910878
0.086375 -0.084346 0.911543
0.087973 -0.084400 0.912132
0.089564 -0.084446 0.912630
0.091164 -0.084500 0.913204
0.092755 -0.084543 0.913677
0.094350 -0.084588 0.914159
0.095957 -0.084642 0.914744
0.097566 -0.084697 0.915337
0.099177 -0.084751 0.915923
0.100768 -0.084787 0.916312
0.102369 -0.084830 0.916775
0.103962 -0.084865 0.917150
0.105578 -0.084918 0.917722
0.107188 -0.084964 0.918225
0.108854 -0.085053 0.919186
0.110494 -0.085119 0.919900
0.112192 -0.085228 0.921077
0.113896 -0.085338 0.922265
0.115629 -0.085466 0.923653
0.117320 -0.085561 0.924676
0.119034 -0.085669 0.925846
0.120689 -0.085733 0.926534
0.122308 -0.085770 0.926937
0.123889 -0.085780 0.927038
0.125442 -0.085770 0.926937
0.126967 -0.085742 0.926631
0.128466 -0.085696 0.926138
0.129948 -0.085642 0.925546
0.131412 -0.085576 0.924838
0.132912 -0.085535 0.924397
0.134482 -0.085540 0.924445
0.136121 -0.085588 0.924962
0.137839 -0.085683 0.925997
0.139615 -0.085813 0.927400
0.141410 -0.085951 0.928891
0.143166 -0.086062 0.930093
0.144867 -0.086139 0.930925
0.146522 -0.086187 0.931436
0.148187 -0.086239 0.932006
0.149812 -0.086268 0.932312
0.152803 -0.087074 0.941031
0.006619 -0.087798 0.966555
0.008231 -0.087564 0.963978
0.009839 -0.087366 0.961797
0.011435 -0.087144 0.959357
0.013025 -0.086932 0.957024
0.014613 -0.086752 0.955042
0.016186 -0.086531 0.952613
0.017744 -0.086273 0.949773
0.019288 -0.086001 0.946771
0.020829 -0.085756 0.944075
0.022375 -0.085565 0.941981
0.023921 -0.085397 0.940131
0.025467 -0.085251 0.938523
0.027018 -0.085139 0.937285
0.028559 -0.085011 0.935880
0.030087 -0.084857 0.934183
0.031611 -0.084708 0.932546
0.033139 -0.084586 0.931195
0.034651 -0.084434 0.929525
0.036179 -0.084334 0.928420
0.037715 -0.084259 0.927595
0.039258 -0.084204 0.926996
0.040788 -0.084128 0.926160
0.042336 -0.084092 0.925759
0.043877 -0.084046 0.925249
0.045412 -0.083992 0.924660
0.046936 -0.083922 0.923887
0.048452 -0.083842 0.923011
0.049952 -0.083742 0.921904
0.051449 -0.083641 0.920799
0.052947 -0.083550 0.919791
0.054441 -0.083455 0.918747
0.055951 -0.083391 0.918045
0.057471 -0.083345 0.917534
0.058991 -0.083301 0.917047
0.060511 -0.083260 0.916595
0.062030 -0.083218 0.916134
0.063525 -0.083148 0.915363
0.065008 -0.083065 0.914451
0.066493 -0.082989 0.913619
0.067973 -0.082911 0.912759
0.069467 -0.082852 0.912106
0.070978 -0.082816 0.911711
0.072473 -0.082763 0.911129
0.073966 -0.082710 0.910551
0.075480 -0.082683 0.910246
0.077004 -0.082666 0.910063
0.078521 -0.082644 0.909816
0.080082 -0.082668 0.910081
0.081662 -0.082709 0.910539
0.083224 -0.082732 0.910786
0.084827 -0.082794 0.911468
0.086440 -0.082863 0.912231
0.088040 -0.082917 0.912826
0.089623 -0.082954 0.913236
0.091222 -0.083004 0.913786
0.092795 -0.083030 0.914066
0.094380 -0.083064 0.914447
0.095985 -0.083116 0.915017
0.097596 -0.083171 0.915618
0.099199 -0.083216 0.916120
0.100790 -0.083252 0.916509
0.102389 -0.083292 0.916953
0.103971 -0.083318 0.917236
0.105578 -0.083362 0.917722
0.107198 -0.083416 0.918312
0.108865 -0.083503 0.919279
0.110526 -0.083584 0.920171
0.112249 -0.083709 0.921539
0.113967 -0.083827 0.922841
0.115703 -0.083954 0.924246
0.117407 -0.084055 0.925357
0.119108 -0.084152 0.926421
0.120752 -0.084207 0.927022
0.122362 -0.084236 0.927347
0.123932 -0.084237 0.927358
0.125484 -0.084227 0.927242
0.127008 -0.084198 0.926923
0.128508 -0.084154 0.926440
0.129992 -0.084101 0.925861
0.131471 -0.084046 0.925253
0.132972 -0.084006 0.924813
0.134559 -0.084020 0.924971
0.136214 -0.084077 0.925591
0.137962 -0.084189 0.926828
0.139772 -0.084335 0.928438
0.141597 -0.084488 0.930119
0.143374 -0.084609 0.931447
0.145095 -0.084694 0.932388
0.146780 -0.084757 0.933080
0.148432 -0.084800 0.933549
0.150042 -0.084817 0.933743
0.006633 -0.086334 0.968511
0.008240 -0.086025 0.965053
0.009844 -0.085783 0.962330
0.011442 -0.085566 0.959898
0.013034 -0.085366 0.957654
0.014621 -0.085181 0.955580
0.016195 -0.084961 0.953117
0.017753 -0.084706 0.950257
0.019298 -0.084437 0.947240
0.020836 -0.084182 0.944372
0.022382 -0.083995 0.942271
0.023928 -0.083829 0.940416
0.025475 -0.083687 0.938818
0.027027 -0.083578 0.937599
0.028575 -0.083470 0.936388
0.030106 -0.083327 0.934787
0.031631 -0.083183 0.933163
0.033157 -0.083053 0.931703
0.034669 -0.082901 0.930005
0.036190 -0.082785 0.928706
0.037723 -0.082703 0.927781
0.039258 -0.082633 0.926996
0.040788 -0.082557 0.926141
0.042330 -0.082512 0.925640
0.043871 -0.082466 0.925124
0.045406 -0.082415 0.924546
0.046935 -0.082355 0.923881
0.048452 -0.082278 0.923013
0.049953 -0.082180 0.921919
0.051454 -0.082089 0.920890
0.052953 -0.081999 0.919889
0.054447 -0.081907 0.918848
0.055958 -0.081845 0.918152
0.057477 -0.081798 0.917626
0.058996 -0.081754 0.917135
0.060523 -0.081722 0.916774
0.062042 -0.081681 0.916322
0.063544 -0.081620 0.915637
0.065033 -0.081547 0.914813
0.066520 -0.081474 0.913994
0.068002 -0.081398 0.913145
0.069503 -0.081349 0.912588
0.071010 -0.081307 0.912117
0.072499 -0.081247 0.911450
0.073984 -0.081187 0.910770
0.075490 -0.081150 0.910359
0.077013 -0.081133 0.910169
0.078538 -0.081119 0.910016
0.080108 -0.081152 0.910377
0.081697 -0.081201 0.910931
0.083267 -0.081230 0.911263
0.084863 -0.081284 0.911860
0.086469 -0.081344 0.912535
0.088068 -0.081396 0.913118
0.089651 -0.081432 0.913521
0.091242 -0.081473 0.913990
0.092806 -0.081490 0.914174
0.094397 -0.081530 0.914618
0.095994 -0.081573 0.915100
0.097597 -0.081619 0.915620
0.099199 -0.081664 0.916127
0.100800 -0.081706 0.916595
0.102389 -0.081738 0.916956
0.103973 -0.081764 0.917251
0.105581 -0.081809 0.917752
0.107213 -0.081870 0.918438
0.108890 -0.081964 0.919489
0.110563 -0.082052 0.920477
0.112298 -0.082182 0.921941
0.114029 -0.082307 0.923343
0.115756 -0.082425 0.924667
0.117459 -0.082523 0.925766
0.119159 -0.082617 0.926821
0.120804 -0.082671 0.927422
0.122402 -0.082691 0.927650
0.123972 -0.082692 0.927658
0.125508 -0.082671 0.927425
0.127032 -0.082642 0.927100
0.128533 -0.082600 0.926626
0.130033 -0.082558 0.926151
0.131553 -0.082529 0.925829
0.133109 -0.082524 0.925768
0.134743 -0.082565 0.926236
0.136432 -0.082640 0.927077
0.138213 -0.082768 0.928509
0.140038 -0.082919 0.930209
0.141857 -0.083063 0.931827
0.143639 -0.083183 0.933172
0.145376 -0.083275 0.934196
0.147081 -0.083346 0.934990
0.148720 -0.083378 0.935356
0.150329 -0.083394 0.935535
0.005028 -0.085243 0.974809
0.006645 -0.084855 0.970381
0.008252 -0.084509 0.966418
0.009853 -0.084224 0.963162
0.011453 -0.084019 0.960815
0.013047 -0.083822 0.958561
0.014636 -0.083645 0.956542
0.016209 -0.083420 0.953970
0.017768 -0.083168 0.951082
0.019312 -0.082893 0.947941
0.020851 -0.082639 0.945040
0.022392 -0.082431 0.942660
0.023938 -0.082269 0.940806
0.025485 -0.082130 0.939209
0.027038 -0.082024 0.938007
0.028587 -0.081919 0.936799
0.030125 -0.081795 0.935382
0.031652 -0.081652 0.933754
0.033175 -0.081517 0.932205
0.034684 -0.081360 0.930411
0.036202 -0.081237 0.929000
0.037727 -0.081140 0.927890
0.039254 -0.081054 0.926909
0.040783 -0.080977 0.926031
0.042320 -0.080923 0.925411
0.043856 -0.080870 0.924810
0.045386 -0.080812 0.924140
0.046919 -0.080762 0.923566
0.048435 -0.080686 0.922701
0.049941 -0.080598 0.921697
0.051447 -0.080517 0.920764
0.052952 -0.080439 0.919877
0.054447 -0.080349 0.918849
0.055958 -0.080289 0.918165
0.057477 -0.080243 0.917636
0.058997 -0.080200 0.917142
0.060523 -0.080168 0.916774
0.062048 -0.080136 0.916408
0.063557 -0.080085 0.915825
0.065061 -0.080030 0.915197
0.066564 -0.079977 0.914589
0.068061 -0.079919 0.913934
0.069578 -0.079887 0.913564
0.071092 -0.079853 0.913173
0.072575 -0.079786 0.912414
0.074053 -0.079717 0.911623
0.075551 -0.079671 0.911097
0.077059 -0.079639 0.910722
0.078579 -0.079618 0.910484
0.080151 -0.079651 0.910866
0.081733 -0.079691 0.911328
0.083294 -0.079712 0.911559
0.084881 -0.079755 0.912051
0.086476 -0.079803 0.912609
0.088066 -0.079846 0.913098
0.089649 -0.079881 0.913499
0.091241 -0.079923 0.913973
0.092805 -0.079940 0.914167
0.094406 -0.079986 0.914701
0.096003 -0.080029 0.915187
0.097605 -0.080074 0.915701
0.099209 -0.080119 0.916214
0.100809 -0.080159 0.916678
0.102400 -0.080192 0.917046
0.103995 -0.080226 0.917441
0.105614 -0.080278 0.918036
0.107269 -0.080355 0.918921
0.108959 -0.080456 0.920075
0.110647 -0.080552 0.921173
0.112383 -0.080681 0.922639
0.114116 -0.080803 0.924045
0.115830 -0.080909 0.925258
0.117532 -0.081005 0.926345
0.119222 -0.081089 0.927310
0.120869 -0.081142 0.927919
0.122467 -0.081161 0.928139
0.124034 -0.081161 0.928128
0.125558 -0.081131 0.927790
0.127069 -0.081094 0.927371
0.128582 -0.081060 0.926979
0.130098 -0.081028 0.926611
0.131674 -0.081034 0.926681
0.133292 -0.081065 0.927041
0.134989 -0.081143 0.927929
0.136712 -0.081235 0.928979
0.138510 -0.081368 0.930505
0.140326 -0.081510 0.932121
0.142133 -0.081643 0.933640
0.143903 -0.081751 0.934884
0.145628 -0.081833 0.935814
0.147348 -0.081909 0.936690
0.148979 -0.081936 0.936992
0.151854 -0.082638 0.945022
0.003392 -0.085545 0.978268
0.001747 -0.084298 0.983069
0.003396 -0.083981 0.979373
0.005036 -0.083724 0.976376
0.006658 -0.083365 0.972186
0.008266 -0.083013 0.968076
0.009866 -0.082705 0.964493
0.011470 -0.082512 0.962236
0.013065 -0.082315 0.959945
0.014656 -0.082134 0.957831
0.016231 -0.081914 0.955268
0.017792 -0.081666 0.952365
0.019338 -0.081394 0.949200
0.020876 -0.081134 0.946172
0.022411 -0.080903 0.943477
0.023954 -0.080727 0.941415
0.025496 -0.080572 0.939614
0.027045 -0.080453 0.938225
0.028594 -0.080348 0.937006
0.030132 -0.080228 0.935595
0.031659 -0.080088 0.933972
0.033183 -0.079956 0.932433
0.034692 -0.079803 0.930639
0.036207 -0.079673 0.929124
0.037732 -0.079576 0.928003
0.039251 -0.079475 0.926820
0.040774 -0.079391 0.925841
0.042302 -0.079321 0.925025
0.043832 -0.079260 0.924315
0.045357 -0.079194 0.923543
0.046889 -0.079145 0.922967
0.048404 -0.079070 0.922093
0.049918 -0.079000 0.921281
0.051430 -0.078929 0.920454
0.052941 -0.078863 0.919680
0.054441 -0.078783 0.918755
0.055958 -0.078733 0.918165
0.057477 -0.078687 0.917636
0.058997 -0.078645 0.917142
0.060523 -0.078614 0.916774
0.062054 -0.078590 0.916500
0.063577 -0.078557 0.916112
0.065096 -0.078521 0.915694
0.066615 -0.078487 0.915296
0.068128 -0.078448 0.914838
0.069660 -0.078432 0.914651
0.071177 -0.078399 0.914270
0.072655 -0.078326 0.913417
0.074125 -0.078248 0.912506
0.075614 -0.078192 0.911859
0.077108 -0.078144 0.911296
0.078621 -0.078117 0.910982
0.080187 -0.078142 0.911268
0.081760 -0.078173 0.911636
0.083320 -0.078190 0.911837
0.084896 -0.078222 0.912214
0.086482 -0.078262 0.912674
0.088079 -0.078310 0.913231
0.089671 -0.078352 0.913720
0.091265 -0.078395 0.914222
0.092842 -0.078421 0.914524
0.094453 -0.078475 0.915157
0.096042 -0.078509 0.915559
0.097636 -0.078546 0.915990
0.099229 -0.078581 0.916398
0.100828 -0.078621 0.916854
0.102420 -0.078653 0.917228
0.104026 -0.078695 0.917722
0.105659 -0.078755 0.918425
0.107336 -0.078847 0.919493
0.109040 -0.078955 0.920759
0.110743 -0.079059 0.921974
0.112482 -0.079187 0.923459
0.114203 -0.079298 0.924751
0.115903 -0.079391 0.925844
0.117593 -0.079476 0.926829
0.119262 -0.079544 0.927620
0.120899 -0.079589 0.928145
0.122496 -0.079607 0.928359
0.124063 -0.079605 0.928338
0.125587 -0.079576 0.928004
0.127111 -0.079548 0.927676
0.128638 -0.079523 0.927379
0.130192 -0.079515 0.927285
0.131827 -0.079556 0.927760
0.133524 -0.079632 0.928652
0.135288 -0.079746 0.929983
0.137047 -0.079856 0.931258
0.138860 -0.079993 0.932855
0.140646 -0.080112 0.934243
0.142396 -0.080208 0.935363
0.144122 -0.080289 0.936310
0.145833 -0.080359 0.937127
0.147528 -0.080420 0.937835
0.150409 -0.081118 0.945983
0.001746 -0.082589 0.982554
0.003397 -0.082356 0.979781
0.005041 -0.082150 0.977339
0.006668 -0.081838 0.973625
0.008280 -0.081512 0.969744
0.009884 -0.081214 0.966203
0.011490 -0.081024 0.963936
0.013088 -0.080828 0.961610
0.014680 -0.080642 0.959398
0.016259 -0.080429 0.956859
0.017819 -0.080174 0.953829
0.019365 -0.079898 0.950548
0.020900 -0.079624 0.947290
0.022432 -0.079377 0.944346
0.023968 -0.079177 0.941965
0.025508 -0.079015 0.940034
0.027056 -0.078895 0.938612
0.028602 -0.078784 0.937290
0.030141 -0.078665 0.935877
0.031669 -0.078530 0.934266
0.033194 -0.078402 0.932742
0.034700 -0.078243 0.930850
0.036214 -0.078114 0.929316
0.037735 -0.078010 0.928084
0.039247 -0.077896 0.926727
0.040770 -0.077813 0.925744
0.042293 -0.077737 0.924831
0.043818 -0.077668 0.924014
0.045337 -0.077594 0.923128
0.046863 -0.077537 0.922448
0.048372 -0.077456 0.921493
0.049891 -0.077396 0.920780
0.051408 -0.077336 0.920066
0.052920 -0.077273 0.919313
0.054430 -0.077210 0.918565
0.055952 -0.077167 0.918056
0.057471 -0.077123 0.917533
0.058991 -0.077083 0.917049
0.060523 -0.077059 0.916774
0.062061 -0.077045 0.916595
0.063597 -0.077028 0.916400
0.065138 -0.077018 0.916283
0.066679 -0.077010 0.916181
0.068216 -0.076996 0.916013
0.069758 -0.076988 0.915928
0.071277 -0.076956 0.915547
0.072749 -0.076876 0.914597
0.074213 -0.076792 0.913586
0.075688 -0.076721 0.912753
0.077174 -0.076665 0.912079
0.078679 -0.076629 0.911651
0.080229 -0.076637 0.911746
0.081786 -0.076651 0.911919
0.083337 -0.076660 0.912020
0.084905 -0.076684 0.912303
0.086482 -0.076715 0.912676
0.088088 -0.076770 0.913327
0.089690 -0.076820 0.913922
0.091296 -0.076871 0.914525
0.092883 -0.076904 0.914930
0.094505 -0.076966 0.915662
0.096086 -0.076992 0.915975
0.097670 -0.077020 0.916306
0.099251 -0.077045 0.916604
0.100840 -0.077075 0.916960
0.102422 -0.077099 0.917245
0.104029 -0.077141 0.917745
0.105672 -0.077208 0.918544
0.107362 -0.077307 0.919715
0.109081 -0.077423 0.921099
0.110807 -0.077541 0.922506
0.112547 -0.077666 0.923991
0.114257 -0.077766 0.925183
0.115954 -0.077856 0.926246
0.117642 -0.077937 0.927212
0.119302 -0.077997 0.927929
0.120938 -0.078041 0.928449
0.122559 -0.078073 0.928836
0.124128 -0.078073 0.928826
0.125657 -0.078047 0.928522
0.127184 -0.078021 0.928208
0.128747 -0.078017 0.928168
0.130332 -0.078027 0.928278
0.132029 -0.078102 0.929177
0.133791 -0.078214 0.930509
0.135607 -0.078354 0.932175
0.137384 -0.078469 0.933546
0.139183 -0.078594 0.935030
0.140925 -0.078684 0.936101
0.142630 -0.078751 0.936902
0.144311 -0.078805 0.937534
0.145991 -0.078856 0.938145
0.148915 -0.079571 0.946653
0.001745 -0.080889 0.982143
0.003396 -0.080658 0.979336
0.005040 -0.080474 0.977104
0.006667 -0.080181 0.973541
0.008285 -0.079916 0.970324
0.009894 -0.079661 0.967233
0.011505 -0.079491 0.965161
0.013106 -0.079305 0.962911
0.014702 -0.079137 0.960864
0.016285 -0.078938 0.958445
0.017848 -0.078683 0.955350
0.019396 -0.078413 0.952076
0.020931 -0.078133 0.948671
0.022457 -0.077863 0.945402
0.023984 -0.077633 0.942603
0.025522 -0.077463 0.940546
0.027064 -0.077329 0.938909
0.028605 -0.077203 0.937388
0.030142 -0.077079 0.935881
0.031669 -0.076946 0.934271
0.033194 -0.076820 0.932740
0.034704 -0.076672 0.930936
0.036218 -0.076546 0.929405
0.037739 -0.076444 0.928168
0.039254 -0.076339 0.926899
0.040778 -0.076259 0.925920
0.042294 -0.076169 0.924834
0.043817 -0.076100 0.923998
0.045331 -0.076019 0.923008
0.046847 -0.075948 0.922141
0.048356 -0.075869 0.921183
0.049879 -0.075817 0.920556
0.051397 -0.075760 0.919870
0.052909 -0.075699 0.919121
0.054423 -0.075644 0.918457
0.055944 -0.075601 0.917933
0.057464 -0.075559 0.917424
0.058985 -0.075520 0.916953
0.060523 -0.075505 0.916774
0.062067 -0.075498 0.916688
0.063610 -0.075491 0.916595
0.065166 -0.075498 0.916679
0.066723 -0.075506 0.916783
0.068282 -0.075516 0.916901
0.069833 -0.075517 0.916918
0.071361 -0.075493 0.916628
0.072834 -0.075415 0.915671
0.074299 -0.075331 0.914654
0.075769 -0.075255 0.913730
0.077242 -0.075184 0.912875
0.078737 -0.075139 0.912325
0.080270 -0.075130 0.912214
0.081802 -0.075121 0.912105
0.083344 -0.075121 0.912108
0.084914 -0.075145 0.912400
0.086494 -0.075178 0.912804
0.088111 -0.075241 0.913569
0.089732 -0.075306 0.914351
0.091340 -0.075357 0.914968
0.092936 -0.075397 0.915458
0.094569 -0.075465 0.916277
0.096141 -0.075483 0.916502
0.097715 -0.075502 0.916728
0.099283 -0.075516 0.916900
0.100860 -0.075536 0.917145
0.102432 -0.075552 0.917337
0.104041 -0.075594 0.917852
0.105695 -0.075667 0.918739
0.107385 -0.075764 0.919915
0.109115 -0.075885 0.921385
0.110843 -0.076002 0.922804
0.112585 -0.076125 0.924301
0.114282 -0.076215 0.925393
0.115979 -0.076302 0.926448
0.117655 -0.076374 0.927317
0.119303 -0.076425 0.927942
0.120951 -0.076475 0.928548
0.122597 -0.076523 0.929129
0.124182 -0.076531 0.929230
0.125739 -0.076523 0.929132
0.127294 -0.076513 0.929011
0.128900 -0.076535 0.929270
0.130529 -0.076569 0.929684
0.132286 -0.076676 0.930987
0.134111 -0.076820 0.932735
0.135961 -0.076974 0.934609
0.137729 -0.077080 0.935889
0.139486 -0.077177 0.937065
0.141182 -0.077238 0.937808
0.142817 -0.077264 0.938129
0.144452 -0.077290 0.938448
0.146100 -0.077323 0.938846
0.001743 -0.079159 0.981333
0.003393 -0.078933 0.978536
0.005036 -0.078765 0.976447
0.006666 -0.078520 0.973409
0.008289 -0.078307 0.970773
0.009903 -0.078093 0.968114
0.011517 -0.077936 0.966169
0.013119 -0.077755 0.963923
0.014720 -0.077603 0.962044
0.016310 -0.077431 0.959911
0.017875 -0.077181 0.956816
0.019426 -0.076917 0.953544
0.020964 -0.076645 0.950169
0.022487 -0.076364 0.946682
0.024007 -0.076107 0.943503
0.025544 -0.075934 0.941357
0.027082 -0.075785 0.939507
0.028617 -0.075646 0.937777
0.030147 -0.075507 0.936065
0.031669 -0.075362 0.934260
0.033190 -0.075231 0.932636
0.034696 -0.075078 0.930738
0.036210 -0.074955 0.929211
0.037731 -0.074856 0.927988
0.039254 -0.074769 0.926909
0.040779 -0.074691 0.925943
0.042294 -0.074603 0.924857
0.043814 -0.074529 0.923928
0.045327 -0.074447 0.922922
0.046838 -0.074369 0.921956
0.048346 -0.074292 0.921002
0.049874 -0.074249 0.920463
0.051392 -0.074193 0.919773
0.052898 -0.074125 0.918928
0.054412 -0.074071 0.918258
0.055932 -0.074029 0.917732
0.057452 -0.073989 0.917235
0.058979 -0.073958 0.916860
0.060523 -0.073951 0.916774
0.062073 -0.073951 0.916774
0.063623 -0.073951 0.916774
0.065192 -0.073974 0.917049
0.066765 -0.073998 0.917354
0.068333 -0.074018 0.917594
0.069886 -0.074019 0.917617
0.071421 -0.074002 0.917407
0.072895 -0.073924 0.916436
0.074363 -0.073844 0.915438
0.075835 -0.073770 0.914526
0.077301 -0.073694 0.913578
0.078788 -0.073640 0.912911
0.080303 -0.073614 0.912594
0.081827 -0.073597 0.912380
0.083370 -0.073597 0.912381
0.084956 -0.073635 0.912854
0.086548 -0.073677 0.913368
0.088177 -0.073748 0.914250
0.089801 -0.073812 0.915045
0.091417 -0.073868 0.915740
0.093015 -0.073907 0.916228
0.094640 -0.073967 0.916965
0.096204 -0.073977 0.917097
0.097766 -0.073987 0.917211
0.099314 -0.073984 0.917182
0.100879 -0.073996 0.917321
0.102442 -0.074004 0.917424
0.104050 -0.074045 0.917933
0.105705 -0.074117 0.918827
0.107394 -0.074211 0.919989
0.109102 -0.074315 0.921279
0.110827 -0.074428 0.922677
0.112570 -0.074548 0.924174
0.114269 -0.074638 0.925284
0.115967 -0.074724 0.926351
0.117654 -0.074801 0.927307
0.119302 -0.074851 0.927929
0.120962 -0.074908 0.928633
0.122635 -0.074971 0.929414
0.124248 -0.074996 0.929725
0.125848 -0.075013 0.929932
0.127455 -0.075033 0.930186
0.129118 -0.075086 0.930844
0.130808 -0.075153 0.931671
0.132616 -0.075285 0.933310
0.134473 -0.075442 0.935250
0.136310 -0.075584 0.937012
0.138050 -0.075669 0.938073
0.139765 -0.075739 0.938941
0.141422 -0.075776 0.939398
0.143012 -0.075778 0.939413
0.144618 -0.075787 0.939529
0.147411 -0.076411 0.947271
0.005031 -0.077037 0.975530
0.006664 -0.076847 0.973125
0.008293 -0.076694 0.971185
