1713
0.010716 -0.269107 0.899003
0.012213 -0.268611 0.897347
0.013701 -0.268028 0.895400
0.015174 -0.267329 0.893063
0.016637 -0.266567 0.890519
0.018089 -0.265791 0.887927
0.019540 -0.265105 0.885634
0.020996 -0.264589 0.883911
0.022452 -0.264135 0.882395
0.023914 -0.263814 0.881320
0.025383 -0.263591 0.880577
0.026865 -0.263530 0.880373
0.028354 -0.263537 0.880397
0.029853 -0.263630 0.880706
0.031353 -0.263720 0.881009
0.032871 -0.263951 0.881779
0.034407 -0.264297 0.882934
0.035950 -0.264672 0.884189
0.037513 -0.265153 0.885794
0.039078 -0.265612 0.887327
0.040635 -0.265980 0.888558
0.042167 -0.266173 0.889203
0.043681 -0.266237 0.889415
0.045167 -0.266132 0.889064
0.046629 -0.265902 0.888296
0.048037 -0.265384 0.886565
0.049424 -0.264781 0.884552
0.050807 -0.264198 0.882605
0.052201 -0.263702 0.880947
0.053604 -0.263279 0.879533
0.055051 -0.263090 0.878903
0.056514 -0.262983 0.878547
0.058036 -0.264640 0.879104
0.057988 -0.262933 0.878380
0.059511 -0.264589 0.878935
0.059468 -0.262910 0.878300
0.061002 -0.264613 0.879013
0.060958 -0.262932 0.878375
0.062494 -0.264638 0.879097
0.062444 -0.262936 0.878388
0.064518 -0.266863 0.886488
0.063930 -0.262939 0.878400
-0.004545 -0.271336 0.911614
-0.003003 -0.271218 0.911217
-0.001461 -0.271097 0.910811
0.000078 -0.270788 0.909772
0.001614 -0.270359 0.908331
0.003144 -0.269866 0.906674
0.004668 -0.269370 0.905008
0.006185 -0.268811 0.903128
0.007700 -0.268410 0.901784
0.009210 -0.267995 0.900389
0.010718 -0.267632 0.899170
0.012219 -0.267222 0.897790
0.013713 -0.266756 0.896227
0.015194 -0.266153 0.894200
0.016664 -0.265486 0.891958
0.018122 -0.264761 0.889523
0.019573 -0.264044 0.887115
0.021023 -0.263420 0.885018
0.022473 -0.262882 0.883210
0.023929 -0.262479 0.881857
0.025391 -0.262182 0.880859
0.026867 -0.262049 0.880412
0.028353 -0.262029 0.880344
0.029846 -0.262068 0.880475
0.031341 -0.262125 0.880666
0.032854 -0.262322 0.881329
0.034382 -0.262611 0.882299
0.035920 -0.262948 0.883430
0.037473 -0.263366 0.884837
0.039028 -0.263769 0.886189
0.040571 -0.264063 0.887177
0.042097 -0.264225 0.887721
0.043595 -0.264208 0.887664
0.045064 -0.264022 0.887039
0.046509 -0.263712 0.885997
0.047908 -0.263168 0.884170
0.049290 -0.262571 0.882164
0.050677 -0.262028 0.880342
0.052079 -0.261600 0.878901
0.053496 -0.261259 0.877758
0.054957 -0.261151 0.877394
0.056430 -0.261102 0.877231
0.057908 -0.261083 0.877165
0.059396 -0.261106 0.877243
0.060890 -0.261152 0.877399
0.062374 -0.261155 0.877407
0.063859 -0.261159 0.877422
0.065415 -0.262942 0.878409
0.065342 -0.261159 0.877422
0.067448 -0.265096 0.885604
0.066799 -0.261055 0.877071
-0.003002 -0.269602 0.910976
-0.001461 -0.269496 0.910619
0.000078 -0.269237 0.909741
0.001614 -0.268820 0.908332
0.003144 -0.268386 0.906868
0.004669 -0.267896 0.905211
0.006186 -0.267339 0.903330
0.007701 -0.266916 0.901900
0.009211 -0.266499 0.900490
0.010719 -0.266139 0.899275
0.012223 -0.265783 0.898071
0.013722 -0.265406 0.896796
0.015210 -0.264919 0.895152
0.016689 -0.264372 0.893304
0.018155 -0.263735 0.891151
0.019610 -0.263049 0.888833
0.021058 -0.262364 0.886519
0.022503 -0.261740 0.884410
0.023953 -0.261248 0.882748
0.025409 -0.260875 0.881488
0.026875 -0.260643 0.880704
0.028356 -0.260569 0.880453
0.029842 -0.260546 0.880377
0.031330 -0.260546 0.880374
0.032831 -0.260640 0.880693
0.034350 -0.260868 0.881465
0.035875 -0.261122 0.882321
0.037414 -0.261456 0.883451
0.038956 -0.261780 0.884544
0.040488 -0.262019 0.885353
0.042002 -0.262129 0.885724
0.043492 -0.262082 0.885567
0.044948 -0.261846 0.884768
0.046376 -0.261463 0.883474
0.047766 -0.260896 0.881559
0.049149 -0.260328 0.879638
0.050537 -0.259820 0.877923
0.051953 -0.259476 0.876760
0.053387 -0.259242 0.875971
0.054862 -0.259213 0.875873
0.056338 -0.259194 0.875806
0.057820 -0.259201 0.875830
0.059306 -0.259226 0.875915
0.060798 -0.259272 0.876071
0.062280 -0.259274 0.876078
0.063762 -0.259279 0.876094
0.065242 -0.259276 0.876086
0.066696 -0.259171 0.875729
0.068246 -0.260918 0.876613
0.068140 -0.259032 0.875261
0.069690 -0.260777 0.876137
0.069589 -0.258918 0.874875
0.071135 -0.260645 0.875693
0.071033 -0.258791 0.874444
0.072580 -0.260517 0.875263
0.072477 -0.258667 0.874027
0.074660 -0.262629 0.882360
0.073918 -0.258541 0.873600
-0.003000 -0.267948 0.910601
-0.001461 -0.267863 0.910315
0.000078 -0.267636 0.909542
0.001614 -0.267250 0.908231
0.003145 -0.266874 0.906954
0.004670 -0.266419 0.905407
0.006188 -0.265872 0.903549
0.007703 -0.265451 0.902117
0.009213 -0.265032 0.900693
0.010722 -0.264669 0.899460
0.012227 -0.264341 0.898343
0.013731 -0.264069 0.897419
0.015227 -0.263697 0.896156
0.016715 -0.263263 0.894682
0.018187 -0.262690 0.892734
0.019649 -0.262060 0.890591
0.021098 -0.261355 0.888195
0.022539 -0.260654 0.885815
0.023983 -0.260076 0.883850
0.025435 -0.259641 0.882373
0.026891 -0.259301 0.881215
0.028361 -0.259123 0.880613
0.029841 -0.259043 0.880339
0.031322 -0.258987 0.880149
0.032813 -0.259007 0.880217
0.034321 -0.259159 0.880735
0.035837 -0.259356 0.881403
0.037366 -0.259629 0.882330
0.038898 -0.259897 0.883243
0.040416 -0.260057 0.883786
0.041919 -0.260112 0.883972
0.043393 -0.259988 0.883552
0.044833 -0.259678 0.882499
0.046244 -0.259224 0.880956
0.047629 -0.258659 0.879036
0.049013 -0.258120 0.877204
0.050408 -0.257670 0.875675
0.051831 -0.257384 0.874701
0.053277 -0.257229 0.874175
0.054760 -0.257250 0.874245
0.056239 -0.257257 0.874271
0.057725 -0.257292 0.874389
0.059214 -0.257340 0.874554
0.060703 -0.257384 0.874703
0.062183 -0.257389 0.874719
0.063663 -0.257394 0.874736
0.065136 -0.257369 0.874651
0.066587 -0.257265 0.874296
0.068029 -0.257128 0.873830
0.069483 -0.257041 0.873535
0.070932 -0.256941 0.873195
0.072388 -0.256869 0.872952
0.073841 -0.256792 0.872689
0.076033 -0.260729 0.880993
0.075306 -0.256755 0.872563
-0.002998 -0.266159 0.909764
-0.001459 -0.266100 0.909560
0.000078 -0.265906 0.908898
0.001613 -0.265551 0.907684
0.003144 -0.265256 0.906678
0.004670 -0.264910 0.905495
0.006190 -0.264425 0.903836
0.007707 -0.264059 0.902587
0.009219 -0.263664 0.901237
0.010728 -0.263299 0.899987
0.012233 -0.262947 0.898785
0.013738 -0.262679 0.897870
0.015238 -0.262362 0.896783
0.016731 -0.262009 0.895577
0.018210 -0.261500 0.893840
0.019680 -0.260954 0.891972
0.021135 -0.260307 0.889762
0.022574 -0.259561 0.887212
0.024014 -0.258906 0.884972
0.025461 -0.258408 0.883271
0.026907 -0.257963 0.881749
0.028370 -0.257706 0.880869
0.029846 -0.257595 0.880491
0.031322 -0.257490 0.880131
0.032806 -0.257459 0.880027
0.034307 -0.257561 0.880374
0.035815 -0.257701 0.880852
0.037329 -0.257872 0.881437
0.038846 -0.258055 0.882065
0.040350 -0.258133 0.882329
0.041833 -0.258084 0.882163
0.043287 -0.257858 0.881391
0.044718 -0.257518 0.880228
0.046120 -0.257039 0.878592
0.047502 -0.256481 0.876683
0.048891 -0.255995 0.875023
0.050298 -0.255627 0.873762
0.051729 -0.255399 0.872986
0.053184 -0.255301 0.872649
0.054670 -0.255349 0.872813
0.056152 -0.255380 0.872921
0.057635 -0.255412 0.873028
0.059122 -0.255461 0.873196
0.060610 -0.255507 0.873355
0.062087 -0.255510 0.873365
0.063565 -0.255516 0.873383
0.065035 -0.255492 0.873304
0.066491 -0.255413 0.873033
0.067938 -0.255305 0.872662
0.069404 -0.255269 0.872541
0.070865 -0.255220 0.872371
0.072341 -0.255226 0.872393
0.073808 -0.255198 0.872296
0.075279 -0.255186 0.872258
0.077436 -0.258946 0.880011
0.076731 -0.255109 0.871992
-0.002996 -0.264462 0.909231
-0.001459 -0.264406 0.909040
0.000078 -0.264234 0.908448
0.001612 -0.263921 0.907371
0.003143 -0.263680 0.906543
0.004671 -0.263398 0.905572
0.006192 -0.262974 0.904115
0.007710 -0.262643 0.902979
0.009224 -0.262274 0.901709
0.010733 -0.261911 0.900460
0.012239 -0.261559 0.899250
0.013745 -0.261291 0.898330
0.015246 -0.260976 0.897245
0.016740 -0.260627 0.896046
0.018221 -0.260144 0.894385
0.019696 -0.259653 0.892698
0.021159 -0.259092 0.890770
0.022605 -0.258408 0.888416
0.024049 -0.257784 0.886271
0.025495 -0.257254 0.884449
0.026935 -0.256729 0.882646
0.028387 -0.256369 0.881408
0.029858 -0.256210 0.880859
0.031332 -0.256080 0.880412
0.032813 -0.256026 0.880229
0.034311 -0.256100 0.880483
0.035815 -0.256207 0.880851
0.037314 -0.256274 0.881081
0.038815 -0.256352 0.881349
0.040297 -0.256301 0.881174
0.041757 -0.256121 0.880555
0.043189 -0.255786 0.879403
0.044607 -0.255391 0.878044
0.046001 -0.254889 0.876318
0.047385 -0.254365 0.874517
0.048786 -0.253967 0.873148
0.050206 -0.253682 0.872168
0.051645 -0.253509 0.871576
0.053105 -0.253440 0.871339
0.054593 -0.253511 0.871581
0.056073 -0.253541 0.871685
0.057544 -0.253528 0.871640
0.059023 -0.253552 0.871722
0.060501 -0.253570 0.871785
0.061970 -0.253550 0.871717
0.063445 -0.253555 0.871734
0.064919 -0.253557 0.871740
0.066385 -0.253527 0.871638
0.067842 -0.253469 0.871437
0.069320 -0.253486 0.871496
0.070795 -0.253492 0.871517
0.072292 -0.253575 0.871800
0.073768 -0.253582 0.871824
0.075247 -0.253600 0.871887
0.076719 -0.253590 0.871854
0.078227 -0.255183 0.872246
0.078215 -0.253663 0.872104
0.079846 -0.255644 0.873823
0.079793 -0.253995 0.873246
-0.002994 -0.262778 0.908738
-0.001458 -0.262712 0.908511
0.000078 -0.262532 0.907886
0.001611 -0.262262 0.906953
0.003142 -0.262034 0.906166
0.004669 -0.261785 0.905304
0.006191 -0.261420 0.904040
0.007711 -0.261146 0.903096
0.009226 -0.260814 0.901945
0.010738 -0.260503 0.900872
0.012245 -0.260154 0.899664
0.013751 -0.259883 0.898728
0.015252 -0.259562 0.897617
0.016747 -0.259210 0.896398
0.018228 -0.258730 0.894738
0.019707 -0.258290 0.893219
0.021176 -0.257786 0.891474
0.022628 -0.257164 0.889324
0.024077 -0.256579 0.887299
0.025527 -0.256077 0.885564
0.026968 -0.255550 0.883743
0.028416 -0.255139 0.882322
0.029884 -0.254931 0.881603
0.031355 -0.254775 0.881063
0.032831 -0.254674 0.880714
0.034323 -0.254695 0.880786
0.035820 -0.254751 0.880980
0.037307 -0.254736 0.880926
0.038796 -0.254732 0.880914
0.040256 -0.254551 0.880286
0.041693 -0.254239 0.879208
0.043105 -0.253799 0.877687
0.044509 -0.253346 0.876121
0.045897 -0.252830 0.874336
0.047293 -0.252392 0.872822
0.048708 -0.252080 0.871742
0.050146 -0.251901 0.871122
0.051594 -0.251783 0.870715
0.053057 -0.251739 0.870562
0.054544 -0.251807 0.870799
0.056017 -0.251812 0.870815
0.057480 -0.251770 0.870670
0.058951 -0.251767 0.870659
0.060421 -0.251760 0.870635
0.061881 -0.251712 0.870469
0.063353 -0.251715 0.870478
0.064825 -0.251717 0.870488
0.066297 -0.251716 0.870483
0.067767 -0.251713 0.870472
0.069258 -0.251783 0.870716
0.070747 -0.251843 0.870921
0.072252 -0.251955 0.871309
0.073742 -0.252013 0.871512
0.075236 -0.252084 0.871754
0.076716 -0.252105 0.871830
0.078205 -0.252153 0.871995
0.079741 -0.252348 0.872670
0.081439 -0.254523 0.875060
0.081338 -0.252727 0.873980
-0.001457 -0.261052 0.908094
0.000078 -0.260848 0.907383
0.001611 -0.260626 0.906612
0.003141 -0.260407 0.905850
0.004668 -0.260193 0.905106
0.006190 -0.259832 0.903850
0.007711 -0.259589 0.903002
0.009227 -0.259290 0.901962
0.010740 -0.259015 0.901006
0.012247 -0.258668 0.899799
0.013755 -0.258419 0.898933
0.015255 -0.258096 0.897809
0.016749 -0.257722 0.896510
0.018230 -0.257240 0.894832
0.019709 -0.256801 0.893304
0.021180 -0.256322 0.891638
0.022640 -0.255785 0.889771
0.024093 -0.255243 0.887886
0.025547 -0.254782 0.886281
0.026992 -0.254278 0.884530
0.028438 -0.253838 0.882998
0.029900 -0.253576 0.882087
0.031372 -0.253419 0.881539
0.032849 -0.253317 0.881186
0.034338 -0.253314 0.881175
0.035828 -0.253317 0.881186
0.037308 -0.253246 0.880938
0.038784 -0.253164 0.880652
0.040224 -0.252856 0.879581
0.041642 -0.252439 0.878131
0.043037 -0.251915 0.876310
0.044427 -0.251396 0.874502
0.045813 -0.250889 0.872740
0.047225 -0.250555 0.871578
0.048655 -0.250331 0.870798
0.050107 -0.250231 0.870449
0.051565 -0.250164 0.870216
0.053026 -0.250116 0.870051
0.054501 -0.250135 0.870115
0.055967 -0.250111 0.870032
0.057417 -0.250021 0.869721
0.058885 -0.250013 0.869691
0.060352 -0.249999 0.869644
0.061804 -0.249926 0.869391
0.063274 -0.249928 0.869397
0.064751 -0.249953 0.869483
0.066222 -0.249958 0.869500
0.067699 -0.249983 0.869588
0.069202 -0.250105 0.870012
0.070704 -0.250214 0.870391
0.072221 -0.250371 0.870938
0.073725 -0.250480 0.871315
0.075234 -0.250599 0.871731
0.076716 -0.250626 0.871824
0.078190 -0.250628 0.871832
0.079693 -0.250719 0.872147
0.081252 -0.250981 0.873058
0.082947 -0.253128 0.875364
0.082806 -0.251217 0.873879
0.000078 -0.259159 0.906855
0.001610 -0.258969 0.906188
0.003139 -0.258753 0.905433
0.004666 -0.258530 0.904653
0.006188 -0.258208 0.903527
0.007708 -0.257965 0.902676
0.009224 -0.257699 0.901745
0.010739 -0.257458 0.900903
0.012248 -0.257164 0.899875
0.013756 -0.256919 0.899017
0.015257 -0.256598 0.897892
0.016747 -0.256181 0.896434
0.018228 -0.255701 0.894754
0.019705 -0.255237 0.893133
0.021173 -0.254734 0.891369
0.022637 -0.254249 0.889674
0.024095 -0.253762 0.887970
0.025554 -0.253339 0.886491
0.027006 -0.252911 0.884992
0.028461 -0.252543 0.883705
0.029921 -0.252258 0.882708
0.031394 -0.252099 0.882151
0.032871 -0.251994 0.881783
0.034355 -0.251943 0.881606
0.035836 -0.251874 0.881363
0.037307 -0.251752 0.880935
0.038772 -0.251593 0.880381
0.040196 -0.251187 0.878960
0.041600 -0.250696 0.877242
0.042988 -0.250145 0.875311
0.044372 -0.249606 0.873426
0.045761 -0.249127 0.871751
0.047187 -0.248875 0.870867
0.048630 -0.248728 0.870354
0.050093 -0.248684 0.870201
0.051555 -0.248641 0.870051
0.053015 -0.248590 0.869870
0.054478 -0.248554 0.869745
0.055931 -0.248479 0.869483
0.057370 -0.248342 0.869005
0.058825 -0.248286 0.868807
0.060280 -0.248229 0.868608
0.061724 -0.248132 0.868267
0.063187 -0.248110 0.868190
0.064667 -0.248157 0.868355
0.066148 -0.248207 0.868531
0.067637 -0.248284 0.868800
0.069153 -0.248453 0.869391
0.070667 -0.248607 0.869932
0.072176 -0.248741 0.870399
0.073678 -0.248844 0.870760
0.075193 -0.248985 0.871254
0.076675 -0.249015 0.871359
0.078150 -0.249023 0.871385
0.079644 -0.249088 0.871613
0.081177 -0.249270 0.872249
0.082694 -0.249399 0.872702
0.085127 -0.253731 0.882624
0.084240 -0.249606 0.873427
0.001610 -0.257427 0.906171
0.003138 -0.257114 0.905068
0.004663 -0.256836 0.904090
0.006183 -0.256471 0.902805
0.007702 -0.256235 0.901975
0.009217 -0.255977 0.901064
0.010732 -0.255766 0.900322
0.012242 -0.255529 0.899488
0.013753 -0.255334 0.898800
0.015251 -0.254976 0.897542
0.016741 -0.254560 0.896078
0.018221 -0.254082 0.894394
0.019695 -0.253594 0.892676
0.021160 -0.253067 0.890823
0.022631 -0.252672 0.889431
0.024093 -0.252240 0.887910
0.025557 -0.251873 0.886618
0.027016 -0.251501 0.885308
0.028477 -0.251186 0.884201
0.029933 -0.250859 0.883050
0.031406 -0.250703 0.882501
0.032881 -0.250574 0.882048
0.034362 -0.250498 0.881780
0.035835 -0.250379 0.881360
0.037306 -0.250253 0.880914
0.038763 -0.250044 0.880180
0.040175 -0.249572 0.878518
0.041574 -0.249055 0.876699
0.042962 -0.248507 0.874770
0.044341 -0.247950 0.872808
0.045733 -0.247500 0.871226
0.047171 -0.247318 0.870586
0.048620 -0.247200 0.870168
0.050084 -0.247164 0.870044
0.051546 -0.247121 0.869891
0.052995 -0.247020 0.869536
0.054450 -0.246954 0.869303
0.055892 -0.246831 0.868871
0.057318 -0.246646 0.868219
0.058767 -0.246567 0.867941
0.060219 -0.246506 0.867728
0.061657 -0.246391 0.867321
0.063118 -0.246369 0.867244
0.064607 -0.246459 0.867560
0.066095 -0.246535 0.867828
0.067589 -0.246637 0.868187
0.069111 -0.246830 0.868868
0.070630 -0.247005 0.869484
0.072139 -0.247137 0.869948
0.073639 -0.247237 0.870300
0.075153 -0.247376 0.870788
0.076633 -0.247404 0.870886
0.078108 -0.247413 0.870918
0.079610 -0.247505 0.871241
0.081123 -0.247624 0.871663
0.082609 -0.247664 0.871803
0.084119 -0.247770 0.872177
0.003135 -0.255371 0.904328
0.004659 -0.255056 0.903211
0.006176 -0.254670 0.901846
0.007694 -0.254464 0.901117
0.009209 -0.254233 0.900298
0.010723 -0.254028 0.899573
0.012233 -0.253797 0.898754
0.013741 -0.253603 0.898068
0.015237 -0.253222 0.896719
0.016725 -0.252807 0.895249
0.018206 -0.252355 0.893647
0.019681 -0.251892 0.892010
0.021145 -0.251374 0.890175
0.022617 -0.251004 0.888863
0.024078 -0.250573 0.887339
0.025543 -0.250235 0.886140
0.027005 -0.249899 0.884949
0.028474 -0.249664 0.884118
0.029934 -0.249372 0.883084
0.031410 -0.249241 0.882620
0.032885 -0.249108 0.882151
0.034365 -0.249029 0.881869
0.035832 -0.248861 0.881275
0.037303 -0.248732 0.880819
0.038752 -0.248477 0.879916
0.040159 -0.247983 0.878166
0.041557 -0.247468 0.876342
0.042945 -0.246927 0.874425
0.044324 -0.246376 0.872475
0.045725 -0.245977 0.871064
0.047167 -0.245820 0.870507
0.048616 -0.245706 0.870103
0.050079 -0.245667 0.869965
0.051536 -0.245599 0.869723
0.052974 -0.245450 0.869195
0.054418 -0.245335 0.868787
0.055848 -0.245164 0.868185
0.057266 -0.244954 0.867441
0.058713 -0.244873 0.867152
0.060170 -0.244834 0.867015
0.061612 -0.244741 0.866686
0.063072 -0.244721 0.866615
0.064573 -0.244858 0.867099
0.066060 -0.244936 0.867377
0.067556 -0.245043 0.867756
0.069084 -0.245261 0.868526
0.070603 -0.245436 0.869147
0.072098 -0.245523 0.869452
0.073596 -0.245618 0.869790
0.075107 -0.245750 0.870259
0.076580 -0.245757 0.870282
0.078062 -0.245790 0.870398
0.079572 -0.245909 0.870820
0.081084 -0.246031 0.871253
0.082571 -0.246072 0.871399
0.084078 -0.246173 0.871754
0.085700 -0.248078 0.873261
0.085632 -0.246403 0.872571
0.088043 -0.250545 0.881943
0.087152 -0.246529 0.873017
0.006171 -0.252922 0.901065
0.007688 -0.252715 0.900328
0.009202 -0.252490 0.899525
0.010712 -0.252247 0.898658
0.012219 -0.251988 0.897737
0.013725 -0.251771 0.896965
0.015217 -0.251386 0.895591
0.016704 -0.250971 0.894113
0.018186 -0.250566 0.892672
0.019662 -0.250144 0.891167
0.021129 -0.249681 0.889518
0.022601 -0.249322 0.888238
0.024063 -0.248917 0.886797
0.025528 -0.248583 0.885605
0.026989 -0.248251 0.884424
0.028461 -0.248047 0.883696
0.029926 -0.247806 0.882838
0.031405 -0.247701 0.882466
0.032882 -0.247593 0.882080
0.034366 -0.247536 0.881875
0.035829 -0.247345 0.881195
0.037299 -0.247215 0.880734
0.038744 -0.246937 0.879742
0.040155 -0.246466 0.878064
0.041553 -0.245956 0.876247
0.042948 -0.245464 0.874496
0.044333 -0.244945 0.872645
0.045739 -0.244576 0.871332
0.047178 -0.244400 0.870705
0.048622 -0.244260 0.870204
0.050070 -0.244147 0.869802
0.051520 -0.244049 0.869453
0.052956 -0.243894 0.868900
0.054395 -0.243762 0.868431
0.055824 -0.243590 0.867819
0.057242 -0.243380 0.867070
0.058681 -0.243270 0.866678
0.060131 -0.243210 0.866464
0.061574 -0.243123 0.866154
0.063034 -0.243107 0.866097
0.064547 -0.243289 0.866746
0.066034 -0.243370 0.867036
0.067524 -0.243458 0.867348
0.069051 -0.243673 0.868113
0.070569 -0.243844 0.868725
0.072049 -0.243886 0.868872
0.073547 -0.243980 0.869209
0.075057 -0.244112 0.869678
0.076529 -0.244118 0.869701
0.078010 -0.244151 0.869816
0.079526 -0.244291 0.870315
0.081030 -0.244390 0.870668
0.082514 -0.244427 0.870799
0.084011 -0.244498 0.871054
0.085538 -0.244654 0.871608
0.087030 -0.244707 0.871797
0.006166 -0.251195 0.900351
0.007682 -0.251018 0.899715
0.009195 -0.250792 0.898904
0.010704 -0.250545 0.898018
0.012209 -0.250267 0.897022
0.013711 -0.250002 0.896075
0.015201 -0.249588 0.894591
0.016685 -0.249178 0.893121
0.018167 -0.248785 0.891713
0.019645 -0.248423 0.890414
0.021117 -0.248021 0.888974
0.022589 -0.247693 0.887798
0.024053 -0.247314 0.886437
0.025517 -0.246978 0.885235
0.026977 -0.246645 0.884043
0.028451 -0.246464 0.883393
0.029918 -0.246249 0.882622
0.031401 -0.246174 0.882353
0.032879 -0.246071 0.881982
0.034359 -0.245993 0.881703
0.035822 -0.245802 0.881021
0.037292 -0.245674 0.880560
0.038737 -0.245399 0.879574
0.040155 -0.244977 0.878064
0.041560 -0.244515 0.876406
0.042961 -0.244055 0.874758
0.044351 -0.243566 0.873006
0.045762 -0.243224 0.871779
0.047193 -0.243003 0.870989
0.048627 -0.242812 0.870304
0.050059 -0.242621 0.869617
0.051498 -0.242472 0.869082
0.052924 -0.242274 0.868373
0.054363 -0.242146 0.867914
0.055787 -0.241956 0.867235
0.057208 -0.241766 0.866553
0.058641 -0.241635 0.866085
0.060085 -0.241554 0.865793
0.061527 -0.241469 0.865489
0.062992 -0.241477 0.865518
0.064505 -0.241662 0.866180
0.065997 -0.241764 0.866547
0.067492 -0.241870 0.866928
0.069017 -0.242080 0.867680
0.070526 -0.242226 0.868202
0.071998 -0.242241 0.868255
0.073487 -0.242309 0.868501
0.074982 -0.242396 0.868812
0.076447 -0.242383 0.868764
0.077932 -0.242436 0.868957
0.079447 -0.242575 0.869455
0.080949 -0.242670 0.869795
0.082436 -0.242722 0.869979
0.083938 -0.242812 0.870301
0.085457 -0.242948 0.870790
0.086950 -0.243004 0.870991
0.088592 -0.244950 0.872665
0.088501 -0.243222 0.871772
0.007677 -0.249312 0.899063
0.009189 -0.249088 0.898255
0.010695 -0.248808 0.897246
0.012195 -0.248466 0.896012
0.013693 -0.248168 0.894939
0.015182 -0.247762 0.893474
0.016666 -0.247377 0.892086
0.018148 -0.247021 0.890800
0.019631 -0.246736 0.889774
0.021108 -0.246416 0.888619
0.022585 -0.246138 0.887618
0.024051 -0.245785 0.886342
0.025514 -0.245445 0.885119
0.026971 -0.245087 0.883826
0.028441 -0.244879 0.883078
0.029905 -0.244645 0.882232
0.031384 -0.244550 0.881890
0.032862 -0.244452 0.881536
0.034342 -0.244375 0.881260
0.035807 -0.244209 0.880661
0.037277 -0.244083 0.880206
0.038725 -0.243835 0.879311
0.040151 -0.243466 0.877982
0.041566 -0.243060 0.876517
0.042972 -0.242632 0.874975
0.044370 -0.242191 0.873383
0.045782 -0.241851 0.872159
0.047204 -0.241583 0.871189
0.048623 -0.241316 0.870228
0.050039 -0.241050 0.869268
0.051465 -0.240846 0.868535
0.052886 -0.240628 0.867748
0.054325 -0.240508 0.867315
0.055750 -0.240326 0.866660
0.057175 -0.240159 0.866056
0.058606 -0.240026 0.865575
0.060049 -0.239943 0.865277
0.061490 -0.239859 0.864975
0.062961 -0.239890 0.865084
0.064472 -0.240072 0.865744
0.065964 -0.240174 0.866110
0.067451 -0.240256 0.866405
0.068967 -0.240437 0.867057
0.070461 -0.240533 0.867403
0.071924 -0.240520 0.867357
0.073411 -0.240587 0.867597
0.074903 -0.240670 0.867899
0.076366 -0.240657 0.867851
0.077858 -0.240732 0.868121
0.079370 -0.240869 0.868615
0.080863 -0.240942 0.868879
0.082343 -0.240972 0.868988
0.083843 -0.241064 0.869318
0.085362 -0.241201 0.869814
0.086862 -0.241285 0.870117
0.088413 -0.241503 0.870903
0.090057 -0.243442 0.872560
0.089958 -0.241697 0.871601
0.010689 -0.247152 0.896754
0.012183 -0.246708 0.895144
0.013678 -0.246373 0.893928
0.015167 -0.246012 0.892621
0.016651 -0.245649 0.891301
0.018137 -0.245363 0.890265
0.019625 -0.245153 0.889502
0.021106 -0.244883 0.888522
0.022583 -0.244610 0.887533
0.024053 -0.244306 0.886428
0.025514 -0.243949 0.885133
0.026968 -0.243566 0.883745
0.028435 -0.243332 0.882894
0.029895 -0.243071 0.881947
0.031368 -0.242930 0.881437
0.032845 -0.242831 0.881078
0.034323 -0.242752 0.880791
0.035788 -0.242586 0.880188
0.037257 -0.242461 0.879737
0.038706 -0.242222 0.878868
0.040139 -0.241905 0.877718
0.041559 -0.241534 0.876370
0.042973 -0.241159 0.875011
0.044377 -0.240748 0.873519
0.045792 -0.240426 0.872350
0.047205 -0.240108 0.871198
0.048613 -0.239792 0.870052
0.050018 -0.239475 0.868899
0.051438 -0.239247 0.868074
0.052857 -0.239030 0.867286
0.054292 -0.238892 0.866784
0.055721 -0.238734 0.866210
0.057150 -0.238589 0.865685
0.058582 -0.238457 0.865207
0.060019 -0.238357 0.864842
0.061464 -0.238289 0.864599
0.062932 -0.238317 0.864699
0.064432 -0.238455 0.865198
0.065917 -0.238535 0.865491
0.067395 -0.238591 0.865692
0.068898 -0.238727 0.866185
0.070376 -0.238774 0.866358
0.071829 -0.238735 0.866217
0.073306 -0.238774 0.866358
0.074790 -0.238837 0.866585
0.076250 -0.238821 0.866526
0.077746 -0.238916 0.866873
0.079264 -0.239077 0.867457
0.080758 -0.239158 0.867750
0.082244 -0.239212 0.867947
0.083758 -0.239347 0.868437
0.085284 -0.239508 0.869022
0.086793 -0.239620 0.869425
0.088352 -0.239862 0.870304
0.089888 -0.240034 0.870928
0.012175 -0.245014 0.894499
0.013667 -0.244655 0.893188
0.015158 -0.244354 0.892091
0.016645 -0.244039 0.890939
0.018133 -0.243799 0.890063
0.019623 -0.243623 0.889420
0.021108 -0.243399 0.888602
0.022585 -0.243131 0.887626
0.024058 -0.242856 0.886622
0.025518 -0.242484 0.885262
0.026972 -0.242104 0.883875
0.028433 -0.241821 0.882842
0.029890 -0.241530 0.881782
0.031356 -0.241338 0.881080
0.032828 -0.241210 0.880613
0.034302 -0.241106 0.880232
0.035765 -0.240941 0.879631
0.037230 -0.240798 0.879107
0.038681 -0.240582 0.878318
0.040121 -0.240311 0.877328
0.041545 -0.239971 0.876088
0.042969 -0.239649 0.874913
0.044381 -0.239287 0.873591
0.045796 -0.238968 0.872428
0.047208 -0.238650 0.871264
0.048612 -0.238310 0.870025
0.050011 -0.237970 0.868784
0.051421 -0.237699 0.867794
0.052836 -0.237461 0.866925
0.054264 -0.237299 0.866335
0.055691 -0.237141 0.865755
0.057121 -0.236998 0.865233
0.058557 -0.236891 0.864844
0.059999 -0.236814 0.864564
0.061450 -0.236771 0.864404
0.062918 -0.236797 0.864501
0.064404 -0.236888 0.864832
0.065881 -0.236940 0.865023
0.067346 -0.236950 0.865059
0.068828 -0.237018 0.865308
0.070297 -0.237038 0.865381
0.071748 -0.236998 0.865234
0.073215 -0.237014 0.865293
0.074691 -0.237055 0.865444
0.076156 -0.237061 0.865464
0.077651 -0.237157 0.865816
0.079169 -0.237322 0.866416
0.080670 -0.237426 0.866799
0.082163 -0.237506 0.867088
0.083683 -0.237661 0.867657
0.085215 -0.237843 0.868319
0.086740 -0.237999 0.868889
0.088309 -0.238270 0.869879
0.089846 -0.238445 0.870518
0.092299 -0.242500 0.879877
0.091337 -0.238497 0.870707
0.015154 -0.242770 0.891827
0.016643 -0.242500 0.890833
0.018132 -0.242277 0.890016
0.019625 -0.242131 0.889478
0.021112 -0.241942 0.888786
0.022592 -0.241699 0.887891
0.024066 -0.241430 0.886905
0.025526 -0.241063 0.885557
0.026981 -0.240687 0.884174
0.028439 -0.240376 0.883032
0.029890 -0.240038 0.881791
0.031349 -0.239795 0.880899
0.032817 -0.239641 0.880333
0.034284 -0.239492 0.879783
0.035740 -0.239282 0.879013
0.037200 -0.239114 0.878396
0.038646 -0.238872 0.877507
0.040084 -0.238603 0.876519
0.041514 -0.238307 0.875432
0.042942 -0.238018 0.874369
0.044358 -0.237685 0.873145
0.045782 -0.237416 0.872159
0.047194 -0.237103 0.871008
0.048598 -0.236769 0.869780
0.050007 -0.236475 0.868703
0.051422 -0.236229 0.867797
0.052831 -0.235972 0.866853
0.054258 -0.235805 0.866238
0.055679 -0.235619 0.865559
0.057101 -0.235452 0.864943
0.058534 -0.235332 0.864502
0.059983 -0.235282 0.864319
0.061434 -0.235244 0.864180
0.062902 -0.235270 0.864273
0.064375 -0.235314 0.864436
0.065848 -0.235357 0.864594
0.067304 -0.235337 0.864522
0.068778 -0.235379 0.864676
0.070240 -0.235379 0.864677
0.071695 -0.235356 0.864592
0.073156 -0.235354 0.864585
0.074624 -0.235375 0.864662
0.076087 -0.235381 0.864681
0.077580 -0.235475 0.865027
0.079098 -0.235639 0.865632
0.080605 -0.235768 0.866105
0.082105 -0.235870 0.866480
0.083631 -0.236044 0.867119
0.085179 -0.236270 0.867949
0.086712 -0.236451 0.868614
0.088291 -0.236746 0.869697
0.089828 -0.236921 0.870342
0.091318 -0.236970 0.870519
0.092841 -0.238579 0.871006
0.092811 -0.237025 0.870722
0.095258 -0.240968 0.879729
0.094318 -0.237114 0.871049
0.016638 -0.240920 0.890575
0.018129 -0.240734 0.889890
0.019624 -0.240614 0.889444
0.021111 -0.240427 0.888752
0.022592 -0.240195 0.887895
0.024067 -0.239934 0.886931
0.025527 -0.239566 0.885572
0.026979 -0.239169 0.884103
0.028434 -0.238834 0.882867
0.029881 -0.238475 0.881538
0.031337 -0.238210 0.880560
0.032801 -0.238035 0.879912
0.034264 -0.237863 0.879275
0.035712 -0.237604 0.878319
0.037163 -0.237388 0.877521
0.038602 -0.237118 0.876522
0.040038 -0.236847 0.875520
0.041472 -0.236580 0.874534
0.042907 -0.236340 0.873647
0.044335 -0.236080 0.872686
0.045768 -0.235862 0.871880
0.047189 -0.235599 0.870908
0.048599 -0.235296 0.869788
0.050017 -0.235053 0.868889
0.051438 -0.234835 0.868083
0.052848 -0.234580 0.867139
0.054270 -0.234386 0.866423
0.055694 -0.234216 0.865796
0.057112 -0.234029 0.865101
0.058539 -0.233889 0.864585
0.059994 -0.233862 0.864487
0.061446 -0.233827 0.864356
0.062904 -0.233815 0.864311
0.064371 -0.233833 0.864380
0.065835 -0.233845 0.864424
0.067271 -0.233758 0.864100
0.068725 -0.233733 0.864009
0.070179 -0.233709 0.863922
0.071632 -0.233686 0.863836
0.073092 -0.233687 0.863839
0.074567 -0.233731 0.864001
0.076043 -0.233778 0.864177
0.077541 -0.233891 0.864592
0.079058 -0.234054 0.865196
0.080564 -0.234179 0.865658
0.082069 -0.234300 0.866105
0.083597 -0.234478 0.866764
0.085153 -0.234728 0.867688
0.086695 -0.234933 0.868445
0.088274 -0.235227 0.869533
0.089809 -0.235399 0.870167
0.091305 -0.235461 0.870397
0.092788 -0.235491 0.870509
0.094285 -0.235554 0.870740
0.018130 -0.239229 0.889902
0.019624 -0.239112 0.889467
0.021113 -0.238940 0.888827
0.022592 -0.238691 0.887901
0.024061 -0.238377 0.886734
0.025520 -0.237997 0.885320
0.026970 -0.237591 0.883809
0.028425 -0.237260 0.882576
0.029872 -0.236903 0.881248
0.031330 -0.236665 0.880365
0.032795 -0.236494 0.879727
0.034254 -0.236302 0.879012
0.035694 -0.235996 0.877876
0.037135 -0.235722 0.876858
0.038565 -0.235404 0.875673
0.039996 -0.235117 0.874604
0.041430 -0.234859 0.873647
0.042872 -0.234670 0.872941
0.044308 -0.234458 0.872155
0.045749 -0.234287 0.871516
0.047180 -0.234077 0.870737
0.048604 -0.233846 0.869877
0.050033 -0.233654 0.869162
0.051456 -0.233442 0.868375
0.052866 -0.233189 0.867433
0.054284 -0.232978 0.866649
0.055708 -0.232805 0.866007
0.057120 -0.232597 0.865233
0.058547 -0.232453 0.864698
0.060001 -0.232425 0.864593
0.061453 -0.232386 0.864445
0.062905 -0.232351 0.864317
0.064365 -0.232346 0.864300
0.065817 -0.232317 0.864189
0.067245 -0.232203 0.863765
0.068685 -0.232133 0.863506
0.070130 -0.232085 0.863327
0.071589 -0.232083 0.863318
0.073056 -0.232107 0.863410
0.074531 -0.232156 0.863591
0.076014 -0.232225 0.863847
0.077518 -0.232356 0.864334
0.079026 -0.232495 0.864850
0.080538 -0.232639 0.865389
0.082060 -0.232806 0.866007
0.083597 -0.233008 0.866762
0.085154 -0.233261 0.867702
0.086705 -0.233486 0.868537
0.088274 -0.233754 0.869535
0.089800 -0.233900 0.870079
0.091296 -0.233963 0.870312
0.092770 -0.233969 0.870336
0.094248 -0.233987 0.870403
0.021116 -0.237462 0.888934
0.022591 -0.237179 0.887875
0.024050 -0.236765 0.886326
0.025507 -0.236382 0.884890
0.026957 -0.235977 0.883376
0.028412 -0.235661 0.882192
0.029858 -0.235305 0.880859
0.031322 -0.235116 0.880152
0.032788 -0.234953 0.879543
0.034244 -0.234743 0.878756
0.035679 -0.234410 0.877509
0.037111 -0.234085 0.876292
0.038536 -0.233741 0.875005
0.039963 -0.233437 0.873868
0.041400 -0.233212 0.873025
0.042846 -0.233050 0.872418
0.044289 -0.232884 0.871795
0.045734 -0.232737 0.871247
0.047175 -0.232577 0.870646
0.048609 -0.232396 0.869968
0.050044 -0.232232 0.869355
0.051467 -0.232021 0.868565
0.052878 -0.231768 0.867617
0.054295 -0.231557 0.866829
0.055720 -0.231390 0.866204
0.057134 -0.231186 0.865441
0.058561 -0.231043 0.864905
0.060014 -0.231006 0.864767
0.061458 -0.230939 0.864516
0.062903 -0.230881 0.864297
0.064363 -0.230876 0.864279
0.065810 -0.230826 0.864092
0.067231 -0.230690 0.863583
0.068663 -0.230595 0.863229
0.070099 -0.230520 0.862946
0.071557 -0.230517 0.862935
0.073032 -0.230566 0.863120
0.074516 -0.230644 0.863410
0.076006 -0.230736 0.863756
0.077524 -0.230909 0.864405
0.079033 -0.231049 0.864927
0.080555 -0.231218 0.865562
0.082085 -0.231407 0.866267
0.083623 -0.231612 0.867035
0.085167 -0.231824 0.867826
0.086714 -0.232039 0.868633
0.088266 -0.232258 0.869454
0.089783 -0.232381 0.869914
0.091280 -0.232446 0.870158
0.092756 -0.232460 0.870208
0.094226 -0.232457 0.870199
0.025486 -0.234690 0.884167
0.026939 -0.234325 0.882791
0.028398 -0.234051 0.881760
0.029849 -0.233739 0.880586
0.031319 -0.233595 0.880042
0.032784 -0.233436 0.879444
0.034234 -0.233188 0.878511
0.035666 -0.232835 0.877180
0.037092 -0.232481 0.875847
0.038512 -0.232116 0.874470
0.039939 -0.231817 0.873343
0.041380 -0.231618 0.872594
0.042829 -0.231480 0.872073
0.044275 -0.231333 0.871522
0.045725 -0.231211 0.871062
0.047170 -0.231078 0.870559
0.048614 -0.230945 0.870060
0.050059 -0.230825 0.869608
0.051491 -0.230654 0.868963
0.052906 -0.230422 0.868088
0.054324 -0.230209 0.867288
0.055751 -0.230048 0.866679
0.057166 -0.229847 0.865923
0.058589 -0.229687 0.865321
0.060036 -0.229627 0.865095
0.061469 -0.229516 0.864676
0.062907 -0.229430 0.864350
0.064361 -0.229405 0.864257
0.065802 -0.229335 0.863992
0.067218 -0.229180 0.863410
0.068647 -0.229080 0.863031
0.070076 -0.228982 0.862663
0.071527 -0.228958 0.862571
0.073002 -0.229010 0.862768
0.074493 -0.229111 0.863151
0.075985 -0.229208 0.863515
0.077504 -0.229385 0.864180
0.079020 -0.229545 0.864783
0.080543 -0.229717 0.865434
0.082081 -0.229930 0.866234
0.083629 -0.230158 0.867096
0.085170 -0.230361 0.867860
0.086707 -0.230548 0.868564
0.088256 -0.230757 0.869350
0.089773 -0.230879 0.869810
0.091279 -0.230971 0.870155
0.092767 -0.231012 0.870311
0.094246 -0.231031 0.870383
0.096625 -0.234712 0.878639
0.095719 -0.231035 0.870398
0.025462 -0.232968 0.883320
0.026922 -0.232680 0.882228
0.028387 -0.232464 0.881410
0.029844 -0.232206 0.880432
0.031316 -0.232082 0.879963
0.032778 -0.231904 0.879285
0.034225 -0.231635 0.878267
0.035655 -0.231282 0.876929
0.037078 -0.230908 0.875512
0.038497 -0.230545 0.874135
0.039927 -0.230270 0.873093
0.041368 -0.230074 0.872348
0.042821 -0.229956 0.871902
0.044271 -0.229830 0.871424
0.045720 -0.229710 0.870969
0.047170 -0.229600 0.870553
0.048623 -0.229515 0.870227
0.050074 -0.229420 0.869868
0.051507 -0.229252 0.869232
0.052922 -0.229017 0.868343
0.054334 -0.228784 0.867459
0.055761 -0.228620 0.866837
0.057177 -0.228423 0.866089
0.058607 -0.228289 0.865580
0.060055 -0.228232 0.865366
0.061493 -0.228141 0.865018
0.062926 -0.228032 0.864607
0.064374 -0.227984 0.864425
0.065803 -0.227872 0.863999
0.067211 -0.227695 0.863328
0.068634 -0.227572 0.862864
0.070063 -0.227475 0.862495
0.071513 -0.227452 0.862407
0.072995 -0.227525 0.862682
0.074492 -0.227645 0.863140
0.075984 -0.227742 0.863506
0.077503 -0.227917 0.864171
0.079013 -0.228058 0.864704
0.080528 -0.228210 0.865281
0.082066 -0.228419 0.866075
0.083606 -0.228624 0.866852
0.085130 -0.228784 0.867456
0.086657 -0.228943 0.868060
0.088186 -0.229102 0.868662
0.089709 -0.229243 0.869196
0.091234 -0.229380 0.869719
0.092741 -0.229473 0.870069
0.094248 -0.229559 0.870398
0.095764 -0.229667 0.870807
0.097220 -0.231105 0.870661
0.097285 -0.229784 0.871247
0.026912 -0.231099 0.881902
0.028384 -0.230944 0.881314
0.029848 -0.230743 0.880546
0.031319 -0.230617 0.880063
0.032781 -0.230434 0.879365
0.034224 -0.230142 0.878253
0.035654 -0.229789 0.876904
0.037077 -0.229420 0.875498
0.038497 -0.229061 0.874126
0.039924 -0.228770 0.873015
0.041360 -0.228553 0.872186
0.042813 -0.228433 0.871731
0.044262 -0.228308 0.871253
0.045711 -0.228191 0.870807
0.047165 -0.228104 0.870475
0.048628 -0.228062 0.870313
0.050084 -0.227994 0.870054
0.051524 -0.227857 0.869531
0.052941 -0.227629 0.868661
0.054353 -0.227392 0.867758
0.055773 -0.227200 0.867023
0.057188 -0.227000 0.866260
0.058619 -0.226869 0.865762
0.060070 -0.226822 0.865580
0.061515 -0.226754 0.865321
0.062947 -0.226645 0.864905
0.064388 -0.226570 0.864621
0.065805 -0.226414 0.864025
0.067212 -0.226233 0.863333
0.068635 -0.226112 0.862874
0.070070 -0.226038 0.862592
0.071522 -0.226019 0.862518
0.073010 -0.226110 0.862865
0.074506 -0.226224 0.863301
0.075991 -0.226298 0.863583
0.077502 -0.226449 0.864158
0.079017 -0.226605 0.864754
0.080537 -0.226768 0.865376
0.082068 -0.226956 0.866095
0.083599 -0.227137 0.866785
0.085116 -0.227274 0.867307
0.086617 -0.227367 0.867662
0.088121 -0.227461 0.868021
0.089650 -0.227618 0.868619
0.091184 -0.227782 0.869245
0.092704 -0.227905 0.869715
0.094247 -0.228083 0.870393
0.095802 -0.228280 0.871147
0.097353 -0.228465 0.871851
0.026904 -0.229534 0.881636
0.028377 -0.229391 0.881084
0.029847 -0.229244 0.880519
0.031320 -0.229127 0.880073
0.032778 -0.228923 0.879286
0.034221 -0.228629 0.878159
0.035653 -0.228297 0.876883
0.037077 -0.227934 0.875488
0.038497 -0.227580 0.874128
0.039927 -0.227310 0.873093
0.041364 -0.227092 0.872255
0.042812 -0.226953 0.871719
0.044261 -0.226829 0.871244
0.045711 -0.226714 0.870801
0.047165 -0.226629 0.870475
0.048633 -0.226608 0.870397
0.050095 -0.226567 0.870236
0.051541 -0.226458 0.869820
0.052964 -0.226255 0.869041
0.054382 -0.226040 0.868212
0.055801 -0.225844 0.867459
0.057216 -0.225642 0.866684
0.058653 -0.225531 0.866260
0.060106 -0.225488 0.866095
0.061558 -0.225444 0.865926
0.062992 -0.225337 0.865516
0.064434 -0.225262 0.865227
0.065843 -0.225081 0.864529
0.067249 -0.224895 0.863817
0.068666 -0.224754 0.863273
0.070105 -0.224686 0.863012
0.071553 -0.224652 0.862881
0.073034 -0.224722 0.863151
0.074523 -0.224811 0.863494
0.075999 -0.224858 0.863673
0.077495 -0.224963 0.864078
0.079002 -0.225095 0.864583
0.080506 -0.225212 0.865035
0.082019 -0.225352 0.865571
0.083539 -0.225507 0.866166
0.085055 -0.225642 0.866684
0.086555 -0.225733 0.867036
0.088064 -0.225844 0.867461
0.089600 -0.226019 0.868134
0.091141 -0.226203 0.868840
0.092681 -0.226376 0.869504
0.094256 -0.226627 0.870470
0.095841 -0.226898 0.871510
0.097425 -0.227154 0.872494
0.099899 -0.230944 0.881311
0.099060 -0.227523 0.873912
0.026889 -0.227911 0.881136
0.028363 -0.227792 0.880676
0.029842 -0.227712 0.880368
0.031317 -0.227613 0.879984
0.032775 -0.227410 0.879201
0.034217 -0.227118 0.878073
0.035653 -0.226810 0.876879
0.037080 -0.226472 0.875574
0.038502 -0.226125 0.874232
0.039935 -0.225876 0.873271
0.041375 -0.225676 0.872497
0.042819 -0.225514 0.871869
0.044266 -0.225373 0.871326
0.045715 -0.225259 0.870883
0.047170 -0.225173 0.870553
0.048637 -0.225153 0.870475
0.050104 -0.225133 0.870397
0.051556 -0.225048 0.870069
0.052985 -0.224870 0.869382
0.054409 -0.224680 0.868647
0.055829 -0.224486 0.867897
0.057250 -0.224306 0.867199
0.058693 -0.224218 0.866858
0.060153 -0.224195 0.866770
0.061612 -0.224174 0.866689
0.063048 -0.224069 0.866282
0.064485 -0.223975 0.865921
0.065889 -0.223771 0.865132
0.067290 -0.223565 0.864336
0.068701 -0.223402 0.863706
0.070140 -0.223335 0.863447
0.071583 -0.223282 0.863242
0.073058 -0.223331 0.863430
0.074539 -0.223395 0.863679
0.076007 -0.223417 0.863764
0.077482 -0.223461 0.863932
0.078973 -0.223547 0.864267
0.080461 -0.223622 0.864557
0.081957 -0.223717 0.864923
0.083468 -0.223847 0.865425
0.084995 -0.224016 0.866081
0.086496 -0.224112 0.866450
0.088006 -0.224225 0.866889
0.089547 -0.224416 0.867624
0.091095 -0.224616 0.868400
0.092644 -0.224813 0.869160
0.094257 -0.225155 0.870481
0.095882 -0.225517 0.871882
0.097498 -0.225845 0.873152
0.099164 -0.226277 0.874821
0.101680 -0.230108 0.883840
0.100867 -0.226781 0.876770
0.028352 -0.226209 0.880326
0.029832 -0.226145 0.880079
0.031310 -0.226073 0.879798
0.032772 -0.225897 0.879112
0.034220 -0.225650 0.878152
0.035660 -0.225367 0.877051
0.037092 -0.225057 0.875845
0.038514 -0.224717 0.874522
0.039948 -0.224468 0.873549
0.041388 -0.224266 0.872766
0.042829 -0.224085 0.872059
0.044271 -0.223923 0.871429
0.045720 -0.223807 0.870978
0.047174 -0.223719 0.870637
0.048633 -0.223657 0.870397
0.050095 -0.223615 0.870230
0.051545 -0.223527 0.869887
0.052979 -0.223371 0.869281
0.054409 -0.223208 0.868646
0.055837 -0.223048 0.868024
0.057265 -0.222893 0.867424
0.058709 -0.222806 0.867083
0.060162 -0.222759 0.866901
0.061627 -0.222760 0.866902
0.063069 -0.222676 0.866578
0.064509 -0.222589 0.866239
0.065913 -0.222386 0.865449
0.067319 -0.222198 0.864718
0.068724 -0.222014 0.864002
0.070163 -0.221946 0.863736
0.071612 -0.221908 0.863591
0.073086 -0.221953 0.863764
0.074560 -0.221994 0.863923
0.076021 -0.221994 0.863923
0.077488 -0.222015 0.864006
0.078965 -0.222060 0.864181
0.080444 -0.222109 0.864369
0.081922 -0.222156 0.864552
0.083416 -0.222241 0.864885
0.084936 -0.222392 0.865474
0.086438 -0.222494 0.865868
0.087941 -0.222593 0.866255
0.089491 -0.222804 0.867075
0.091053 -0.223040 0.867994
0.092616 -0.223273 0.868899
0.094258 -0.223682 0.870491
0.095923 -0.224135 0.872253
0.097578 -0.224549 0.873865
0.099264 -0.225022 0.875705
0.100978 -0.225543 0.877737
0.028379 -0.224928 0.881154
0.029853 -0.224814 0.880707
0.031321 -0.224661 0.880109
0.032778 -0.224447 0.879271
0.034230 -0.224225 0.878402
0.035674 -0.223969 0.877396
0.037111 -0.223687 0.876294
0.038538 -0.223372 0.875058
0.039970 -0.223106 0.874015
0.041409 -0.222900 0.873211
0.042842 -0.222678 0.872340
0.044281 -0.222496 0.871627
0.045726 -0.222357 0.871082
0.047179 -0.222265 0.870723
0.048632 -0.222181 0.870391
0.050089 -0.222115 0.870135
0.051539 -0.222023 0.869772
0.052976 -0.221886 0.869236
0.054413 -0.221751 0.868707
0.055848 -0.221620 0.868195
0.057283 -0.221492 0.867693
0.058732 -0.221424 0.867426
0.060180 -0.221357 0.867166
0.061646 -0.221355 0.867158
0.063089 -0.221277 0.866852
0.064529 -0.221190 0.866510
0.065934 -0.220989 0.865723
0.067347 -0.220821 0.865067
0.068746 -0.220618 0.864272
0.070179 -0.220530 0.863924
0.071626 -0.220489 0.863764
0.073087 -0.220490 0.863770
0.074553 -0.220508 0.863841
0.076013 -0.220508 0.863838
0.077481 -0.220528 0.863918
0.078956 -0.220570 0.864083
0.080440 -0.220633 0.864328
0.081910 -0.220656 0.864419
0.083395 -0.220719 0.864664
0.084914 -0.220868 0.865250
0.086417 -0.220972 0.865657
0.087922 -0.221075 0.866062
0.089471 -0.221285 0.866882
0.091040 -0.221539 0.867878
0.092606 -0.221774 0.868800
0.094257 -0.222204 0.870484
0.095943 -0.222701 0.872432
0.097627 -0.223180 0.874308
0.099327 -0.223679 0.876260
0.101060 -0.224237 0.878448
0.103656 -0.228173 0.887970
0.102779 -0.224748 0.880451
0.028415 -0.223719 0.882276
0.029885 -0.223557 0.881637
0.031340 -0.223306 0.880650
0.032791 -0.223047 0.879626
0.034244 -0.222826 0.878755
0.035692 -0.222593 0.877837
0.037131 -0.222321 0.876764
0.038562 -0.222027 0.875606
0.039994 -0.221760 0.874551
0.041434 -0.221553 0.873734
0.042860 -0.221290 0.872698
0.044294 -0.221086 0.871894
0.045735 -0.220924 0.871253
0.047183 -0.220811 0.870807
0.048637 -0.220724 0.870467
0.050093 -0.220659 0.870208
0.051542 -0.220565 0.869837
0.052990 -0.220469 0.869458
0.054437 -0.220376 0.869095
0.055875 -0.220252 0.868603
0.057315 -0.220145 0.868184
0.058769 -0.220092 0.867973
0.060212 -0.220004 0.867625
0.061673 -0.219982 0.867540
0.063117 -0.219905 0.867238
0.064558 -0.219820 0.866900
0.065964 -0.219620 0.866112
0.067376 -0.219451 0.865447
0.068771 -0.219233 0.864585
0.070198 -0.219125 0.864159
0.071639 -0.219065 0.863923
0.073093 -0.219044 0.863841
0.074559 -0.219061 0.863909
0.076019 -0.219062 0.863910
0.077481 -0.219063 0.863917
0.078942 -0.219065 0.863923
0.080409 -0.219084 0.864000
0.081863 -0.219065 0.863923
0.083338 -0.219105 0.864083
0.084856 -0.219252 0.864662
0.086372 -0.219391 0.865207
0.087891 -0.219532 0.865764
0.089434 -0.219725 0.866525
0.091012 -0.219999 0.867605
0.092594 -0.220273 0.868685
0.094246 -0.220704 0.870386
0.095943 -0.221224 0.872437
0.097656 -0.221763 0.874565
0.099367 -0.222284 0.876619
0.101105 -0.222848 0.878841
0.102824 -0.223356 0.880844
0.027001 -0.222859 0.884802
0.028463 -0.222599 0.883767
0.029927 -0.222375 0.882879
0.031370 -0.222027 0.881498
0.032814 -0.221715 0.880260
0.034265 -0.221471 0.879291
0.035711 -0.221222 0.878303
0.037150 -0.220949 0.877219
0.038583 -0.220660 0.876071
0.040011 -0.220370 0.874920
0.041451 -0.220163 0.874095
0.042877 -0.219896 0.873037
0.044308 -0.219673 0.872151
0.045744 -0.219490 0.871424
0.047192 -0.219375 0.870969
0.048641 -0.219270 0.870553
0.050094 -0.219188 0.870228
0.051549 -0.219120 0.869954
0.053002 -0.219045 0.869660
0.054455 -0.218976 0.869386
0.055898 -0.218872 0.868972
0.057349 -0.218804 0.868701
0.058804 -0.218752 0.868495
0.060253 -0.218681 0.868212
0.061715 -0.218660 0.868130
0.063154 -0.218561 0.867736
0.064583 -0.218434 0.867233
0.065988 -0.218231 0.866427
0.067389 -0.218025 0.865607
0.068784 -0.217808 0.864747
0.070211 -0.217702 0.864325
0.071653 -0.217641 0.864085
0.073099 -0.217600 0.863921
0.074572 -0.217636 0.864063
0.076033 -0.217636 0.864065
0.077496 -0.217643 0.864092
0.078958 -0.217645 0.864098
0.080425 -0.217662 0.864165
0.081870 -0.217620 0.864000
0.083338 -0.217639 0.864077
0.084847 -0.217763 0.864570
0.086354 -0.217878 0.865027
0.087865 -0.217997 0.865497
0.089405 -0.218187 0.866252
0.090985 -0.218462 0.867344
0.092575 -0.218756 0.868511
0.094237 -0.219205 0.870295
0.095950 -0.219760 0.872496
0.097674 -0.220323 0.874730
0.099397 -0.220865 0.876884
0.101146 -0.221449 0.879201
0.102865 -0.221951 0.881195
0.027049 -0.221758 0.886396
0.028511 -0.221473 0.885254
0.029971 -0.221206 0.884187
0.031406 -0.220785 0.882507
0.032842 -0.220408 0.880998
0.034293 -0.220158 0.880001
0.035740 -0.219910 0.879008
0.037180 -0.219637 0.877918
0.038613 -0.219348 0.876762
0.040038 -0.219036 0.875516
0.041475 -0.218809 0.874605
0.042898 -0.218523 0.873464
0.044329 -0.218301 0.872578
0.045762 -0.218099 0.871769
0.047206 -0.217963 0.871227
0.048651 -0.217839 0.870730
0.050105 -0.217758 0.870406
0.051562 -0.217697 0.870162
0.053021 -0.217648 0.869968
0.054480 -0.217603 0.869786
0.055929 -0.217519 0.869453
0.057382 -0.217453 0.869189
0.058837 -0.217402 0.868984
0.060288 -0.217335 0.868715
0.061750 -0.217312 0.868625
0.063189 -0.217211 0.868222
0.064617 -0.217080 0.867695
0.066022 -0.216875 0.866877
0.067417 -0.216649 0.865975
0.068806 -0.216411 0.865024
0.070226 -0.216283 0.864511
0.071660 -0.216200 0.864179
0.073100 -0.216138 0.863932
0.074580 -0.216195 0.864159
0.076043 -0.216200 0.864181
0.077507 -0.216209 0.864215
0.078968 -0.216207 0.864208
0.080433 -0.216220 0.864260
0.081870 -0.216157 0.864006
0.083331 -0.216157 0.864006
0.084825 -0.216241 0.864342
0.086330 -0.216352 0.864787
0.087855 -0.216507 0.865407
0.089406 -0.216720 0.866257
0.090995 -0.217016 0.867440
0.092601 -0.217345 0.868754
0.094254 -0.217770 0.870455
0.095950 -0.218282 0.872500
0.097674 -0.218839 0.874727
0.099407 -0.219399 0.876967
0.101157 -0.219982 0.879296
0.102876 -0.220479 0.881282
0.027098 -0.220649 0.887981
0.028562 -0.220364 0.886832
0.030019 -0.220057 0.885595
0.031450 -0.219597 0.883744
0.032878 -0.219154 0.881962
0.034321 -0.218846 0.880723
0.035765 -0.218577 0.879640
0.037210 -0.218326 0.878630
0.038647 -0.218056 0.877545
0.040070 -0.217728 0.876222
0.041508 -0.217499 0.875301
0.042928 -0.217194 0.874076
0.044356 -0.216954 0.873109
0.045786 -0.216735 0.872229
0.047230 -0.216596 0.871670
0.048675 -0.216468 0.871155
0.050129 -0.216386 0.870823
0.051586 -0.216324 0.870573
0.053047 -0.216281 0.870398
0.054508 -0.216238 0.870228
0.055963 -0.216177 0.869983
0.057423 -0.216135 0.869813
0.058886 -0.216109 0.869709
0.060345 -0.216066 0.869537
0.061808 -0.216045 0.869450
0.063243 -0.215923 0.868960
0.064671 -0.215788 0.868417
0.066070 -0.215563 0.867510
0.067454 -0.215298 0.866444
0.068836 -0.215039 0.865403
0.070248 -0.214884 0.864779
0.071668 -0.214760 0.864277
0.073101 -0.214677 0.863943
0.074582 -0.214735 0.864177
0.076045 -0.214741 0.864203
0.077510 -0.214750 0.864240
0.078970 -0.214749 0.864236
0.080434 -0.214758 0.864270
0.081871 -0.214693 0.864008
0.083339 -0.214712 0.864085
0.084833 -0.214796 0.864424
0.086339 -0.214908 0.864876
0.087880 -0.215101 0.865650
0.089441 -0.215336 0.866598
0.091025 -0.215617 0.867726
0.092633 -0.215947 0.869055
0.094283 -0.216361 0.870722
0.095960 -0.216825 0.872589
0.097674 -0.217356 0.874725
0.099406 -0.217912 0.876964
0.101156 -0.218490 0.879290
0.102866 -0.218965 0.881201
0.105510 -0.222896 0.890945
0.104528 -0.219325 0.882652
0.027116 -0.219294 0.888589
0.028584 -0.219035 0.887537
0.030047 -0.218759 0.886420
0.031483 -0.218324 0.884657
0.032915 -0.217901 0.882942
0.034355 -0.217572 0.881610
0.035798 -0.217285 0.880448
0.037241 -0.217019 0.879369
0.038680 -0.216752 0.878289
0.040108 -0.216446 0.877045
0.041547 -0.216217 0.876118
0.042968 -0.215915 0.874895
0.044393 -0.215653 0.873835
0.045819 -0.215412 0.872858
0.047260 -0.215254 0.872217
0.048700 -0.215102 0.871600
0.050153 -0.215016 0.871253
0.051610 -0.214950 0.870987
0.053072 -0.214905 0.870805
0.054533 -0.214862 0.870631
0.055990 -0.214805 0.870397
0.057456 -0.214784 0.870313
0.058921 -0.214763 0.870227
0.060387 -0.214742 0.870144
0.061852 -0.214723 0.870066
0.063293 -0.214621 0.869653
0.064723 -0.214489 0.869117
0.066124 -0.214268 0.868222
0.067503 -0.213984 0.867072
0.068883 -0.213719 0.865999
0.070282 -0.213521 0.865196
0.071688 -0.213353 0.864515
0.073121 -0.213269 0.864174
0.074595 -0.213307 0.864327
0.076052 -0.213294 0.864277
0.077515 -0.213302 0.864306
