1710
0.074521 -0.094217 0.917379
0.076114 -0.094268 0.917884
0.077713 -0.094326 0.918447
0.079299 -0.094366 0.918831
0.080870 -0.094387 0.919037
0.082465 -0.094434 0.919493
0.084071 -0.094491 0.920057
0.085690 -0.094562 0.920746
0.087342 -0.094665 0.921746
0.089024 -0.094796 0.923027
0.090703 -0.094921 0.924240
0.092376 -0.095035 0.925346
0.094068 -0.095164 0.926605
0.095747 -0.095276 0.927695
0.097442 -0.095400 0.928901
0.099162 -0.095544 0.930308
0.100889 -0.095690 0.931731
0.102631 -0.095846 0.933246
0.104399 -0.096021 0.934951
0.106154 -0.096180 0.936494
0.107948 -0.096367 0.938320
0.109770 -0.096574 0.940339
0.111603 -0.096786 0.942396
0.113423 -0.096980 0.944285
0.115269 -0.097190 0.946338
0.117098 -0.097381 0.948188
0.119009 -0.097634 0.950653
0.120978 -0.097927 0.953505
0.123033 -0.098281 0.956953
0.125366 -0.098844 0.962438
0.127740 -0.099426 0.968103
-0.006369 -0.096367 0.954063
-0.004747 -0.096166 0.952077
-0.003129 -0.095905 0.949495
-0.001519 -0.095599 0.946467
0.000081 -0.095264 0.943149
0.001671 -0.094979 0.940322
0.003250 -0.094674 0.937310
0.004823 -0.094448 0.935073
0.006390 -0.094243 0.933035
0.007954 -0.094087 0.931491
0.009514 -0.093946 0.930094
0.011080 -0.093894 0.929580
0.012641 -0.093809 0.928738
0.014206 -0.093776 0.928416
0.015766 -0.093723 0.927893
0.017314 -0.093607 0.926744
0.018850 -0.093459 0.925280
0.020385 -0.093324 0.923940
0.021907 -0.093153 0.922245
0.023429 -0.093005 0.920783
0.024961 -0.092915 0.919893
0.026489 -0.092819 0.918945
0.028019 -0.092741 0.918165
0.029554 -0.092687 0.917636
0.031079 -0.092610 0.916868
0.032612 -0.092561 0.916385
0.034153 -0.092540 0.916177
0.035688 -0.092504 0.915821
0.037221 -0.092467 0.915450
0.038748 -0.092417 0.914963
0.040261 -0.092339 0.914187
0.041775 -0.092269 0.913494
0.043295 -0.092217 0.912983
0.044816 -0.092171 0.912520
0.046358 -0.092170 0.912511
0.047891 -0.092152 0.912333
0.049423 -0.092131 0.912133
0.050958 -0.092119 0.912008
0.052483 -0.092089 0.911713
0.053997 -0.092043 0.911258
0.055518 -0.092012 0.910948
0.057051 -0.091999 0.910820
0.058579 -0.091981 0.910643
0.060139 -0.092012 0.910954
0.061713 -0.092063 0.911451
0.063295 -0.092123 0.912047
0.064872 -0.092173 0.912545
0.066469 -0.092248 0.913292
0.068076 -0.092334 0.914142
0.069683 -0.092415 0.914944
0.071313 -0.092524 0.916021
0.072946 -0.092631 0.917080
0.074561 -0.092712 0.917877
0.076155 -0.092762 0.918376
0.077747 -0.092810 0.918848
0.079317 -0.092829 0.919036
0.080878 -0.092838 0.919129
0.082464 -0.092874 0.919483
0.084062 -0.092922 0.919963
0.085674 -0.092983 0.920565
0.087324 -0.093083 0.921554
0.088994 -0.093201 0.922725
0.090672 -0.093323 0.923928
0.092354 -0.093444 0.925127
0.094059 -0.093584 0.926512
0.095739 -0.093695 0.927613
0.097442 -0.093825 0.928900
0.099170 -0.093975 0.930381
0.100888 -0.094110 0.931722
0.102631 -0.094264 0.933249
0.104410 -0.094446 0.935047
0.106164 -0.094601 0.936583
0.107949 -0.094778 0.938330
0.109771 -0.094982 0.940355
0.111606 -0.095191 0.942425
0.113437 -0.095391 0.944404
0.115296 -0.095608 0.946556
0.117138 -0.095806 0.948512
0.119061 -0.096064 0.951065
0.121043 -0.096362 0.954016
0.123114 -0.096722 0.957580
0.125345 -0.097197 0.962280
0.127627 -0.097698 0.967245
-0.006357 -0.094563 0.952192
-0.004740 -0.094424 0.950785
-0.003126 -0.094214 0.948669
-0.001518 -0.093953 0.946045
0.000081 -0.093652 0.943018
0.001670 -0.093374 0.940209
0.003249 -0.093074 0.937193
0.004822 -0.092852 0.934960
0.006389 -0.092650 0.932928
0.007953 -0.092498 0.931395
0.009514 -0.092369 0.930094
0.011080 -0.092318 0.929580
0.012639 -0.092225 0.928649
0.014203 -0.092184 0.928226
0.015763 -0.092130 0.927690
0.017309 -0.092015 0.926529
0.018846 -0.091870 0.925071
0.020382 -0.091745 0.923808
0.021906 -0.091586 0.922214
0.023428 -0.091441 0.920746
0.024960 -0.091354 0.919870
0.026488 -0.091260 0.918925
0.028018 -0.091183 0.918152
0.029553 -0.091131 0.917626
0.031082 -0.091064 0.916957
0.032619 -0.091027 0.916579
0.034165 -0.091017 0.916485
0.035704 -0.090991 0.916222
0.037242 -0.090964 0.915948
0.038774 -0.090925 0.915558
0.040292 -0.090858 0.914882
0.041811 -0.090798 0.914277
0.043337 -0.090757 0.913867
0.044863 -0.090720 0.913491
0.046403 -0.090711 0.913399
0.047938 -0.090693 0.913219
0.049471 -0.090673 0.913020
0.051008 -0.090661 0.912899
0.052535 -0.090634 0.912621
0.054056 -0.090598 0.912262
0.055574 -0.090558 0.911859
0.057106 -0.090543 0.911710
0.058634 -0.090523 0.911506
0.060195 -0.090553 0.911810
0.061765 -0.090595 0.912232
0.063361 -0.090672 0.913004
0.064946 -0.090729 0.913585
0.066538 -0.090795 0.914244
0.068134 -0.090861 0.914910
0.069732 -0.090929 0.915591
0.071349 -0.091016 0.916473
0.072969 -0.091105 0.917362
0.074585 -0.091184 0.918165
0.076179 -0.091234 0.918668
0.077771 -0.091280 0.919129
0.079332 -0.091289 0.919216
0.080886 -0.091289 0.919216
0.082465 -0.091316 0.919492
0.084064 -0.091364 0.919979
0.085676 -0.091425 0.920592
0.087325 -0.091522 0.921570
0.088995 -0.091637 0.922728
0.090671 -0.091756 0.923918
0.092354 -0.091875 0.925124
0.094059 -0.092014 0.926518
0.095731 -0.092116 0.927545
0.097424 -0.092234 0.928732
0.099150 -0.092379 0.930197
0.100867 -0.092511 0.931528
0.102601 -0.092655 0.932975
0.104378 -0.092833 0.934765
0.106141 -0.092993 0.936376
0.107925 -0.093166 0.938120
0.109748 -0.093369 0.940158
0.111595 -0.093584 0.942328
0.113449 -0.093800 0.944503
0.115321 -0.094025 0.946766
0.117178 -0.094231 0.948839
0.119115 -0.094494 0.951497
0.121110 -0.094797 0.954545
0.123192 -0.095159 0.958190
0.125322 -0.095548 0.962106
0.127503 -0.095965 0.966306
-0.004734 -0.092685 0.949478
-0.003123 -0.092526 0.947857
-0.001517 -0.092302 0.945562
0.000081 -0.092024 0.942717
0.001670 -0.091750 0.939901
0.003248 -0.091455 0.936885
0.004821 -0.091246 0.934743
0.006389 -0.091067 0.932904
0.007953 -0.090919 0.931391
0.009515 -0.090802 0.930193
0.011082 -0.090751 0.929676
0.012642 -0.090669 0.928826
0.014203 -0.090611 0.928233
0.015763 -0.090558 0.927693
0.017309 -0.090444 0.926526
0.018848 -0.090310 0.925151
0.020382 -0.090179 0.923814
0.021910 -0.090041 0.922398
0.023433 -0.089898 0.920934
0.024966 -0.089812 0.920051
0.026493 -0.089719 0.919100
0.028023 -0.089643 0.918317
0.029556 -0.089584 0.917716
0.031088 -0.089528 0.917140
0.032626 -0.089491 0.916768
0.034172 -0.089483 0.916678
0.035715 -0.089466 0.916503
0.037257 -0.089447 0.916314
0.038793 -0.089417 0.916009
0.040320 -0.089369 0.915518
0.041845 -0.089321 0.915017
0.043377 -0.089291 0.914712
0.044905 -0.089255 0.914346
0.046442 -0.089238 0.914168
0.047978 -0.089220 0.913981
0.049512 -0.089200 0.913787
0.051056 -0.089199 0.913771
0.052596 -0.089191 0.913687
0.054125 -0.089165 0.913423
0.055645 -0.089127 0.913032
0.057179 -0.089111 0.912865
0.058703 -0.089082 0.912569
0.060259 -0.089101 0.912766
0.061830 -0.089141 0.913179
0.063427 -0.089216 0.913950
0.065007 -0.089265 0.914447
0.066595 -0.089321 0.915017
0.068177 -0.089368 0.915498
0.069763 -0.089416 0.915994
0.071371 -0.089491 0.916760
0.072984 -0.089568 0.917551
0.074593 -0.089637 0.918261
0.076186 -0.089686 0.918761
0.077778 -0.089730 0.919216
0.079332 -0.089730 0.919216
0.080886 -0.089730 0.919216
0.082473 -0.089767 0.919586
0.084073 -0.089815 0.920083
0.085695 -0.089885 0.920795
0.087353 -0.089989 0.921865
0.089024 -0.090103 0.923032
0.090692 -0.090210 0.924129
0.092374 -0.090327 0.925325
0.094069 -0.090453 0.926616
0.095732 -0.090544 0.927552
0.097414 -0.090650 0.928637
0.099129 -0.090783 0.930002
0.100845 -0.090912 0.931320
0.102568 -0.091044 0.932674
0.104334 -0.091209 0.934367
0.106105 -0.091375 0.936061
0.107896 -0.091552 0.937875
0.109722 -0.091753 0.939932
0.111579 -0.091974 0.942199
0.113458 -0.092206 0.944578
0.115345 -0.092438 0.946958
0.117229 -0.092663 0.949254
0.119184 -0.092935 0.952047
0.121193 -0.093243 0.955197
0.123236 -0.093568 0.958530
0.125345 -0.093934 0.962279
0.127454 -0.094291 0.965934
-0.004733 -0.091056 0.949283
-0.003123 -0.090902 0.947680
-0.001517 -0.090709 0.945665
0.000081 -0.090436 0.942812
0.001670 -0.090155 0.939884
0.003248 -0.089864 0.936857
0.004821 -0.089659 0.934719
0.006389 -0.089494 0.932991
0.007954 -0.089350 0.931496
0.009517 -0.089244 0.930393
0.011083 -0.089186 0.929782
0.012644 -0.089112 0.929017
0.014205 -0.089047 0.928338
0.015765 -0.088996 0.927804
0.017312 -0.088884 0.926641
0.018852 -0.088761 0.925356
0.020385 -0.088627 0.923955
0.021916 -0.088500 0.922632
0.023439 -0.088361 0.921178
0.024972 -0.088274 0.920273
0.026500 -0.088181 0.919311
0.028032 -0.088115 0.918615
0.029566 -0.088056 0.918010
0.031101 -0.088010 0.917520
0.032642 -0.087982 0.917228
0.034189 -0.087972 0.917132
0.035733 -0.087955 0.916954
0.037275 -0.087937 0.916759
0.038811 -0.087907 0.916449
0.040343 -0.087869 0.916053
0.041874 -0.087832 0.915668
0.043413 -0.087813 0.915473
0.044943 -0.087779 0.915116
0.046480 -0.087760 0.914921
0.048012 -0.087733 0.914633
0.049547 -0.087713 0.914431
0.051093 -0.087713 0.914429
0.052645 -0.087724 0.914541
0.054182 -0.087709 0.914388
0.055710 -0.087681 0.914097
0.057241 -0.087658 0.913853
0.058760 -0.087619 0.913454
0.060311 -0.087629 0.913556
0.061883 -0.087669 0.913964
0.063475 -0.087734 0.914645
0.065057 -0.087781 0.915142
0.066645 -0.087836 0.915713
0.068215 -0.087865 0.916009
0.069786 -0.087893 0.916305
0.071386 -0.087956 0.916957
0.072991 -0.088021 0.917643
0.074593 -0.088081 0.918261
0.076186 -0.088129 0.918761
0.077778 -0.088172 0.919216
0.079332 -0.088172 0.919216
0.080886 -0.088172 0.919216
0.082473 -0.088208 0.919586
0.084065 -0.088247 0.919996
0.085687 -0.088316 0.920711
0.087346 -0.088419 0.921792
0.089028 -0.088542 0.923074
0.090697 -0.088649 0.924182
0.092387 -0.088771 0.925461
0.094079 -0.088892 0.926717
0.095730 -0.088970 0.927533
0.097392 -0.089056 0.928427
0.099096 -0.089177 0.929687
0.100799 -0.089293 0.930903
0.102502 -0.089406 0.932078
0.104266 -0.089567 0.933758
0.106046 -0.089738 0.935535
0.107848 -0.089922 0.937457
0.109697 -0.090139 0.939717
0.111578 -0.090376 0.942187
0.113469 -0.090614 0.944669
0.115368 -0.090852 0.947149
0.117267 -0.091083 0.949563
0.119226 -0.091354 0.952389
0.121226 -0.091649 0.955462
0.123242 -0.091948 0.958578
0.125292 -0.092264 0.961877
0.127340 -0.092570 0.965067
-0.004735 -0.089492 0.949761
-0.003124 -0.089337 0.948114
-0.001518 -0.089155 0.946178
0.000081 -0.088875 0.943216
0.001670 -0.088580 0.940076
0.003249 -0.088294 0.937045
0.004822 -0.088085 0.934822
0.006391 -0.087932 0.933201
0.007956 -0.087792 0.931714
0.009520 -0.087688 0.930616
0.011084 -0.087620 0.929893
0.012646 -0.087548 0.929125
0.014205 -0.087475 0.928354
0.015765 -0.087426 0.927831
0.017314 -0.087324 0.926750
0.018856 -0.087212 0.925566
0.020392 -0.087090 0.924268
0.021926 -0.086976 0.923061
0.023452 -0.086847 0.921687
0.024983 -0.086754 0.920697
0.026511 -0.086661 0.919716
0.028045 -0.086595 0.919019
0.029579 -0.086540 0.918426
0.031112 -0.086485 0.917847
0.032653 -0.086456 0.917542
0.034197 -0.086438 0.917345
0.035737 -0.086412 0.917072
0.037276 -0.086386 0.916790
0.038817 -0.086366 0.916581
0.040353 -0.086338 0.916283
0.041890 -0.086311 0.916002
0.043434 -0.086302 0.915910
0.044969 -0.086277 0.915636
0.046506 -0.086257 0.915425
0.048041 -0.086235 0.915195
0.049582 -0.086224 0.915077
0.051130 -0.086225 0.915087
0.052689 -0.086245 0.915303
0.054229 -0.086233 0.915169
0.055758 -0.086206 0.914882
0.057284 -0.086174 0.914547
0.058804 -0.086136 0.914147
0.060350 -0.086137 0.914152
0.061923 -0.086175 0.914557
0.063511 -0.086232 0.915162
0.065093 -0.086279 0.915659
0.066682 -0.086331 0.916213
0.068245 -0.086349 0.916408
0.069815 -0.086375 0.916682
0.071408 -0.086427 0.917235
0.073005 -0.086483 0.917825
0.074600 -0.086533 0.918354
0.076194 -0.086579 0.918848
0.077778 -0.086614 0.919216
0.079332 -0.086614 0.919216
0.080886 -0.086614 0.919216
0.082465 -0.086640 0.919492
0.084047 -0.086669 0.919799
0.085676 -0.086743 0.920586
0.087335 -0.086846 0.921676
0.089028 -0.086977 0.923073
0.090709 -0.087093 0.924301
0.092398 -0.087213 0.925569
0.094080 -0.087321 0.926719
0.095719 -0.087387 0.927422
0.097360 -0.087453 0.928121
0.099043 -0.087554 0.929187
0.100743 -0.087666 0.930383
0.102423 -0.087758 0.931353
0.104185 -0.087917 0.933039
0.105986 -0.088102 0.935010
0.107813 -0.088304 0.937153
0.109688 -0.088538 0.939637
0.111604 -0.088799 0.942409
0.113518 -0.089051 0.945077
0.115418 -0.089285 0.947559
0.117329 -0.089520 0.950059
0.119278 -0.089778 0.952797
0.121254 -0.090050 0.955682
0.123229 -0.090313 0.958476
0.125224 -0.090584 0.961348
0.127211 -0.090843 0.964093
-0.004737 -0.087919 0.950158
-0.003126 -0.087780 0.948656
-0.001519 -0.087594 0.946646
0.000081 -0.087318 0.943668
0.001671 -0.087026 0.940503
0.003250 -0.086743 0.937449
0.004823 -0.086529 0.935139
0.006394 -0.086389 0.933627
0.007959 -0.086250 0.932127
0.009523 -0.086139 0.930922
0.011087 -0.086062 0.930088
0.012647 -0.085982 0.929220
0.014205 -0.085901 0.928354
0.015765 -0.085853 0.927831
0.017315 -0.085761 0.926838
0.018860 -0.085661 0.925754
0.020399 -0.085550 0.924555
0.021935 -0.085448 0.923451
0.023464 -0.085329 0.922172
0.024996 -0.085238 0.921183
0.026525 -0.085147 0.920202
0.028060 -0.085083 0.919511
0.029595 -0.085029 0.918925
0.031126 -0.084968 0.918268
0.032668 -0.084939 0.917956
0.034208 -0.084911 0.917651
0.035746 -0.084878 0.917290
0.037281 -0.084843 0.916920
0.038826 -0.084831 0.916791
0.040363 -0.084805 0.916503
0.041904 -0.084788 0.916322
0.043453 -0.084788 0.916322
0.044993 -0.084771 0.916134
0.046531 -0.084751 0.915923
0.048068 -0.084730 0.915693
0.049609 -0.084719 0.915578
0.051158 -0.084720 0.915591
0.052719 -0.084741 0.915815
0.054258 -0.084727 0.915665
0.055788 -0.084700 0.915372
0.057314 -0.084668 0.915024
0.058835 -0.084630 0.914616
0.060381 -0.084630 0.914619
0.061955 -0.084669 0.915031
0.063544 -0.084725 0.915636
0.065127 -0.084771 0.916134
0.066710 -0.084813 0.916595
0.068272 -0.084830 0.916774
0.069843 -0.084855 0.917046
0.071430 -0.084899 0.917520
0.073022 -0.084946 0.918026
0.074616 -0.084994 0.918543
0.076201 -0.085030 0.918941
0.077778 -0.085056 0.919216
0.079332 -0.085056 0.919216
0.080886 -0.085056 0.919216
0.082456 -0.085073 0.919396
0.084028 -0.085091 0.919593
0.085654 -0.085161 0.920350
0.087312 -0.085261 0.921435
0.089015 -0.085400 0.922936
0.090707 -0.085524 0.924279
0.092407 -0.085652 0.925658
0.094080 -0.085750 0.926723
0.095708 -0.085805 0.927317
0.097329 -0.085852 0.927824
0.098989 -0.085932 0.928680
0.100677 -0.086033 0.929775
0.102344 -0.086112 0.930636
0.104114 -0.086276 0.932403
0.105937 -0.086477 0.934578
0.107802 -0.086706 0.937054
0.109704 -0.086958 0.939779
0.111658 -0.087244 0.942861
0.113584 -0.087500 0.945629
0.115483 -0.087728 0.948095
0.117393 -0.087958 0.950578
0.119328 -0.088200 0.953197
0.121276 -0.088446 0.955854
0.123223 -0.088684 0.958429
0.125174 -0.088919 0.960971
0.127095 -0.089127 0.963216
-0.004754 -0.086622 0.953614
-0.003133 -0.086369 0.950823
-0.001521 -0.086084 0.947686
0.000081 -0.085786 0.944403
0.001672 -0.085487 0.941123
0.003252 -0.085209 0.938055
0.004826 -0.084992 0.935669
0.006398 -0.084870 0.934325
0.007964 -0.084725 0.932733
0.009528 -0.084605 0.931411
0.011090 -0.084511 0.930375
0.012649 -0.084422 0.929388
0.014205 -0.084326 0.928338
0.015765 -0.084278 0.927804
0.017315 -0.084188 0.926822
0.018862 -0.084099 0.925832
0.020401 -0.083991 0.924649
0.021940 -0.083899 0.923635
0.023471 -0.083792 0.922456
0.025004 -0.083703 0.921476
0.026534 -0.083615 0.920505
0.028071 -0.083559 0.919893
0.029608 -0.083506 0.919313
0.031140 -0.083447 0.918659
0.032685 -0.083427 0.918437
0.034226 -0.083398 0.918124
0.035763 -0.083364 0.917744
0.037299 -0.083329 0.917364
0.038845 -0.083318 0.917242
0.040383 -0.083292 0.916953
0.041925 -0.083276 0.916774
0.043475 -0.083276 0.916774
0.045016 -0.083260 0.916595
0.046556 -0.083242 0.916400
0.048094 -0.083223 0.916197
0.049637 -0.083214 0.916095
0.051187 -0.083215 0.916105
0.052747 -0.083233 0.916305
0.054286 -0.083218 0.916137
0.055816 -0.083190 0.915830
0.057342 -0.083158 0.915476
0.058863 -0.083121 0.915068
0.060411 -0.083121 0.915070
0.061986 -0.083159 0.915483
0.063575 -0.083214 0.916088
0.065159 -0.083259 0.916587
0.066743 -0.083301 0.917049
0.068307 -0.083318 0.917235
0.069879 -0.083344 0.917520
0.071461 -0.083380 0.917917
0.073046 -0.083418 0.918339
0.074632 -0.083455 0.918745
0.076209 -0.083481 0.919036
0.077778 -0.083498 0.919216
0.079332 -0.083498 0.919216
0.080886 -0.083498 0.919216
0.082448 -0.083505 0.919303
0.084010 -0.083514 0.919396
0.085625 -0.083573 0.920047
0.087282 -0.083670 0.921116
0.088986 -0.083808 0.922633
0.090687 -0.083939 0.924074
0.092398 -0.084074 0.925563
0.094071 -0.084171 0.926631
0.095698 -0.084224 0.927217
0.097317 -0.084270 0.927713
0.098957 -0.084330 0.928381
0.100633 -0.084420 0.929366
0.102296 -0.084495 0.930201
0.104057 -0.084649 0.931887
0.105881 -0.084848 0.934086
0.107770 -0.085093 0.936776
0.109698 -0.085360 0.939724
0.111676 -0.085659 0.943013
0.113627 -0.085929 0.945983
0.115528 -0.086154 0.948465
0.117437 -0.086379 0.950935
0.119344 -0.086596 0.953325
0.121263 -0.086816 0.955747
0.123168 -0.087021 0.958000
0.125090 -0.087231 0.960321
0.126968 -0.087407 0.962250
-0.004768 -0.085258 0.956443
-0.003140 -0.084942 0.952899
-0.001523 -0.084596 0.949015
0.000081 -0.084276 0.945429
0.001674 -0.083972 0.942022
0.003255 -0.083698 0.938945
0.004830 -0.083486 0.936562
0.006404 -0.083359 0.935142
0.007971 -0.083209 0.933455
0.009533 -0.083072 0.931917
0.011094 -0.082960 0.930670
0.012651 -0.082854 0.929478
0.014204 -0.082752 0.928328
0.015765 -0.082704 0.927790
0.017316 -0.082624 0.926899
0.018863 -0.082537 0.925920
0.020403 -0.082432 0.924747
0.021942 -0.082342 0.923729
0.023476 -0.082244 0.922637
0.025007 -0.082150 0.921580
0.026537 -0.082064 0.920614
0.028077 -0.082017 0.920083
0.029617 -0.081972 0.919586
0.031149 -0.081915 0.918941
0.032699 -0.081904 0.918818
0.034240 -0.081877 0.918510
0.035775 -0.081835 0.918044
0.037307 -0.081791 0.917555
0.038849 -0.081771 0.917331
0.040383 -0.081738 0.916953
0.041925 -0.081722 0.916774
0.043475 -0.081722 0.916774
0.045020 -0.081714 0.916688
0.046565 -0.081706 0.916595
0.048110 -0.081697 0.916500
0.049659 -0.081697 0.916493
0.051209 -0.081697 0.916500
0.052764 -0.081706 0.916595
0.054302 -0.081690 0.916414
0.055833 -0.081662 0.916105
0.057360 -0.081632 0.915769
0.058889 -0.081605 0.915460
0.060437 -0.081605 0.915466
0.062011 -0.081641 0.915865
0.063602 -0.081695 0.916469
0.065187 -0.081739 0.916971
0.066778 -0.081789 0.917533
0.068357 -0.081823 0.917912
0.069939 -0.081858 0.918303
0.071516 -0.081887 0.918622
0.073093 -0.081914 0.918925
0.074663 -0.081931 0.919124
0.076224 -0.081939 0.919216
0.077778 -0.081939 0.919216
0.079332 -0.081939 0.919216
0.080886 -0.081939 0.919216
0.082440 -0.081939 0.919216
0.083994 -0.081939 0.919216
0.085599 -0.081988 0.919767
0.087238 -0.082067 0.920652
0.088939 -0.082201 0.922153
0.090649 -0.082339 0.923694
0.092370 -0.082481 0.925287
0.094053 -0.082585 0.926452
0.095698 -0.082653 0.927223
0.097316 -0.082696 0.927701
0.098956 -0.082756 0.928374
0.100622 -0.082835 0.929267
0.102275 -0.082902 0.930010
0.104023 -0.083042 0.931586
0.105846 -0.083237 0.933777
0.107735 -0.083478 0.936471
0.109684 -0.083757 0.939609
0.111686 -0.084068 0.943101
0.113663 -0.084352 0.946284
0.115567 -0.084575 0.948786
0.117466 -0.084788 0.951168
0.119347 -0.084982 0.953354
0.121227 -0.085171 0.955464
0.123102 -0.085351 0.957485
0.124983 -0.085531 0.959503
0.126830 -0.085682 0.961205
0.128824 -0.087562 0.963963
0.128653 -0.085815 0.962691
-0.006423 -0.084127 0.962050
-0.004779 -0.083814 0.958473
-0.003145 -0.083470 0.954538
-0.001524 -0.083081 0.950092
0.000081 -0.082747 0.946267
0.001675 -0.082439 0.942747
0.003258 -0.082170 0.939675
0.004834 -0.081962 0.937290
0.006409 -0.081839 0.935886
0.007977 -0.081690 0.934180
0.009538 -0.081539 0.932452
0.011098 -0.081418 0.931073
0.012653 -0.081296 0.929679
0.014206 -0.081187 0.928427
0.015765 -0.081132 0.927804
0.017318 -0.081062 0.927004
0.018868 -0.080985 0.926119
0.020409 -0.080890 0.925039
0.021949 -0.080802 0.924025
0.023485 -0.080713 0.923009
0.025017 -0.080619 0.921942
0.026545 -0.080528 0.920891
0.028083 -0.080474 0.920272
0.029623 -0.080429 0.919766
0.031156 -0.080373 0.919123
0.032703 -0.080357 0.918933
0.034245 -0.080331 0.918646
0.035780 -0.080290 0.918170
0.037312 -0.080247 0.917675
0.038849 -0.080218 0.917343
0.040383 -0.080184 0.916956
0.041925 -0.080168 0.916774
0.043475 -0.080168 0.916774
0.045025 -0.080168 0.916774
0.046574 -0.080168 0.916774
0.048124 -0.080168 0.916774
0.049674 -0.080168 0.916774
0.051224 -0.080168 0.916774
0.052774 -0.080168 0.916774
0.054313 -0.080152 0.916595
0.055845 -0.080127 0.916305
0.057381 -0.080108 0.916089
0.058916 -0.080089 0.915880
0.060465 -0.080091 0.915894
0.062034 -0.080117 0.916195
0.063617 -0.080160 0.916692
0.065208 -0.080212 0.917277
0.066809 -0.080271 0.917962
0.068405 -0.080323 0.918552
0.070002 -0.080374 0.919133
0.071586 -0.080408 0.919518
0.073148 -0.080417 0.919620
0.074702 -0.080415 0.919603
0.076247 -0.080405 0.919490
0.077785 -0.080389 0.919303
0.079332 -0.080381 0.919216
0.080886 -0.080381 0.919216
0.082440 -0.080381 0.919216
0.083994 -0.080381 0.919216
0.085599 -0.080429 0.919760
0.087228 -0.080498 0.920548
0.088928 -0.080628 0.922036
0.090638 -0.080762 0.923574
0.092368 -0.080910 0.925262
0.094052 -0.081014 0.926448
0.095717 -0.081097 0.927404
0.097337 -0.081141 0.927901
0.098979 -0.081201 0.928592
0.100635 -0.081271 0.929388
0.102297 -0.081343 0.930210
0.104034 -0.081471 0.931682
0.105855 -0.081662 0.933857
0.107729 -0.081886 0.936422
0.109676 -0.082158 0.939539
0.111679 -0.082464 0.943037
0.113660 -0.082746 0.946258
0.115567 -0.082967 0.948784
0.117477 -0.083183 0.951258
0.119344 -0.083364 0.953331
0.121198 -0.083531 0.955240
0.123059 -0.083699 0.957154
0.124913 -0.083857 0.958965
0.126717 -0.083978 0.960349
0.128510 -0.084089 0.961614
-0.013082 -0.085124 0.973453
-0.014736 -0.085172 0.973997
-0.014734 -0.083510 0.973871
-0.013080 -0.083462 0.973317
-0.011425 -0.085043 0.972527
-0.011423 -0.083382 0.972387
-0.009765 -0.083257 0.970922
-0.008086 -0.084512 0.966452
-0.008095 -0.082967 0.967542
-0.006434 -0.082635 0.963670
-0.004786 -0.082323 0.960028
-0.003150 -0.081977 0.955991
-0.001526 -0.081561 0.951143
0.000081 -0.081214 0.947100
0.001676 -0.080904 0.943489
0.003261 -0.080647 0.940493
0.004839 -0.080444 0.938116
0.006415 -0.080330 0.936793
0.007985 -0.080185 0.935098
0.009548 -0.080043 0.933438
0.011109 -0.079915 0.931955
0.012665 -0.079794 0.930545
0.014218 -0.079679 0.929196
0.015776 -0.079618 0.928484
0.017331 -0.079549 0.927678
0.018881 -0.079473 0.926798
0.020425 -0.079382 0.925731
0.021965 -0.079295 0.924715
0.023500 -0.079199 0.923600
0.025030 -0.079098 0.922425
0.026558 -0.079007 0.921357
0.028092 -0.078938 0.920562
0.029629 -0.078887 0.919966
0.031165 -0.078839 0.919403
0.032713 -0.078822 0.919210
0.034256 -0.078799 0.918938
0.035792 -0.078759 0.918467
0.037323 -0.078715 0.917955
0.038857 -0.078678 0.917527
0.040387 -0.078637 0.917046
0.041925 -0.078614 0.916774
0.043475 -0.078614 0.916774
0.045025 -0.078614 0.916774
0.046574 -0.078614 0.916774
0.048124 -0.078614 0.916774
0.049674 -0.078614 0.916774
0.051224 -0.078614 0.916774
0.052774 -0.078614 0.916774
0.054319 -0.078606 0.916688
0.055857 -0.078590 0.916503
0.057400 -0.078581 0.916398
0.058943 -0.078573 0.916300
0.060492 -0.078573 0.916305
0.062055 -0.078590 0.916503
0.063637 -0.078631 0.916979
0.065236 -0.078690 0.917664
0.066845 -0.078758 0.918459
0.068457 -0.078827 0.919260
0.070065 -0.078887 0.919957
0.071650 -0.078919 0.920339
0.073197 -0.078911 0.920238
0.074734 -0.078891 0.920004
0.076263 -0.078864 0.919689
0.077793 -0.078838 0.919396
0.079332 -0.078823 0.919216
0.080886 -0.078823 0.919216
0.082440 -0.078823 0.919216
0.083994 -0.078823 0.919216
0.085599 -0.078870 0.919760
0.087227 -0.078936 0.920538
0.088926 -0.079063 0.922020
0.090644 -0.079202 0.923635
0.092384 -0.079356 0.925429
0.094072 -0.079460 0.926641
0.095748 -0.079551 0.927708
0.097379 -0.079603 0.928306
0.099023 -0.079662 0.929001
0.100680 -0.079731 0.929802
0.102353 -0.079809 0.930719
0.104079 -0.079927 0.932088
0.105879 -0.080096 0.934066
0.107728 -0.080297 0.936411
0.109661 -0.080555 0.939412
0.111652 -0.080847 0.942815
0.113623 -0.081116 0.945952
0.115530 -0.081332 0.948476
0.117436 -0.081543 0.950931
0.119290 -0.081711 0.952899
0.121131 -0.081866 0.954708
0.122990 -0.082030 0.956620
0.124841 -0.082184 0.958412
0.126631 -0.082294 0.959699
0.128393 -0.082384 0.960741
0.131225 -0.084793 0.969667
0.130089 -0.082429 0.961269
-0.014727 -0.081824 0.973461
-0.013073 -0.081768 0.972794
-0.011417 -0.081685 0.971802
-0.009759 -0.081564 0.970360
-0.008098 -0.081356 0.967891
-0.006440 -0.081086 0.964671
-0.004793 -0.080804 0.961321
-0.003155 -0.080470 0.957351
-0.001528 -0.080050 0.952349
0.000082 -0.079694 0.948113
0.001678 -0.079374 0.944307
0.003264 -0.079122 0.941309
0.004843 -0.078921 0.938924
0.006421 -0.078809 0.937594
0.007992 -0.078668 0.935908
0.009558 -0.078537 0.934353
0.011119 -0.078407 0.932800
0.012676 -0.078287 0.931380
0.014229 -0.078165 0.929924
0.015787 -0.078096 0.929106
0.017343 -0.078028 0.928294
0.018894 -0.077955 0.927423
0.020441 -0.077873 0.926454
0.021983 -0.077789 0.925453
0.023517 -0.077687 0.924239
0.025044 -0.077578 0.922943
0.026573 -0.077487 0.921855
0.028104 -0.077412 0.920970
0.029639 -0.077354 0.920278
0.031178 -0.077313 0.919786
0.032722 -0.077288 0.919490
0.034266 -0.077264 0.919210
0.035799 -0.077218 0.918658
0.037331 -0.077175 0.918152
0.038861 -0.077131 0.917626
0.040391 -0.077090 0.917135
0.041925 -0.077059 0.916774
0.043475 -0.077059 0.916774
0.045025 -0.077059 0.916774
0.046574 -0.077059 0.916774
0.048124 -0.077059 0.916774
0.049674 -0.077059 0.916774
0.051224 -0.077059 0.916774
0.052774 -0.077059 0.916774
0.054324 -0.077059 0.916774
0.055868 -0.077052 0.916688
0.057418 -0.077052 0.916681
0.058967 -0.077051 0.916678
0.060517 -0.077052 0.916681
0.062073 -0.077060 0.916781
0.063655 -0.077098 0.917236
0.065260 -0.077163 0.918006
0.066878 -0.077240 0.918917
0.068508 -0.077326 0.919942
0.070124 -0.077393 0.920738
0.071711 -0.077425 0.921124
0.073252 -0.077408 0.920921
0.074782 -0.077381 0.920592
0.076296 -0.077338 0.920082
0.077817 -0.077304 0.919682
0.079348 -0.077280 0.919396
0.080894 -0.077272 0.919303
0.082440 -0.077265 0.919216
0.083994 -0.077265 0.919216
0.085607 -0.077318 0.919854
0.087246 -0.077392 0.920730
0.088955 -0.077525 0.922313
0.090682 -0.077669 0.924026
0.092433 -0.077828 0.925919
0.094131 -0.077938 0.927229
0.095820 -0.078037 0.928405
0.097453 -0.078088 0.929008
0.099097 -0.078146 0.929697
0.100755 -0.078212 0.930490
0.102429 -0.078290 0.931408
0.104138 -0.078391 0.932619
0.105919 -0.078543 0.934419
0.107744 -0.078722 0.936555
0.109651 -0.078955 0.939327
0.111607 -0.079217 0.942435
0.113564 -0.079471 0.945460
0.115457 -0.079674 0.947875
0.117347 -0.079870 0.950204
0.119198 -0.080034 0.952159
0.121036 -0.080185 0.953961
0.122897 -0.080348 0.955891
0.124759 -0.080507 0.957785
0.126561 -0.080623 0.959167
0.128321 -0.080710 0.960200
0.130027 -0.080761 0.960816
-0.014723 -0.080151 0.973174
-0.013067 -0.080087 0.972401
-0.011410 -0.079991 0.971232
-0.009752 -0.079864 0.969697
-0.008095 -0.079687 0.967545
-0.006440 -0.079448 0.964647
-0.004792 -0.079168 0.961250
-0.003156 -0.078876 0.957700
-0.001529 -0.078504 0.953182
0.000082 -0.078162 0.949035
0.001679 -0.077849 0.945224
0.003267 -0.077602 0.942232
0.004847 -0.077396 0.939727
0.006426 -0.077279 0.938304
0.007998 -0.077139 0.936609
0.009565 -0.077014 0.935092
0.011128 -0.076888 0.933563
0.012688 -0.076779 0.932241
0.014242 -0.076657 0.930762
0.015799 -0.076581 0.929834
0.017356 -0.076513 0.929011
0.018910 -0.076449 0.928228
0.020459 -0.076370 0.927277
0.022002 -0.076288 0.926276
0.023537 -0.076188 0.925056
0.025063 -0.076072 0.923651
0.026590 -0.075973 0.922453
0.028117 -0.075885 0.921386
0.029649 -0.075821 0.920602
0.031185 -0.075771 0.920001
0.032726 -0.075738 0.919596
0.034267 -0.075707 0.919223
0.035803 -0.075669 0.918755
0.037336 -0.075628 0.918258
0.038866 -0.075584 0.917732
0.040395 -0.075543 0.917235
0.041929 -0.075513 0.916860
0.043475 -0.075505 0.916774
0.045025 -0.075505 0.916774
0.046574 -0.075505 0.916774
0.048124 -0.075505 0.916774
0.049674 -0.075505 0.916774
0.051224 -0.075505 0.916774
0.052774 -0.075505 0.916774
0.054324 -0.075505 0.916774
0.055874 -0.075505 0.916774
0.057423 -0.075505 0.916774
0.058973 -0.075505 0.916774
0.060523 -0.075505 0.916774
0.062085 -0.075520 0.916947
0.063661 -0.075550 0.917321
0.065279 -0.075629 0.918275
0.066913 -0.075721 0.919386
0.068557 -0.075821 0.920601
0.070182 -0.075895 0.921503
0.071777 -0.075934 0.921979
0.073312 -0.075910 0.921683
0.074837 -0.075875 0.921267
0.076344 -0.075825 0.920659
0.077851 -0.075778 0.920082
0.079373 -0.075746 0.919689
0.080910 -0.075729 0.919490
0.082448 -0.075714 0.919303
0.083994 -0.075707 0.919216
0.085616 -0.075767 0.919951
0.087266 -0.075849 0.920944
0.088987 -0.075990 0.922652
0.090735 -0.076147 0.924565
0.092514 -0.076326 0.926733
0.094225 -0.076443 0.928153
0.095915 -0.076539 0.929324
0.097558 -0.076595 0.930004
0.099201 -0.076650 0.930674
0.100851 -0.076709 0.931384
0.102528 -0.076785 0.932309
0.104241 -0.076886 0.933534
0.106001 -0.077018 0.935137
0.107793 -0.077170 0.936979
0.109653 -0.077364 0.939339
0.111560 -0.077586 0.942033
0.113489 -0.077817 0.944839
0.115368 -0.078007 0.947147
0.117256 -0.078198 0.949470
0.119116 -0.078366 0.951505
0.120965 -0.078522 0.953400
0.122838 -0.078690 0.955437
0.124717 -0.078856 0.957460
0.126521 -0.078972 0.958867
0.128294 -0.079066 0.960004
0.130027 -0.079133 0.960813
-0.013064 -0.078419 0.972162
-0.011403 -0.078299 0.970670
-0.009744 -0.078155 0.968885
-0.008090 -0.077994 0.966894
-0.006438 -0.077784 0.964281
-0.004793 -0.077548 0.961361
-0.003157 -0.077290 0.958158
-0.001531 -0.076958 0.954040
0.000082 -0.076630 0.949984
0.001681 -0.076323 0.946176
0.003270 -0.076072 0.943070
0.004851 -0.075861 0.940448
0.006430 -0.075737 0.938914
0.008003 -0.075607 0.937295
0.009574 -0.075493 0.935888
0.011139 -0.075378 0.934466
0.012701 -0.075273 0.933154
0.014255 -0.075152 0.931654
0.015811 -0.075061 0.930524
0.017367 -0.074987 0.929607
0.018921 -0.074916 0.928736
0.020472 -0.074847 0.927874
0.022017 -0.074767 0.926879
0.023553 -0.074668 0.925661
0.025079 -0.074554 0.924245
0.026607 -0.074456 0.923036
0.028129 -0.074356 0.921787
0.029659 -0.074285 0.920905
0.031192 -0.074228 0.920206
0.032730 -0.074187 0.919695
0.034270 -0.074156 0.919312
0.035810 -0.074126 0.918941
0.037347 -0.074094 0.918543
0.038882 -0.074059 0.918113
0.040416 -0.074026 0.917700
0.041950 -0.073996 0.917321
0.043492 -0.073981 0.917142
0.045038 -0.073974 0.917049
0.046584 -0.073966 0.916953
0.048129 -0.073958 0.916860
0.049674 -0.073951 0.916774
0.051224 -0.073951 0.916774
0.052774 -0.073951 0.916774
0.054324 -0.073951 0.916774
0.055874 -0.073951 0.916774
0.057423 -0.073951 0.916774
0.058979 -0.073958 0.916860
0.060529 -0.073959 0.916867
0.062092 -0.073974 0.917049
0.063668 -0.074004 0.917431
0.065300 -0.074096 0.918565
0.066936 -0.074188 0.919700
0.068589 -0.074294 0.921025
0.070222 -0.074375 0.922021
0.071824 -0.074420 0.922579
0.073352 -0.074388 0.922186
0.074878 -0.074354 0.921769
0.076386 -0.074306 0.921173
0.077895 -0.074259 0.920592
0.079408 -0.074220 0.920097
0.080936 -0.074194 0.919786
0.082465 -0.074170 0.919490
0.084010 -0.074162 0.919389
0.085634 -0.074223 0.920138
0.087294 -0.074312 0.921248
0.089028 -0.074460 0.923073
0.090797 -0.074631 0.925195
0.092598 -0.074822 0.927566
0.094320 -0.074945 0.929090
0.096023 -0.075048 0.930364
0.097676 -0.075109 0.931131
0.099310 -0.075155 0.931698
0.100951 -0.075204 0.932301
0.102628 -0.075278 0.933222
0.104332 -0.075370 0.934355
0.106072 -0.075484 0.935769
0.107840 -0.075614 0.937382
0.109650 -0.075770 0.939316
0.111507 -0.075953 0.941584
0.113398 -0.076154 0.944076
0.115262 -0.076332 0.946281
0.117152 -0.076521 0.948630
0.119036 -0.076702 0.950871
0.120923 -0.076879 0.953072
0.122835 -0.077068 0.955408
0.124743 -0.077249 0.957657
0.126563 -0.077372 0.959179
0.128351 -0.077473 0.960425
0.130112 -0.077555 0.961443
-0.011394 -0.076589 0.969851
-0.009736 -0.076450 0.968091
-0.008085 -0.076312 0.966353
-0.006436 -0.076133 0.964077
-0.004794 -0.075942 0.961659
-0.003159 -0.075715 0.958786
-0.001532 -0.075415 0.954987
0.000082 -0.075104 0.951052
0.001683 -0.074803 0.947237
0.003273 -0.074549 0.944017
0.004854 -0.074325 0.941182
0.006433 -0.074186 0.939420
0.008008 -0.074057 0.937788
0.009579 -0.073953 0.936469
0.011147 -0.073849 0.935157
0.012710 -0.073746 0.933849
0.014266 -0.073626 0.932336
0.015821 -0.073529 0.931102
0.017374 -0.073441 0.929990
0.018927 -0.073365 0.929023
0.020480 -0.073303 0.928246
0.022026 -0.073225 0.927262
0.023563 -0.073130 0.926049
0.025090 -0.073018 0.924637
0.026618 -0.072923 0.923428
0.028141 -0.072823 0.922161
0.029668 -0.072746 0.921186
0.031198 -0.072682 0.920381
0.032736 -0.072642 0.919870
0.034273 -0.072604 0.919396
0.035814 -0.072576 0.919036
0.037355 -0.072553 0.918745
0.038895 -0.072528 0.918432
0.040434 -0.072503 0.918113
0.041973 -0.072480 0.917825
0.043516 -0.072465 0.917636
0.045062 -0.072457 0.917533
0.046608 -0.072449 0.917424
0.048153 -0.072440 0.917321
0.049699 -0.072433 0.917228
0.051245 -0.072426 0.917142
0.052790 -0.072419 0.917049
0.054334 -0.072411 0.916953
0.055879 -0.072404 0.916860
0.057423 -0.072397 0.916774
0.058979 -0.072405 0.916867
0.060530 -0.072406 0.916877
0.062099 -0.072428 0.917157
0.063683 -0.072465 0.917636
0.065310 -0.072550 0.918710
0.066945 -0.072639 0.919837
0.068606 -0.072751 0.921255
0.070240 -0.072830 0.922258
0.071836 -0.072868 0.922737
0.073379 -0.072851 0.922517
0.074910 -0.072823 0.922170
0.076420 -0.072777 0.921579
0.077930 -0.072732 0.921007
0.079445 -0.072693 0.920522
0.080964 -0.072660 0.920097
0.082483 -0.072628 0.919689
0.084019 -0.072612 0.919490
0.085635 -0.072664 0.920148
0.087312 -0.072765 0.921436
0.089048 -0.072911 0.923279
0.090836 -0.073094 0.925593
0.092658 -0.073297 0.928169
0.094403 -0.073435 0.929909
0.096111 -0.073538 0.931219
0.097793 -0.073619 0.932249
0.099430 -0.073665 0.932820
0.101073 -0.073712 0.933427
0.102741 -0.073777 0.934249
0.104424 -0.073850 0.935174
0.106130 -0.073938 0.936279
0.107862 -0.074040 0.937577
0.109625 -0.074160 0.939099
0.111441 -0.074313 0.941031
0.113316 -0.074500 0.943394
0.115168 -0.074667 0.945509
0.117062 -0.074855 0.947897
0.118973 -0.075050 0.950365
0.120899 -0.075249 0.952882
0.122839 -0.075451 0.955443
0.124776 -0.075646 0.957911
0.126622 -0.075782 0.959631
0.128438 -0.075896 0.961080
0.130229 -0.075993 0.962306
-0.008079 -0.074617 0.965606
-0.006434 -0.074469 0.963698
-0.004795 -0.074317 0.961729
-0.003161 -0.074130 0.959308
-0.001534 -0.073862 0.955838
0.000082 -0.073574 0.952109
0.001685 -0.073287 0.948399
0.003276 -0.073021 0.944962
0.004858 -0.072785 0.941899
0.006436 -0.072624 0.939821
0.008010 -0.072490 0.938091
0.009582 -0.072381 0.936677
0.011151 -0.072289 0.935483
0.012714 -0.072188 0.934173
0.014272 -0.072078 0.932747
0.015826 -0.071973 0.931399
0.017378 -0.071879 0.930180
0.018928 -0.071797 0.929112
0.020482 -0.071736 0.928326
0.022026 -0.071653 0.927250
0.023565 -0.071567 0.926141
0.025093 -0.071459 0.924745
0.026621 -0.071366 0.923538
0.028146 -0.071274 0.922352
0.029674 -0.071199 0.921373
0.031202 -0.071129 0.920478
0.032739 -0.071090 0.919963
0.034277 -0.071053 0.919483
0.035817 -0.071025 0.919129
0.037364 -0.071011 0.918943
0.038912 -0.071002 0.918831
0.040457 -0.070987 0.918637
0.042002 -0.070973 0.918450
0.043545 -0.070958 0.918258
0.045092 -0.070949 0.918143
0.046633 -0.070933 0.917933
0.048179 -0.070924 0.917825
0.049726 -0.070917 0.917729
0.051272 -0.070910 0.917636
0.052813 -0.070895 0.917447
0.054352 -0.070880 0.917245
0.055890 -0.070864 0.917046
0.057429 -0.070850 0.916860
0.058979 -0.070851 0.916870
0.060530 -0.070852 0.916882
0.062106 -0.070881 0.917265
0.063684 -0.070912 0.917658
0.065305 -0.070987 0.918635
0.066945 -0.071079 0.919827
0.068611 -0.071195 0.921327
0.070247 -0.071274 0.922353
0.071852 -0.071320 0.922938
0.073409 -0.071316 0.922895
0.074940 -0.071289 0.922542
0.076458 -0.071250 0.922043
0.077971 -0.071208 0.921491
0.079495 -0.071178 0.921104
0.081015 -0.071145 0.920686
0.082525 -0.071106 0.920169
0.084053 -0.071082 0.919865
0.085652 -0.071118 0.920334
0.087329 -0.071217 0.921614
0.089055 -0.071351 0.923350
0.090842 -0.071530 0.925657
0.092666 -0.071731 0.928256
0.094442 -0.071888 0.930290
0.096163 -0.071999 0.931729
0.097870 -0.072096 0.932987
0.099529 -0.072155 0.933754
0.101173 -0.072202 0.934356
0.102831 -0.072257 0.935071
0.104502 -0.072320 0.935879
0.106186 -0.072389 0.936775
0.107895 -0.072473 0.937863
0.109623 -0.072567 0.939086
0.111403 -0.072693 0.940710
0.113251 -0.072859 0.942857
0.115102 -0.073021 0.944961
0.116996 -0.073207 0.947368
0.118948 -0.073423 0.950162
0.120914 -0.073643 0.953002
0.122885 -0.073859 0.955800
0.124850 -0.074066 0.958478
0.126724 -0.074214 0.960400
0.128566 -0.074341 0.962038
0.130400 -0.074460 0.963574
-0.008075 -0.072941 0.965097
-0.006432 -0.072814 0.963409
-0.004795 -0.072692 0.961804
-0.003162 -0.072536 0.959727
-0.001535 -0.072290 0.956477
0.000082 -0.072025 0.952972
0.001687 -0.071759 0.949452
0.003279 -0.071483 0.945805
0.004862 -0.071242 0.942609
0.006439 -0.071068 0.940308
0.008013 -0.070928 0.938461
0.009585 -0.070816 0.936972
0.011156 -0.070734 0.935886
0.012719 -0.070629 0.934496
0.014278 -0.070527 0.933153
0.015831 -0.070417 0.931693
0.017380 -0.070311 0.930291
0.018928 -0.070222 0.929110
0.020481 -0.070161 0.928304
0.022023 -0.070073 0.927151
0.023565 -0.069996 0.926133
0.025095 -0.069899 0.924835
0.026627 -0.069814 0.923722
0.028155 -0.069732 0.922637
0.029686 -0.069665 0.921754
0.031212 -0.069593 0.920789
0.032750 -0.069552 0.920256
0.034287 -0.069515 0.919760
0.035831 -0.069494 0.919483
0.037382 -0.069488 0.919406
0.038941 -0.069495 0.919500
0.040495 -0.069495 0.919501
0.042046 -0.069489 0.919414
0.043591 -0.069475 0.919229
0.045135 -0.069460 0.919029
0.046674 -0.069437 0.918733
0.048217 -0.069422 0.918534
0.049759 -0.069408 0.918347
0.051302 -0.069394 0.918165
0.052842 -0.069379 0.917963
0.054381 -0.069362 0.917737
0.055914 -0.069339 0.917434
0.057452 -0.069324 0.917228
0.058997 -0.069317 0.917139
0.060542 -0.069311 0.917059
0.062117 -0.069339 0.917430
0.063696 -0.069369 0.917825
0.065303 -0.069428 0.918612
0.066941 -0.069516 0.919780
0.068599 -0.069621 0.921159
0.070235 -0.069699 0.922200
0.071843 -0.069746 0.922824
0.073416 -0.069758 0.922982
0.074956 -0.069739 0.922730
0.076497 -0.069722 0.922502
0.078019 -0.069689 0.922060
0.079554 -0.069668 0.921782
0.081076 -0.069637 0.921374
0.082586 -0.069597 0.920847
0.084106 -0.069567 0.920443
0.085688 -0.069587 0.920716
0.087346 -0.069669 0.921795
0.089060 -0.069791 0.923409
0.090839 -0.069958 0.925627
0.092652 -0.070146 0.928113
0.094439 -0.070309 0.930262
0.096190 -0.070439 0.931988
0.097921 -0.070551 0.933473
0.099615 -0.070633 0.934552
0.101273 -0.070688 0.935277
0.102921 -0.070734 0.935888
0.104580 -0.070785 0.936570
0.106241 -0.070837 0.937258
0.107919 -0.070899 0.938073
0.109637 -0.070984 0.939204
0.111405 -0.071100 0.940729
0.113229 -0.071246 0.942669
0.115077 -0.071404 0.944757
0.116970 -0.071585 0.947154
0.118947 -0.071812 0.950156
0.120954 -0.072051 0.953311
0.122966 -0.072287 0.956433
0.124960 -0.072505 0.959326
0.126876 -0.072673 0.961551
0.128723 -0.072799 0.963214
0.130577 -0.072925 0.964876
-0.006430 -0.071165 0.963191
-0.004797 -0.071086 0.962123
-0.003164 -0.070946 0.960236
-0.001536 -0.070721 0.957194
0.000082 -0.070472 0.953815
0.001689 -0.070226 0.950486
0.003282 -0.069942 0.946650
0.004865 -0.069697 0.943328
0.006442 -0.069504 0.940720
0.008017 -0.069366 0.938843
0.009588 -0.069249 0.937265
0.011160 -0.069176 0.936277
0.012722 -0.069061 0.934723
0.014281 -0.068961 0.933363
0.015833 -0.068846 0.931808
0.017378 -0.068728 0.930216
0.018923 -0.068627 0.928843
0.020477 -0.068573 0.928117
0.022018 -0.068486 0.926938
0.023560 -0.068412 0.925940
0.025093 -0.068324 0.924744
0.026627 -0.068249 0.923729
0.028161 -0.068183 0.922834
0.029696 -0.068126 0.922068
0.031226 -0.068063 0.921209
0.032764 -0.068023 0.920673
0.034302 -0.067985 0.920154
0.035842 -0.067957 0.919774
0.037398 -0.067958 0.919789
0.038962 -0.067973 0.919998
0.040526 -0.067988 0.920198
0.042086 -0.067996 0.920300
0.043637 -0.067988 0.920199
0.045183 -0.067973 0.919999
0.046723 -0.067952 0.919704
0.048267 -0.067937 0.919502
0.049807 -0.067916 0.919225
0.051345 -0.067896 0.918945
0.052882 -0.067874 0.918650
0.054416 -0.067851 0.918339
0.055944 -0.067821 0.917933
0.057483 -0.067805 0.917722
0.059027 -0.067797 0.917614
0.060573 -0.067790 0.917523
0.062148 -0.067817 0.917882
0.063727 -0.067846 0.918275
0.065322 -0.067890 0.918868
0.066952 -0.067968 0.919924
0.068602 -0.068062 0.921200
0.070233 -0.068133 0.922161
0.071841 -0.068180 0.922793
0.073430 -0.068207 0.923156
0.074979 -0.068196 0.923018
0.076537 -0.068195 0.922994
0.078084 -0.068183 0.922834
0.079631 -0.068171 0.922678
0.081163 -0.068148 0.922362
0.082676 -0.068109 0.921841
0.084195 -0.068078 0.921415
0.085752 -0.068077 0.921404
0.087385 -0.068136 0.922202
0.089079 -0.068240 0.923601
0.090829 -0.068381 0.925520
0.092603 -0.068537 0.927625
0.094387 -0.068693 0.929743
0.096165 -0.068841 0.931742
0.097921 -0.068969 0.933468
0.099650 -0.069073 0.934884
0.101331 -0.069142 0.935810
0.102978 -0.069186 0.936404
0.104625 -0.069228 0.936974
0.106276 -0.069271 0.937565
0.107957 -0.069333 0.938399
0.109687 -0.069424 0.939629
0.111468 -0.069544 0.941255
0.113279 -0.069679 0.943087
0.115115 -0.069826 0.945068
0.116994 -0.069994 0.947350
0.118983 -0.070223 0.950442
0.121005 -0.070465 0.953720
0.123048 -0.070712 0.957066
0.125071 -0.070942 0.960179
0.127030 -0.071130 0.962717
0.128897 -0.071262 0.964511
0.130769 -0.071394 0.966295
0.133369 -0.073565 0.973350
0.132614 -0.071508 0.967839
-0.006431 -0.069544 0.963356
-0.004798 -0.069470 0.962338
-0.003166 -0.069362 0.960842
-0.001537 -0.069152 0.957935
0.000082 -0.068916 0.954661
0.001690 -0.068676 0.951337
0.003285 -0.068397 0.947472
0.004868 -0.068137 0.943865
0.006445 -0.067934 0.941055
0.008019 -0.067797 0.939164
0.009591 -0.067682 0.937565
0.011163 -0.067605 0.936494
0.012724 -0.067485 0.934841
0.014283 -0.067386 0.933459
0.015831 -0.067259 0.931703
0.017373 -0.067131 0.929929
0.018917 -0.067031 0.928546
0.020472 -0.066984 0.927899
0.022014 -0.066900 0.926737
0.023557 -0.066835 0.925839
0.025095 -0.066762 0.924825
0.026632 -0.066696 0.923913
0.028175 -0.066652 0.923302
0.029722 -0.066619 0.922842
0.031262 -0.066578 0.922279
0.032809 -0.066554 0.921933
0.034348 -0.066515 0.921398
0.035883 -0.066473 0.920823
0.037437 -0.066468 0.920743
0.038998 -0.066477 0.920867
0.040561 -0.066486 0.920999
0.042127 -0.066500 0.921192
0.043692 -0.066512 0.921361
0.045245 -0.066505 0.921261
0.046792 -0.066491 0.921062
0.048343 -0.066481 0.920935
0.049888 -0.066466 0.920726
0.051419 -0.066433 0.920265
0.052952 -0.066405 0.919875
0.054484 -0.066376 0.919476
0.056009 -0.066341 0.918991
0.057544 -0.066320 0.918702
0.059084 -0.066306 0.918499
0.060631 -0.066299 0.918405
0.062207 -0.066324 0.918750
0.063787 -0.066352 0.919147
0.065372 -0.066383 0.919574
0.066996 -0.066453 0.920535
0.068632 -0.066529 0.921599
0.070247 -0.066583 0.922348
0.071841 -0.066616 0.922796
0.073438 -0.066649 0.923262
0.074997 -0.066647 0.923235
0.076566 -0.066655 0.923339
0.078130 -0.066658 0.923380
0.079694 -0.066660 0.923409
0.081229 -0.066639 0.923115
0.082742 -0.066601 0.922585
0.084254 -0.066563 0.922059
0.085786 -0.066542 0.921772
0.087391 -0.066577 0.922262
0.089065 -0.066664 0.923460
0.090784 -0.066779 0.925061
0.092537 -0.066917 0.926964
0.094306 -0.067060 0.928948
0.096083 -0.067204 0.930948
0.097858 -0.067343 0.932872
0.099622 -0.067469 0.934619
0.101325 -0.067552 0.935760
0.102994 -0.067608 0.936546
0.104648 -0.067654 0.937179
0.106288 -0.067690 0.937675
0.107971 -0.067751 0.938520
0.109714 -0.067848 0.939862
0.111508 -0.067973 0.941600
0.113333 -0.068113 0.943540
0.115168 -0.068255 0.945505
0.117046 -0.068419 0.947769
0.119034 -0.068641 0.950855
0.121059 -0.068879 0.954146
0.123107 -0.069123 0.957524
0.125159 -0.069363 0.960850
0.127147 -0.069562 0.963607
0.129031 -0.069700 0.965517
0.130922 -0.069838 0.967425
0.132808 -0.069969 0.969254
-0.008076 -0.068046 0.965280
-0.006437 -0.067974 0.964248
-0.004802 -0.067904 0.963255
-0.003169 -0.067793 0.961684
-0.001539 -0.067596 0.958894
0.000082 -0.067373 0.955724
0.001692 -0.067137 0.952381
0.003289 -0.066863 0.948489
0.004874 -0.066614 0.944961
0.006452 -0.066415 0.942139
0.008028 -0.066276 0.940162
0.009601 -0.066162 0.938544
0.011173 -0.066078 0.937363
0.012733 -0.065948 0.935507
0.014290 -0.065836 0.933924
0.015837 -0.065703 0.932041
0.017377 -0.065570 0.930147
0.018918 -0.065460 0.928596
0.020472 -0.065409 0.927869
0.022013 -0.065328 0.926717
0.023557 -0.065265 0.925825
0.025093 -0.065189 0.924743
0.026635 -0.065137 0.924014
0.028185 -0.065108 0.923602
0.029741 -0.065097 0.923438
0.031294 -0.065080 0.923202
0.032853 -0.065077 0.923162
0.034394 -0.065041 0.922645
0.035927 -0.064991 0.921943
0.037477 -0.064976 0.921726
0.039036 -0.064977 0.921744
0.040596 -0.064981 0.921797
0.042172 -0.065008 0.922182
0.043749 -0.065034 0.922549
0.045309 -0.065035 0.922556
0.046864 -0.065028 0.922466
0.048417 -0.065020 0.922351
0.049960 -0.064999 0.922047
0.051486 -0.064958 0.921471
0.053015 -0.064923 0.920969
0.054543 -0.064888 0.920472
0.056070 -0.064854 0.919989
0.057607 -0.064834 0.919705
0.059156 -0.064827 0.919607
0.060710 -0.064826 0.919604
0.062289 -0.064852 0.919972
0.063873 -0.064881 0.920378
0.065459 -0.064911 0.920804
0.067072 -0.064965 0.921575
0.068681 -0.065014 0.922261
0.070273 -0.065044 0.922694
0.071850 -0.065060 0.922913
0.073431 -0.065078 0.923179
0.074985 -0.065072 0.923088
0.076561 -0.065086 0.923283
0.078142 -0.065102 0.923515
0.079715 -0.065112 0.923656
0.081260 -0.065099 0.923464
0.082782 -0.065067 0.923024
0.084301 -0.065036 0.922576
0.085823 -0.065008 0.922175
0.087402 -0.065022 0.922378
0.089055 -0.065091 0.923356
0.090743 -0.065182 0.924650
0.092459 -0.065290 0.926176
0.094204 -0.065414 0.927944
0.095978 -0.065554 0.929928
0.097742 -0.065684 0.931767
0.099507 -0.065809 0.933547
0.101222 -0.065898 0.934804
0.102898 -0.065960 0.935679
0.104572 -0.066018 0.936503
0.106234 -0.066066 0.937194
0.107938 -0.066140 0.938238
0.109705 -0.066249 0.939784
0.111522 -0.066385 0.941711
0.113361 -0.066530 0.943774
0.115210 -0.066677 0.945854
0.117113 -0.066850 0.948316
0.119114 -0.067074 0.951488
0.121140 -0.067306 0.954782
0.123177 -0.067538 0.958067
0.125229 -0.067772 0.961391
0.127219 -0.067967 0.964153
0.129120 -0.068110 0.966185
0.131027 -0.068253 0.968205
0.132973 -0.068412 0.970463
-0.006447 -0.066435 0.965648
-0.004809 -0.066365 0.964620
-0.003173 -0.066245 0.962879
-0.001540 -0.066052 0.960080
0.000082 -0.065828 0.956813
0.001694 -0.065582 0.953245
0.003291 -0.065313 0.949333
0.004879 -0.065075 0.945878
0.006459 -0.064884 0.943094
0.008037 -0.064754 0.941214
0.009611 -0.064643 0.939591
0.011185 -0.064560 0.938388
0.012745 -0.064424 0.936415
0.014303 -0.064314 0.934810
0.015850 -0.064177 0.932822
0.017390 -0.064039 0.930818
0.018927 -0.063918 0.929057
0.020478 -0.063855 0.928144
0.022015 -0.063764 0.926813
0.023557 -0.063696 0.925832
0.025095 -0.063627 0.924833
0.026641 -0.063584 0.924204
0.028197 -0.063570 0.923998
0.029763 -0.063579 0.924134
0.031328 -0.063585 0.924214
0.032898 -0.063599 0.924416
0.034445 -0.063571 0.924008
0.035979 -0.063521 0.923287
0.037525 -0.063496 0.922921
0.039077 -0.063482 0.922721
0.040635 -0.063479 0.922675
0.042217 -0.063513 0.923164
0.043801 -0.063546 0.923652
0.045369 -0.063555 0.923785
0.046937 -0.063564 0.923906
0.048493 -0.063556 0.923795
0.050033 -0.063529 0.923396
0.051551 -0.063475 0.922622
0.053080 -0.063439 0.922094
0.054603 -0.063397 0.921484
0.056136 -0.063370 0.921086
0.057681 -0.063356 0.920893
0.059244 -0.063363 0.920988
0.060803 -0.063364 0.921008
0.062380 -0.063385 0.921305
0.063959 -0.063406 0.921615
0.065534 -0.063423 0.921855
0.067121 -0.063450 0.922248
0.068702 -0.063470 0.922541
0.070276 -0.063483 0.922730
0.071829 -0.063477 0.922641
