1714
0.119567 -0.126949 0.917924
0.121835 -0.127700 0.923353
0.123885 -0.128206 0.927012
0.125926 -0.128690 0.930511
0.127691 -0.128883 0.931912
0.129251 -0.128868 0.931803
0.130827 -0.128869 0.931807
0.132415 -0.128881 0.931893
0.133973 -0.128864 0.931771
0.135423 -0.128745 0.930910
0.136808 -0.128568 0.929633
0.138276 -0.128471 0.928933
0.139784 -0.128415 0.928522
0.141310 -0.128374 0.928233
0.142865 -0.128361 0.928138
0.144462 -0.128387 0.928321
0.146063 -0.128414 0.928521
0.147695 -0.128469 0.928914
0.149375 -0.128562 0.929592
0.016122 -0.131224 0.948835
0.016151 -0.129843 0.950503
0.017681 -0.129284 0.946407
0.019227 -0.128923 0.943769
0.020761 -0.128543 0.940988
0.022291 -0.128192 0.938418
0.023831 -0.127942 0.936583
0.025359 -0.127663 0.934544
0.026874 -0.127359 0.932317
0.028391 -0.127094 0.930377
0.029903 -0.126836 0.928492
0.031410 -0.126582 0.926629
0.032916 -0.126351 0.924941
0.034414 -0.126107 0.923155
0.035905 -0.125864 0.921371
0.037405 -0.125673 0.919975
0.038908 -0.125502 0.918724
0.040419 -0.125371 0.917768
0.041926 -0.125239 0.916799
0.043438 -0.125129 0.915991
0.044925 -0.124958 0.914742
0.046421 -0.124824 0.913759
0.047896 -0.124642 0.912426
0.049385 -0.124507 0.911437
0.050871 -0.124374 0.910464
0.052387 -0.124318 0.910056
0.053894 -0.124245 0.909523
0.055415 -0.124207 0.909247
0.056933 -0.124166 0.908940
0.058437 -0.124098 0.908443
0.059936 -0.124020 0.907877
0.061445 -0.123969 0.907499
0.062966 -0.123942 0.907307
0.064456 -0.123858 0.906688
0.065947 -0.123780 0.906117
0.067407 -0.123648 0.905152
0.068863 -0.123515 0.904176
0.070283 -0.123324 0.902782
0.071732 -0.123193 0.901820
0.073200 -0.123098 0.901124
0.074699 -0.123058 0.900830
0.076210 -0.123037 0.900681
0.077788 -0.123125 0.901322
0.079395 -0.123254 0.902266
0.081007 -0.123387 0.903239
0.082624 -0.123521 0.904222
0.084206 -0.123600 0.904802
0.085778 -0.123660 0.905243
0.087325 -0.123684 0.905415
0.088859 -0.123689 0.905452
0.090385 -0.123683 0.905406
0.091942 -0.123718 0.905667
0.093491 -0.123742 0.905840
0.095043 -0.123768 0.906033
0.096625 -0.123833 0.906508
0.098220 -0.123911 0.907080
0.099808 -0.123979 0.907575
0.101456 -0.124119 0.908598
0.103133 -0.124288 0.909840
0.104811 -0.124455 0.911060
0.106543 -0.124679 0.912697
0.108309 -0.124936 0.914580
0.109967 -0.125063 0.915512
0.111581 -0.125137 0.916055
0.113135 -0.125143 0.916098
0.114604 -0.125056 0.915462
0.115981 -0.124873 0.914119
0.124375 -0.127135 0.930675
0.126382 -0.127573 0.933882
0.127934 -0.127545 0.933681
0.129275 -0.127312 0.931974
0.130796 -0.127259 0.931582
0.132373 -0.127261 0.931600
0.133944 -0.127257 0.931573
0.135447 -0.127189 0.931076
0.136873 -0.127052 0.930070
0.138351 -0.126965 0.929437
0.139860 -0.126909 0.929026
0.141387 -0.126870 0.928738
0.142943 -0.126858 0.928649
0.144527 -0.126870 0.928738
0.146112 -0.126883 0.928833
0.147743 -0.126935 0.929213
0.149424 -0.127029 0.929901
0.013020 -0.130681 0.956639
0.013034 -0.129192 0.957622
0.014618 -0.128889 0.955374
0.016175 -0.128427 0.951948
0.017708 -0.127876 0.947864
0.019247 -0.127454 0.944737
0.020773 -0.127021 0.941527
0.022296 -0.126629 0.938624
0.023836 -0.126382 0.936790
0.025365 -0.126109 0.934765
0.026884 -0.125824 0.932655
0.028402 -0.125563 0.930720
0.029917 -0.125320 0.928915
0.031424 -0.125067 0.927047
0.032929 -0.124829 0.925282
0.034426 -0.124586 0.923479
0.035920 -0.124356 0.921772
0.037422 -0.124167 0.920371
0.038921 -0.123987 0.919036
0.040432 -0.123857 0.918073
0.041939 -0.123724 0.917091
0.043447 -0.123603 0.916189
0.044934 -0.123433 0.914933
0.046431 -0.123301 0.913950
0.047906 -0.123119 0.912606
0.049390 -0.122974 0.911529
0.050876 -0.122842 0.910549
0.052387 -0.122776 0.910062
0.053895 -0.122706 0.909540
0.055422 -0.122682 0.909363
0.056947 -0.122655 0.909163
0.058453 -0.122590 0.908686
0.059951 -0.122513 0.908111
0.061458 -0.122457 0.907699
0.062972 -0.122417 0.907401
0.064456 -0.122321 0.906688
0.065953 -0.122255 0.906200
0.067414 -0.122126 0.905242
0.068870 -0.121995 0.904269
0.070290 -0.121806 0.902872
0.071739 -0.121675 0.901904
0.073193 -0.121558 0.901034
0.074684 -0.121505 0.900641
0.076185 -0.121470 0.900385
0.077746 -0.121532 0.900839
0.079342 -0.121644 0.901672
0.080946 -0.121764 0.902563
0.082554 -0.121885 0.903457
0.084136 -0.121964 0.904039
0.085714 -0.122034 0.904564
0.087260 -0.122059 0.904747
0.088801 -0.122074 0.904860
0.090333 -0.122078 0.904887
0.091898 -0.122124 0.905226
0.093446 -0.122148 0.905404
0.094998 -0.122175 0.905608
0.096581 -0.122241 0.906094
0.098175 -0.122318 0.906666
0.099752 -0.122372 0.907065
0.101398 -0.122508 0.908075
0.103062 -0.122662 0.909218
0.104707 -0.122789 0.910155
0.106424 -0.122994 0.911678
0.108166 -0.123223 0.913371
0.109812 -0.123337 0.914221
0.111442 -0.123432 0.914920
0.113035 -0.123482 0.915293
0.114535 -0.123431 0.914913
0.115981 -0.123324 0.914123
0.124485 -0.125668 0.931497
0.126463 -0.126071 0.934482
0.127878 -0.125908 0.933278
0.129141 -0.125601 0.931004
0.130589 -0.125480 0.930107
0.132135 -0.125455 0.929923
0.133706 -0.125454 0.929914
0.135296 -0.125471 0.930039
0.136818 -0.125425 0.929696
0.138364 -0.125402 0.929525
0.139903 -0.125372 0.929308
0.141444 -0.125346 0.929114
0.143015 -0.125346 0.929114
0.144586 -0.125346 0.929114
0.146170 -0.125358 0.929202
0.147802 -0.125410 0.929587
0.149501 -0.125517 0.930381
0.011440 -0.127853 0.959754
0.013043 -0.127665 0.958345
0.014635 -0.127420 0.956507
0.016195 -0.126967 0.953102
0.017726 -0.126398 0.948834
0.019258 -0.125923 0.945268
0.020778 -0.125455 0.941749
0.022296 -0.125042 0.938650
0.023839 -0.124809 0.936902
0.025371 -0.124553 0.934985
0.026893 -0.124285 0.932973
0.028412 -0.124030 0.931053
0.029930 -0.123799 0.929320
0.031438 -0.123549 0.927447
0.032942 -0.123312 0.925667
0.034440 -0.123073 0.923870
0.035939 -0.122857 0.922247
0.037441 -0.122669 0.920841
0.038941 -0.122491 0.919502
0.040453 -0.122362 0.918534
0.041960 -0.122231 0.917551
0.043465 -0.122100 0.916566
0.044953 -0.121933 0.915312
0.046446 -0.121790 0.914240
0.047916 -0.121599 0.912806
0.049396 -0.121442 0.911631
0.050881 -0.121311 0.910641
0.052388 -0.121234 0.910065
0.053895 -0.121165 0.909545
0.055428 -0.121154 0.909468
0.056959 -0.121140 0.909360
0.058467 -0.121078 0.908896
0.059965 -0.121001 0.908318
0.061471 -0.120944 0.907891
0.062979 -0.120891 0.907492
0.064456 -0.120784 0.906688
0.065959 -0.120730 0.906285
0.067420 -0.120603 0.905333
0.068870 -0.120463 0.904279
0.070290 -0.120276 0.902873
0.071738 -0.120146 0.901896
0.073179 -0.120008 0.900861
0.074663 -0.119944 0.900385
0.076162 -0.119908 0.900113
0.077707 -0.119944 0.900385
0.079286 -0.120030 0.901028
0.080879 -0.120134 0.901813
0.082476 -0.120239 0.902601
0.084056 -0.120318 0.903188
0.085633 -0.120387 0.903712
0.087177 -0.120410 0.903881
0.088716 -0.120424 0.903989
0.090245 -0.120426 0.903999
0.091807 -0.120471 0.904337
0.093364 -0.120506 0.904604
0.094935 -0.120559 0.905001
0.096526 -0.120636 0.905577
0.098119 -0.120712 0.906151
0.099694 -0.120764 0.906539
0.101317 -0.120873 0.907355
0.102959 -0.120999 0.908304
0.104569 -0.121086 0.908955
0.106271 -0.121274 0.910367
0.107978 -0.121463 0.911788
0.109610 -0.121563 0.912538
0.111215 -0.121632 0.913053
0.112829 -0.121708 0.913622
0.114336 -0.121668 0.913326
0.120109 -0.124398 0.922081
0.117400 -0.121643 0.913135
0.119663 -0.122379 0.918661
0.123838 -0.123444 0.926658
0.125709 -0.123744 0.928910
0.127212 -0.123679 0.928418
0.128573 -0.123478 0.926909
0.130067 -0.123409 0.926393
0.131698 -0.123470 0.926852
0.133370 -0.123567 0.927582
0.135042 -0.123662 0.928295
0.136644 -0.123691 0.928513
0.138290 -0.123760 0.929028
0.139845 -0.123747 0.928928
0.141402 -0.123734 0.928835
0.142986 -0.123747 0.928928
0.144571 -0.123759 0.929019
0.146171 -0.123784 0.929210
0.147833 -0.123860 0.929782
0.149536 -0.123969 0.930595
0.009824 -0.127937 0.960386
0.011433 -0.126149 0.959170
0.013040 -0.126004 0.958063
0.014634 -0.125787 0.956417
0.016195 -0.125352 0.953111
0.017730 -0.124819 0.949052
0.019256 -0.124311 0.945194
0.020774 -0.123833 0.941558
0.022292 -0.123425 0.938454
0.023834 -0.123194 0.936700
0.025368 -0.122955 0.934879
0.026894 -0.122705 0.932983
0.028415 -0.122465 0.931159
0.029936 -0.122248 0.929508
0.031444 -0.122000 0.927622
0.032945 -0.121755 0.925759
0.034447 -0.121531 0.924058
0.035946 -0.121319 0.922444
0.037446 -0.121125 0.920964
0.038946 -0.120947 0.919617
0.040457 -0.120819 0.918640
0.041961 -0.120679 0.917573
0.043466 -0.120549 0.916592
0.044955 -0.120387 0.915355
0.046447 -0.120244 0.914271
0.047918 -0.120056 0.912842
0.049396 -0.119899 0.911646
0.050882 -0.119768 0.910650
0.052383 -0.119680 0.909977
0.053884 -0.119598 0.909358
0.055415 -0.119585 0.909259
0.056946 -0.119572 0.909158
0.058454 -0.119513 0.908708
0.059959 -0.119449 0.908227
0.061471 -0.119405 0.907891
0.062973 -0.119342 0.907408
0.064443 -0.119224 0.906514
0.065952 -0.119182 0.906192
0.067414 -0.119058 0.905249
0.068858 -0.118909 0.904121
0.070283 -0.118734 0.902790
0.071737 -0.118615 0.901882
0.073171 -0.118468 0.900762
0.074655 -0.118406 0.900295
0.076155 -0.118371 0.900029
0.077698 -0.118405 0.900286
0.079268 -0.118477 0.900830
0.080859 -0.118576 0.901588
0.082455 -0.118679 0.902373
0.084042 -0.118766 0.903031
0.085611 -0.118825 0.903477
0.087154 -0.118847 0.903646
0.088683 -0.118848 0.903651
0.090202 -0.118837 0.903571
0.091756 -0.118872 0.903834
0.093322 -0.118920 0.904202
0.094903 -0.118986 0.904704
0.096496 -0.119064 0.905296
0.098088 -0.119139 0.905866
0.099660 -0.119187 0.906231
0.101262 -0.119269 0.906855
0.102881 -0.119369 0.907617
0.104477 -0.119440 0.908157
0.106156 -0.119601 0.909382
0.107826 -0.119749 0.910503
0.109431 -0.119821 0.911055
0.111011 -0.119864 0.911378
0.112616 -0.119932 0.911900
0.114145 -0.119919 0.911797
0.115714 -0.119947 0.912013
0.117321 -0.120015 0.912524
0.119329 -0.120484 0.916097
0.121260 -0.120865 0.918988
0.124951 -0.121432 0.923303
0.126530 -0.121450 0.923437
0.127971 -0.121336 0.922574
0.129498 -0.121306 0.922343
0.131208 -0.121445 0.923401
0.132936 -0.121597 0.924558
0.134675 -0.121757 0.925772
0.136368 -0.121871 0.926639
0.138113 -0.122029 0.927842
0.139673 -0.122021 0.927783
0.141272 -0.122047 0.927980
0.142870 -0.122072 0.928171
0.144454 -0.122085 0.928267
0.146055 -0.122112 0.928469
0.147717 -0.122188 0.929053
0.149406 -0.122285 0.929785
0.011426 -0.124442 0.958539
0.013032 -0.124303 0.957472
0.014624 -0.124083 0.955781
0.016184 -0.123651 0.952453
0.017720 -0.123139 0.948503
0.019243 -0.122627 0.944562
0.020760 -0.122156 0.940932
0.022279 -0.121765 0.937922
0.023818 -0.121526 0.936081
0.025356 -0.121315 0.934455
0.026887 -0.121095 0.932764
0.028415 -0.120884 0.931136
0.029939 -0.120684 0.929593
0.031450 -0.120450 0.927795
0.032952 -0.120208 0.925931
0.034457 -0.120000 0.924327
0.035954 -0.119781 0.922644
0.037454 -0.119590 0.921167
0.038954 -0.119414 0.919811
0.040462 -0.119275 0.918739
0.041962 -0.119125 0.917588
0.043462 -0.118985 0.916512
0.044951 -0.118824 0.915266
0.046438 -0.118671 0.914091
0.047908 -0.118485 0.912659
0.049387 -0.118330 0.911467
0.050872 -0.118202 0.910474
0.052367 -0.118101 0.909704
0.053867 -0.118018 0.909059
0.055391 -0.117991 0.908852
0.056915 -0.117965 0.908650
0.058428 -0.117919 0.908297
0.059939 -0.117871 0.907926
0.061458 -0.117841 0.907699
0.062960 -0.117780 0.907226
0.064430 -0.117663 0.906323
0.065938 -0.117620 0.905995
0.067400 -0.117498 0.905059
0.068845 -0.117354 0.903947
0.070276 -0.117192 0.902700
0.071736 -0.117084 0.901865
0.073170 -0.116939 0.900747
0.074654 -0.116879 0.900286
0.076155 -0.116846 0.900029
0.077698 -0.116879 0.900286
0.079261 -0.116939 0.900747
0.080851 -0.117036 0.901498
0.082447 -0.117138 0.902280
0.084034 -0.117224 0.902947
0.085604 -0.117284 0.903403
0.087155 -0.117317 0.903658
0.088683 -0.117317 0.903661
0.090203 -0.117307 0.903584
0.091766 -0.117352 0.903928
0.093334 -0.117401 0.904312
0.094916 -0.117468 0.904826
0.096510 -0.117546 0.905424
0.098102 -0.117620 0.905992
0.099673 -0.117667 0.906354
0.101264 -0.117735 0.906881
0.102873 -0.117822 0.907551
0.104457 -0.117878 0.907982
0.106102 -0.118000 0.908919
0.107726 -0.118096 0.909658
0.109314 -0.118149 0.910073
0.110878 -0.118177 0.910289
0.112467 -0.118230 0.910692
0.114031 -0.118255 0.910887
0.115649 -0.118336 0.911507
0.117289 -0.118435 0.912274
0.119108 -0.118711 0.914401
0.122583 -0.119083 0.917264
0.124251 -0.119196 0.918135
0.125801 -0.119194 0.918117
0.127272 -0.119118 0.917536
0.128796 -0.119092 0.917337
0.130564 -0.119292 0.918871
0.132349 -0.119501 0.920481
0.134196 -0.119760 0.922482
0.135997 -0.119973 0.924118
0.137847 -0.120224 0.926050
0.139405 -0.120217 0.926000
0.141031 -0.120269 0.926400
0.142642 -0.120307 0.926692
0.144255 -0.120345 0.926987
0.145883 -0.120396 0.927376
0.147573 -0.120495 0.928143
0.149243 -0.120577 0.928775
0.011405 -0.122598 0.956834
0.013008 -0.122457 0.955730
0.014600 -0.122256 0.954164
0.016159 -0.121853 0.951018
0.017696 -0.121368 0.947235
0.019220 -0.120879 0.943420
0.020739 -0.120440 0.939994
0.022259 -0.120066 0.937070
0.023796 -0.119831 0.935237
0.025337 -0.119638 0.933734
0.026872 -0.119447 0.932239
0.028400 -0.119244 0.930659
0.029930 -0.119072 0.929313
0.031444 -0.118855 0.927622
0.032949 -0.118629 0.925853
0.034454 -0.118424 0.924256
0.035955 -0.118219 0.922657
0.037454 -0.118030 0.921178
0.038954 -0.117855 0.919815
0.040458 -0.117705 0.918648
0.041957 -0.117555 0.917471
0.043452 -0.117405 0.916303
0.044939 -0.117242 0.915032
0.046422 -0.117081 0.913776
0.047896 -0.116907 0.912419
0.049375 -0.116758 0.911252
0.050861 -0.116632 0.910272
0.052345 -0.116512 0.909332
0.053843 -0.116426 0.908664
0.055360 -0.116385 0.908342
0.056872 -0.116337 0.907970
0.058384 -0.116292 0.907615
0.059906 -0.116267 0.907424
0.061427 -0.116243 0.907231
0.062923 -0.116173 0.906690
0.064391 -0.116056 0.905774
0.065896 -0.116010 0.905413
0.067350 -0.115879 0.904394
0.068797 -0.115740 0.903310
0.070242 -0.115605 0.902252
0.071715 -0.115521 0.901599
0.073156 -0.115390 0.900574
0.074648 -0.115342 0.900202
0.076162 -0.115331 0.900113
0.077707 -0.115365 0.900385
0.079270 -0.115425 0.900854
0.080862 -0.115524 0.901623
0.082458 -0.115624 0.902402
0.084047 -0.115712 0.903091
0.085618 -0.115772 0.903559
0.087172 -0.115806 0.903826
0.088700 -0.115806 0.903826
0.090236 -0.115817 0.903910
0.091800 -0.115863 0.904265
0.093378 -0.115924 0.904742
0.094970 -0.115999 0.905333
0.096563 -0.116076 0.905928
0.098137 -0.116125 0.906313
0.099708 -0.116171 0.906673
0.101292 -0.116229 0.907128
0.102891 -0.116303 0.907706
0.104475 -0.116359 0.908138
0.106096 -0.116453 0.908870
0.107686 -0.116511 0.909324
0.109257 -0.116546 0.909602
0.110808 -0.116560 0.909710
0.112389 -0.116605 0.910062
0.113974 -0.116653 0.910435
0.115623 -0.116764 0.911298
0.117260 -0.116860 0.912049
0.118894 -0.116951 0.912757
0.120584 -0.117093 0.913871
0.122240 -0.117199 0.914698
0.123824 -0.117235 0.914979
0.125374 -0.117238 0.915001
0.126912 -0.117230 0.914937
0.128360 -0.117140 0.914232
0.130054 -0.117274 0.915280
0.131843 -0.117489 0.916961
0.133704 -0.117763 0.919096
0.135567 -0.118032 0.921196
0.137493 -0.118349 0.923674
0.139111 -0.118398 0.924051
0.140763 -0.118473 0.924639
0.142401 -0.118536 0.925128
0.144043 -0.118599 0.925625
0.145698 -0.118673 0.926202
0.147416 -0.118796 0.927156
0.150435 -0.119953 0.936193
0.011371 -0.120612 0.953957
0.012970 -0.120487 0.952968
0.014564 -0.120344 0.951836
0.016123 -0.119975 0.948912
0.017663 -0.119538 0.945462
0.019191 -0.119099 0.941984
0.020716 -0.118715 0.938951
0.022241 -0.118382 0.936313
0.023778 -0.118154 0.934513
0.025317 -0.117965 0.933017
0.026857 -0.117800 0.931715
0.028387 -0.117614 0.930241
0.029915 -0.117438 0.928846
0.031432 -0.117238 0.927271
0.032942 -0.117036 0.925670
0.034444 -0.116822 0.923979
0.035944 -0.116621 0.922386
0.037443 -0.116433 0.920900
0.038945 -0.116270 0.919615
0.040445 -0.116111 0.918356
0.041939 -0.115951 0.917085
0.043425 -0.115779 0.915725
0.044905 -0.115604 0.914344
0.046382 -0.115432 0.912985
0.047860 -0.115274 0.911733
0.049344 -0.115140 0.910673
0.050834 -0.115030 0.909803
0.052323 -0.114922 0.908947
0.053820 -0.114836 0.908267
0.055330 -0.114784 0.907862
0.056842 -0.114737 0.907483
0.058353 -0.114691 0.907125
0.059879 -0.114678 0.907019
0.061400 -0.114654 0.906833
0.062890 -0.114576 0.906210
0.064350 -0.114448 0.905197
0.065851 -0.114398 0.904803
0.067298 -0.114257 0.903688
0.068744 -0.114121 0.902618
0.070204 -0.114014 0.901768
0.071693 -0.113958 0.901322
0.073142 -0.113841 0.900400
0.074641 -0.113806 0.900122
0.076169 -0.113816 0.900202
0.077723 -0.113863 0.900574
0.079296 -0.113935 0.901142
0.080897 -0.114044 0.902007
0.082501 -0.114154 0.902874
0.084091 -0.114241 0.903566
0.085664 -0.114301 0.904038
0.087218 -0.114336 0.904311
0.088747 -0.114336 0.904311
0.090293 -0.114358 0.904486
0.091860 -0.114404 0.904854
0.093440 -0.114466 0.905340
0.095032 -0.114540 0.905928
0.096624 -0.114612 0.906495
0.098197 -0.114659 0.906866
0.099779 -0.114716 0.907317
0.101366 -0.114775 0.907791
0.102958 -0.114839 0.908297
0.104541 -0.114891 0.908708
0.106140 -0.114960 0.909250
0.107700 -0.114983 0.909436
0.109248 -0.114995 0.909526
0.110786 -0.114995 0.909530
0.112344 -0.115016 0.909693
0.113917 -0.115052 0.909977
0.115564 -0.115160 0.910832
0.117185 -0.115240 0.911468
0.118811 -0.115322 0.912117
0.120453 -0.115418 0.912875
0.122057 -0.115476 0.913334
0.123580 -0.115457 0.913179
0.125093 -0.115427 0.912948
0.126588 -0.115383 0.912599
0.128014 -0.115278 0.911769
0.129652 -0.115365 0.912451
0.131373 -0.115522 0.913694
0.133214 -0.115779 0.915725
0.135050 -0.116027 0.917686
0.136975 -0.116343 0.920192
0.138631 -0.116428 0.920860
0.140383 -0.116590 0.922145
0.142078 -0.116702 0.923025
0.143792 -0.116827 0.924016
0.145494 -0.116939 0.924902
0.147253 -0.117094 0.926131
0.011340 -0.118666 0.951313
0.012934 -0.118540 0.950306
0.014525 -0.118415 0.949307
0.016087 -0.118101 0.946790
0.017632 -0.117724 0.943768
0.019162 -0.117324 0.940559
0.020694 -0.116999 0.937952
0.022224 -0.116707 0.935611
0.023758 -0.116473 0.933733
0.025294 -0.116274 0.932144
0.026834 -0.116122 0.930925
0.028365 -0.115948 0.929527
0.029893 -0.115776 0.928152
0.031411 -0.115592 0.926672
0.032925 -0.115405 0.925178
0.034422 -0.115183 0.923393
0.035921 -0.114983 0.921788
0.037419 -0.114797 0.920302
0.038917 -0.114629 0.918952
0.040412 -0.114461 0.917606
0.041904 -0.114301 0.916327
0.043384 -0.114117 0.914851
0.044858 -0.113935 0.913389
0.046338 -0.113775 0.912110
0.047824 -0.113643 0.911049
0.049317 -0.113535 0.910183
0.050813 -0.113440 0.909424
0.052307 -0.113345 0.908657
0.053807 -0.113270 0.908060
0.055313 -0.113210 0.907576
0.056819 -0.113153 0.907122
0.058329 -0.113108 0.906757
0.059859 -0.113102 0.906715
0.061373 -0.113068 0.906438
0.062857 -0.112980 0.905735
0.064308 -0.112840 0.904612
0.065801 -0.112777 0.904107
0.067245 -0.112636 0.902973
0.068704 -0.112525 0.902087
0.070185 -0.112455 0.901528
0.071690 -0.112426 0.901291
0.073162 -0.112346 0.900651
0.074669 -0.112323 0.900465
0.076207 -0.112345 0.900644
0.077770 -0.112404 0.901118
0.079353 -0.112489 0.901796
0.080955 -0.112596 0.902654
0.082566 -0.112713 0.903594
0.084157 -0.112798 0.904274
0.085723 -0.112847 0.904669
0.087287 -0.112891 0.905020
0.088825 -0.112901 0.905101
0.090374 -0.112924 0.905288
0.091935 -0.112962 0.905591
0.093517 -0.113024 0.906086
0.095100 -0.113085 0.906573
0.096682 -0.113143 0.907041
0.098255 -0.113189 0.907408
0.099840 -0.113246 0.907869
0.101429 -0.113307 0.908351
0.103012 -0.113359 0.908770
0.104593 -0.113408 0.909162
0.106173 -0.113454 0.909530
0.107722 -0.113465 0.909624
0.109260 -0.113466 0.909630
0.110797 -0.113465 0.909624
0.112334 -0.113464 0.909615
0.113894 -0.113486 0.909794
0.115505 -0.113558 0.910366
0.117111 -0.113623 0.910892
0.118706 -0.113676 0.911312
0.120291 -0.113718 0.911648
0.121839 -0.113725 0.911702
0.123329 -0.113677 0.911320
0.124780 -0.113595 0.910664
0.126221 -0.113507 0.909957
0.127659 -0.113418 0.909243
0.129229 -0.113446 0.909472
0.130862 -0.113529 0.910137
0.132627 -0.113723 0.911693
0.134417 -0.113934 0.913380
0.136237 -0.114165 0.915235
0.137932 -0.114288 0.916218
0.139802 -0.114551 0.918326
0.141610 -0.114758 0.919986
0.143433 -0.114972 0.921705
0.145276 -0.115198 0.923517
0.147104 -0.115408 0.925196
0.009712 -0.116824 0.949450
0.011315 -0.116800 0.949258
0.012908 -0.116692 0.948381
0.014494 -0.116556 0.947277
0.016057 -0.116274 0.944979
0.017604 -0.115942 0.942285
0.019139 -0.115591 0.939429
0.020675 -0.115300 0.937065
0.022208 -0.115039 0.934946
0.023743 -0.114818 0.933150
0.025275 -0.114610 0.931461
0.026813 -0.114456 0.930206
0.028343 -0.114282 0.928797
0.029869 -0.114114 0.927427
0.031384 -0.113921 0.925862
0.032899 -0.113747 0.924443
0.034392 -0.113516 0.922566
0.035889 -0.113320 0.920979
0.037390 -0.113149 0.919588
0.038891 -0.112995 0.918335
0.040381 -0.112819 0.916906
0.041877 -0.112673 0.915718
0.043350 -0.112480 0.914150
0.044823 -0.112299 0.912677
0.046302 -0.112143 0.911410
0.047797 -0.112036 0.910542
0.049296 -0.111945 0.909799
0.050798 -0.111865 0.909148
0.052296 -0.111781 0.908467
0.053801 -0.111719 0.907960
0.055307 -0.111660 0.907483
0.056814 -0.111605 0.907041
0.058329 -0.111570 0.906756
0.059859 -0.111566 0.906719
0.061366 -0.111519 0.906341
0.062849 -0.111431 0.905621
0.064299 -0.111291 0.904484
0.065785 -0.111218 0.903894
0.067229 -0.111079 0.902760
0.068714 -0.111012 0.902216
0.070205 -0.110958 0.901781
0.071720 -0.110944 0.901662
0.073207 -0.110887 0.901205
0.074729 -0.110884 0.901181
0.076262 -0.110899 0.901297
0.077828 -0.110959 0.901787
0.079421 -0.111054 0.902562
0.081023 -0.111159 0.903412
0.082628 -0.111264 0.904267
0.084211 -0.111335 0.904845
0.085776 -0.111382 0.905227
0.087332 -0.111415 0.905491
0.088871 -0.111425 0.905577
0.090421 -0.111449 0.905766
0.091983 -0.111486 0.906066
0.093557 -0.111536 0.906473
0.095139 -0.111594 0.906948
0.096722 -0.111651 0.907415
0.098297 -0.111698 0.907793
0.099884 -0.111756 0.908267
0.101474 -0.111816 0.908755
0.103054 -0.111865 0.909146
0.104625 -0.111901 0.909439
0.106204 -0.111945 0.909797
0.107744 -0.111947 0.909813
0.109283 -0.111948 0.909823
0.110809 -0.111935 0.909721
0.112345 -0.111933 0.909702
0.113882 -0.111933 0.909700
0.115467 -0.111978 0.910070
0.117045 -0.112016 0.910376
0.118600 -0.112031 0.910496
0.120137 -0.112029 0.910484
0.121634 -0.111990 0.910165
0.123082 -0.111908 0.909496
0.124481 -0.111783 0.908486
0.125908 -0.111686 0.907696
0.127334 -0.111592 0.906930
0.128836 -0.111564 0.906706
0.130400 -0.111591 0.906922
0.132099 -0.111731 0.908062
0.133797 -0.111867 0.909170
0.135556 -0.112051 0.910660
0.137286 -0.112207 0.911928
0.139176 -0.112488 0.914216
0.141114 -0.112802 0.916762
0.143075 -0.113127 0.919410
0.145060 -0.113464 0.922144
0.146995 -0.113755 0.924507
0.009697 -0.115037 0.947987
0.011296 -0.114994 0.947632
0.012886 -0.114890 0.946781
0.014467 -0.114736 0.945513
0.016030 -0.114481 0.943410
0.017580 -0.114192 0.941029
0.019122 -0.113898 0.938602
0.020661 -0.113639 0.936471
0.022201 -0.113417 0.934636
0.023737 -0.113207 0.932912
0.025263 -0.112979 0.931032
0.026798 -0.112815 0.929681
0.028324 -0.112633 0.928176
0.029843 -0.112443 0.926611
0.031353 -0.112241 0.924949
0.032866 -0.112069 0.923528
0.034354 -0.111831 0.921568
0.035854 -0.111648 0.920064
0.037357 -0.111492 0.918777
0.038861 -0.111353 0.917628
0.040351 -0.111182 0.916218
0.041845 -0.111036 0.915020
0.043317 -0.110845 0.913447
0.044790 -0.110668 0.911987
0.046268 -0.110517 0.910743
0.047772 -0.110435 0.910066
0.049276 -0.110358 0.909430
0.050783 -0.110291 0.908880
0.052286 -0.110221 0.908303
0.053796 -0.110169 0.907875
0.055302 -0.110112 0.907401
0.056814 -0.110069 0.907047
0.058330 -0.110035 0.906772
0.059861 -0.110032 0.906741
0.061362 -0.109975 0.906279
0.062844 -0.109887 0.905553
0.064300 -0.109759 0.904497
0.065787 -0.109689 0.903922
0.067232 -0.109554 0.902810
0.068732 -0.109511 0.902455
0.070238 -0.109481 0.902208
0.071769 -0.109490 0.902280
0.073272 -0.109457 0.902007
0.074809 -0.109474 0.902150
0.076358 -0.109508 0.902430
0.077926 -0.109569 0.902926
0.079514 -0.109653 0.903624
0.081110 -0.109745 0.904384
0.082707 -0.109836 0.905128
0.084274 -0.109884 0.905527
0.085833 -0.109920 0.905824
0.087381 -0.109942 0.906001
0.088921 -0.109951 0.906081
0.090471 -0.109974 0.906269
0.092024 -0.109999 0.906473
0.093587 -0.110035 0.906765
0.095168 -0.110090 0.907226
0.096752 -0.110148 0.907699
0.098331 -0.110198 0.908111
0.099920 -0.110256 0.908594
0.101508 -0.110313 0.909061
0.103077 -0.110348 0.909348
0.104646 -0.110381 0.909625
0.106227 -0.110426 0.909990
0.107768 -0.110429 0.910013
0.109306 -0.110429 0.910014
0.110831 -0.110415 0.909903
0.112356 -0.110402 0.909791
0.113860 -0.110369 0.909523
0.115409 -0.110380 0.909609
0.116948 -0.110381 0.909623
0.118464 -0.110361 0.909453
0.119953 -0.110316 0.909083
0.121423 -0.110255 0.908586
0.122843 -0.110152 0.907731
0.124236 -0.110026 0.906697
0.125673 -0.109942 0.906003
0.127121 -0.109870 0.905413
0.128562 -0.109794 0.904779
0.130060 -0.109766 0.904557
0.131658 -0.109824 0.905032
0.133268 -0.109890 0.905575
0.134932 -0.109999 0.906469
0.136693 -0.110183 0.907990
0.138590 -0.110471 0.910366
0.140550 -0.110804 0.913103
0.142509 -0.111128 0.915773
0.144610 -0.111554 0.919284
0.146640 -0.111917 0.922277
0.009690 -0.113343 0.947261
0.011286 -0.113292 0.946836
0.012875 -0.113187 0.945955
0.014453 -0.113021 0.944574
0.016017 -0.112793 0.942670
0.017570 -0.112534 0.940498
0.019115 -0.112268 0.938276
0.020657 -0.112027 0.936261
0.022198 -0.111817 0.934510
0.023732 -0.111600 0.932695
0.025255 -0.111363 0.930714
0.026787 -0.111191 0.929280
0.028312 -0.111011 0.927773
0.029824 -0.110802 0.926027
0.031330 -0.110590 0.924257
0.032841 -0.110417 0.922810
0.034328 -0.110183 0.920852
0.035827 -0.110006 0.919371
0.037333 -0.109865 0.918192
0.038841 -0.109738 0.917138
0.040329 -0.109570 0.915731
0.041822 -0.109427 0.914532
0.043294 -0.109239 0.912963
0.044766 -0.109065 0.911508
0.046248 -0.108927 0.910356
0.047757 -0.108858 0.909778
0.049266 -0.108794 0.909241
0.050778 -0.108739 0.908785
0.052286 -0.108681 0.908296
0.053796 -0.108630 0.907875
0.055308 -0.108584 0.907485
0.056825 -0.108552 0.907222
0.058348 -0.108531 0.907050
0.059880 -0.108529 0.907031
0.061388 -0.108485 0.906658
0.062876 -0.108407 0.906010
0.064340 -0.108294 0.905062
0.065831 -0.108229 0.904522
0.067291 -0.108118 0.903592
0.068805 -0.108097 0.903415
0.070320 -0.108078 0.903258
0.071863 -0.108101 0.903457
0.073375 -0.108079 0.903269
0.074921 -0.108107 0.903505
0.076464 -0.108129 0.903685
0.078027 -0.108178 0.904097
0.079608 -0.108249 0.904688
0.081197 -0.108328 0.905351
0.082779 -0.108396 0.905918
0.084338 -0.108431 0.906214
0.085888 -0.108454 0.906407
0.087429 -0.108465 0.906497
0.088970 -0.108476 0.906583
0.090512 -0.108486 0.906672
0.092055 -0.108498 0.906772
0.093607 -0.108520 0.906956
0.095187 -0.108574 0.907408
0.096773 -0.108632 0.907891
0.098363 -0.108693 0.908403
0.099952 -0.108752 0.908893
0.101540 -0.108806 0.909347
0.103098 -0.108829 0.909533
0.104657 -0.108851 0.909721
0.106230 -0.108886 0.910016
0.107771 -0.108889 0.910037
0.109310 -0.108889 0.910041
0.110833 -0.108874 0.909914
0.112346 -0.108850 0.909709
0.113827 -0.108795 0.909256
0.115339 -0.108772 0.909061
0.116851 -0.108749 0.908865
0.118340 -0.108705 0.908502
0.119803 -0.108639 0.907948
0.121258 -0.108567 0.907349
0.122674 -0.108464 0.906484
0.124050 -0.108327 0.905340
0.125472 -0.108233 0.904555
0.126918 -0.108162 0.903963
0.128357 -0.108087 0.903338
0.129779 -0.107999 0.902602
0.131304 -0.107999 0.902598
0.132836 -0.108004 0.902638
0.134407 -0.108040 0.902943
0.136108 -0.108179 0.904100
0.137992 -0.108458 0.906437
0.139922 -0.108767 0.909018
0.141843 -0.109063 0.911493
0.144055 -0.109573 0.915756
0.146195 -0.110018 0.919478
0.009690 -0.111739 0.947278
0.011285 -0.111673 0.946715
0.012873 -0.111569 0.945836
0.014450 -0.111396 0.944367
0.016014 -0.111173 0.942479
0.017570 -0.110940 0.940503
0.019119 -0.110700 0.938473
0.020661 -0.110464 0.936464
0.022199 -0.110236 0.934532
0.023732 -0.110019 0.932696
0.025252 -0.109774 0.930621
0.026776 -0.109573 0.928919
0.028298 -0.109385 0.927321
0.029812 -0.109187 0.925644
0.031313 -0.108966 0.923773
0.032820 -0.108786 0.922240
0.034313 -0.108575 0.920457
0.035815 -0.108413 0.919078
0.037325 -0.108286 0.918005
0.038833 -0.108163 0.916965
0.040321 -0.107997 0.915553
0.041814 -0.107854 0.914342
0.043285 -0.107669 0.912771
0.044756 -0.107497 0.911316
0.046244 -0.107373 0.910263
0.047757 -0.107315 0.909770
0.049270 -0.107260 0.909309
0.050787 -0.107218 0.908950
0.052300 -0.107171 0.908549
0.053817 -0.107133 0.908230
0.055335 -0.107098 0.907934
0.056848 -0.107058 0.907593
0.058372 -0.107038 0.907423
0.059899 -0.107025 0.907317
0.061407 -0.106982 0.906945
0.062902 -0.106916 0.906392
0.064387 -0.106838 0.905725
0.065888 -0.106788 0.905303
0.067363 -0.106701 0.904564
0.068890 -0.106698 0.904541
0.070414 -0.106689 0.904464
0.071960 -0.106714 0.904681
0.073484 -0.106707 0.904615
0.075042 -0.106747 0.904954
0.076578 -0.106756 0.905034
0.078134 -0.106792 0.905334
0.079700 -0.106839 0.905737
0.081274 -0.106895 0.906214
0.082839 -0.106939 0.906581
0.084390 -0.106961 0.906772
0.085932 -0.106973 0.906872
0.087474 -0.106983 0.906956
0.089015 -0.106992 0.907038
0.090549 -0.106993 0.907041
0.092083 -0.106994 0.907047
0.093625 -0.107003 0.907131
0.095205 -0.107056 0.907576
0.096791 -0.107114 0.908067
0.098383 -0.107175 0.908587
0.099973 -0.107233 0.909078
0.101559 -0.107286 0.909523
0.103107 -0.107296 0.909615
0.104657 -0.107309 0.909719
0.106219 -0.107333 0.909923
0.107761 -0.107336 0.909954
0.109299 -0.107336 0.909949
0.110822 -0.107321 0.909826
0.112324 -0.107287 0.909533
0.113802 -0.107231 0.909061
0.115300 -0.107195 0.908755
0.116785 -0.107147 0.908352
0.118248 -0.107082 0.907794
0.119695 -0.107004 0.907135
0.121126 -0.106913 0.906364
0.122515 -0.106788 0.905306
0.123877 -0.106643 0.904075
0.125282 -0.106538 0.903187
0.126715 -0.106459 0.902516
0.128153 -0.106387 0.901903
0.129576 -0.106303 0.901196
0.131051 -0.106264 0.900862
0.132554 -0.106247 0.900721
0.134069 -0.106241 0.900671
0.135709 -0.106333 0.901451
0.137486 -0.106529 0.903111
0.139347 -0.106786 0.905286
0.141183 -0.107017 0.907250
0.143462 -0.107576 0.911987
0.145709 -0.108099 0.916420
0.148189 -0.110346 0.922215
0.147867 -0.108546 0.920209
0.150082 -0.110592 0.924268
0.149909 -0.108899 0.923203
0.009691 -0.110141 0.947343
0.011285 -0.110070 0.946735
0.012876 -0.109986 0.946010
0.014456 -0.109842 0.944773
0.016023 -0.109637 0.943007
0.017583 -0.109421 0.941150
0.019134 -0.109195 0.939207
0.020677 -0.108959 0.937175
0.022211 -0.108712 0.935055
0.023742 -0.108486 0.933111
0.025260 -0.108231 0.930920
0.026782 -0.108020 0.929098
0.028298 -0.107812 0.927311
0.029811 -0.107617 0.925631
0.031313 -0.107399 0.923763
0.032820 -0.107222 0.922233
0.034316 -0.107026 0.920550
0.035823 -0.106877 0.919274
0.037334 -0.106755 0.918216
0.038846 -0.106644 0.917262
0.040338 -0.106488 0.915927
0.041830 -0.106347 0.914710
0.043302 -0.106164 0.913141
0.044775 -0.105996 0.911694
0.046258 -0.105862 0.910543
0.047766 -0.105794 0.909955
0.049275 -0.105731 0.909411
0.050788 -0.105679 0.908967
0.052302 -0.105634 0.908582
0.053819 -0.105597 0.908264
0.055343 -0.105574 0.908063
0.056857 -0.105535 0.907728
0.058386 -0.105525 0.907644
0.059912 -0.105511 0.907521
0.061427 -0.105477 0.907226
0.062928 -0.105423 0.906765
0.064434 -0.105379 0.906389
0.065945 -0.105344 0.906086
0.067435 -0.105279 0.905524
0.068969 -0.105285 0.905573
0.070495 -0.105276 0.905501
0.072043 -0.105302 0.905721
0.073570 -0.105296 0.905674
0.075129 -0.105336 0.906011
0.076660 -0.105335 0.906005
0.078209 -0.105358 0.906202
0.079759 -0.105381 0.906404
0.081324 -0.105424 0.906772
0.082874 -0.105445 0.906956
0.084416 -0.105456 0.907047
0.085957 -0.105466 0.907131
0.087490 -0.105466 0.907131
0.089024 -0.105466 0.907131
0.090558 -0.105466 0.907131
0.092091 -0.105466 0.907131
0.093633 -0.105476 0.907216
0.095214 -0.105528 0.907667
0.096801 -0.105585 0.908161
0.098393 -0.105646 0.908678
0.099982 -0.105702 0.909162
0.101559 -0.105744 0.909523
0.103107 -0.105754 0.909608
0.104656 -0.105765 0.909706
0.106216 -0.105787 0.909895
0.107756 -0.105789 0.909914
0.109294 -0.105789 0.909911
0.110820 -0.105777 0.909808
0.112311 -0.105733 0.909430
0.113778 -0.105667 0.908864
0.115261 -0.105618 0.908442
0.116722 -0.105551 0.907860
0.118160 -0.105464 0.907118
0.119604 -0.105385 0.906439
0.121021 -0.105285 0.905580
0.122397 -0.105152 0.904433
0.123757 -0.105009 0.903200
0.125159 -0.104904 0.902301
0.126580 -0.104817 0.901555
0.128028 -0.104755 0.901021
0.129476 -0.104694 0.900498
0.130966 -0.104669 0.900275
0.132469 -0.104653 0.900144
0.134006 -0.104666 0.900251
0.135603 -0.104724 0.900749
0.137243 -0.104813 0.901517
0.138963 -0.104961 0.902788
0.140663 -0.105091 0.903904
0.142777 -0.105524 0.907634
0.145089 -0.106092 0.912520
0.147400 -0.106649 0.917306
0.149607 -0.107119 0.921348
0.009694 -0.108569 0.947643
0.011288 -0.108499 0.947025
0.012881 -0.108427 0.946403
0.014465 -0.108307 0.945353
0.016039 -0.108147 0.943956
0.017602 -0.107946 0.942205
0.019156 -0.107724 0.940262
0.020700 -0.107490 0.938221
0.022233 -0.107234 0.935984
0.023759 -0.106977 0.933744
0.025274 -0.106710 0.931410
0.026793 -0.106488 0.929475
0.028306 -0.106270 0.927577
0.029820 -0.106078 0.925900
0.031326 -0.105877 0.924140
0.032834 -0.105703 0.922625
0.034335 -0.105522 0.921041
0.035842 -0.105376 0.919772
0.037354 -0.105256 0.918721
0.038867 -0.105146 0.917766
0.040363 -0.105002 0.916508
0.041857 -0.104864 0.915300
0.043331 -0.104685 0.913736
0.044804 -0.104519 0.912288
0.046283 -0.104376 0.911038
0.047782 -0.104286 0.910259
0.049286 -0.104212 0.909613
0.050794 -0.104151 0.909074
0.052304 -0.104097 0.908609
0.053821 -0.104061 0.908296
0.055345 -0.104039 0.908101
0.056859 -0.104000 0.907760
0.058387 -0.103989 0.907664
0.059913 -0.103974 0.907533
0.061433 -0.103950 0.907323
0.062941 -0.103908 0.906956
0.064462 -0.103887 0.906772
0.065981 -0.103865 0.906581
0.067486 -0.103823 0.906214
0.069016 -0.103820 0.906186
0.070547 -0.103819 0.906179
0.072096 -0.103843 0.906386
0.073631 -0.103847 0.906421
0.075185 -0.103876 0.906681
0.076724 -0.103885 0.906757
0.078264 -0.103895 0.906847
0.079799 -0.103898 0.906866
0.081349 -0.103918 0.907047
0.082890 -0.103928 0.907131
0.084423 -0.103928 0.907131
0.085957 -0.103928 0.907131
0.087490 -0.103928 0.907131
0.089024 -0.103928 0.907131
0.090558 -0.103928 0.907131
0.092091 -0.103928 0.907131
0.093643 -0.103948 0.907307
0.095225 -0.104001 0.907768
0.096813 -0.104058 0.908267
0.098404 -0.104117 0.908779
0.099992 -0.104171 0.909253
0.101559 -0.104202 0.909523
0.103097 -0.104202 0.909523
0.104644 -0.104212 0.909608
0.106193 -0.104222 0.909700
0.107732 -0.104223 0.909709
0.109270 -0.104223 0.909709
0.110807 -0.104222 0.909700
0.112289 -0.104170 0.909247
0.113754 -0.104105 0.908678
0.115225 -0.104046 0.908161
0.116663 -0.103959 0.907402
0.118088 -0.103863 0.906566
0.119532 -0.103786 0.905896
0.120947 -0.103687 0.905028
0.122324 -0.103557 0.903897
0.123706 -0.103435 0.902828
0.125109 -0.103333 0.901937
0.126540 -0.103256 0.901269
0.127988 -0.103196 0.900740
0.129447 -0.103145 0.900296
0.130938 -0.103120 0.900081
0.132441 -0.103106 0.899953
0.133951 -0.103097 0.899881
0.135518 -0.103132 0.900183
0.137112 -0.103186 0.900656
0.138692 -0.103229 0.901028
0.140246 -0.103252 0.901227
0.142201 -0.103566 0.903969
0.144579 -0.104178 0.909315
0.146985 -0.104798 0.914721
0.149399 -0.105410 0.920065
0.011294 -0.106947 0.947503
0.012891 -0.106902 0.947107
0.014480 -0.106812 0.946308
0.016061 -0.106689 0.945215
0.017628 -0.106503 0.943567
0.019183 -0.106282 0.941610
0.020725 -0.106028 0.939361
0.022253 -0.105742 0.936826
0.023775 -0.105466 0.934377
0.025288 -0.105189 0.931925
0.026804 -0.104958 0.929881
0.028318 -0.104744 0.927981
0.029839 -0.104576 0.926495
0.031349 -0.104388 0.924834
0.032859 -0.104220 0.923339
0.034361 -0.104041 0.921756
0.035869 -0.103895 0.920465
0.037379 -0.103765 0.919313
0.038888 -0.103648 0.918270
0.040390 -0.103516 0.917108
0.041894 -0.103402 0.916094
0.043373 -0.103238 0.914638
0.044849 -0.103075 0.913195
0.046332 -0.102940 0.912004
0.047822 -0.102828 0.911014
0.049316 -0.102733 0.910167
0.050819 -0.102660 0.909522
0.052324 -0.102596 0.908956
0.053836 -0.102550 0.908543
0.055364 -0.102536 0.908421
0.056874 -0.102488 0.907997
0.058398 -0.102469 0.907829
0.059924 -0.102454 0.907696
0.061444 -0.102430 0.907485
0.062954 -0.102390 0.907131
0.064481 -0.102381 0.907047
0.066008 -0.102371 0.906956
0.067528 -0.102350 0.906772
0.069059 -0.102348 0.906756
0.070592 -0.102348 0.906757
0.072133 -0.102359 0.906856
0.073667 -0.102361 0.906872
0.075214 -0.102380 0.907041
0.076748 -0.102380 0.907038
0.078281 -0.102380 0.907041
0.079815 -0.102381 0.907047
0.081356 -0.102390 0.907131
0.082890 -0.102390 0.907131
0.084423 -0.102390 0.907131
0.085957 -0.102390 0.907131
0.087490 -0.102390 0.907131
0.089024 -0.102390 0.907131
0.090558 -0.102390 0.907131
0.092091 -0.102390 0.907131
0.093644 -0.102411 0.907316
0.095227 -0.102464 0.907784
0.096816 -0.102521 0.908293
0.098405 -0.102578 0.908795
0.099993 -0.102631 0.909263
0.101559 -0.102660 0.909523
0.103097 -0.102660 0.909523
0.104635 -0.102660 0.909523
0.106172 -0.102660 0.909523
0.107710 -0.102660 0.909523
0.109247 -0.102660 0.909523
0.110775 -0.102651 0.909438
0.112256 -0.102600 0.908987
0.113731 -0.102544 0.908494
0.115201 -0.102486 0.907976
0.116629 -0.102391 0.907140
0.118053 -0.102297 0.906301
0.119507 -0.102229 0.905704
0.120912 -0.102123 0.904764
0.122291 -0.101997 0.903651
0.123698 -0.101898 0.902766
0.125115 -0.101809 0.901985
0.126547 -0.101734 0.901321
0.128007 -0.101684 0.900870
0.129464 -0.101632 0.900416
0.130943 -0.101598 0.900114
0.132434 -0.101575 0.899908
0.133930 -0.101556 0.899737
0.135479 -0.101577 0.899925
0.137056 -0.101618 0.900286
0.138607 -0.101639 0.900477
0.140143 -0.101649 0.900567
0.141944 -0.101849 0.902334
0.144357 -0.102479 0.907919
0.146823 -0.103133 0.913712
0.149352 -0.103817 0.919774
0.012901 -0.105384 0.947893
0.014492 -0.105300 0.947137
0.016078 -0.105203 0.946260
0.017651 -0.105043 0.944824
0.019207 -0.104815 0.942769
0.020746 -0.104541 0.940303
0.022270 -0.104234 0.937543
0.023787 -0.103937 0.934879
0.025301 -0.103664 0.932423
0.026819 -0.103440 0.930400
0.028338 -0.103241 0.928619
0.029865 -0.103097 0.927315
0.031380 -0.102923 0.925755
0.032892 -0.102757 0.924257
0.034398 -0.102589 0.922746
0.035904 -0.102434 0.921354
0.037410 -0.102293 0.920084
0.038917 -0.102165 0.918937
0.040420 -0.102037 0.917787
0.041926 -0.101927 0.916791
0.043412 -0.101778 0.915454
0.044893 -0.101627 0.914096
0.046378 -0.101494 0.912900
0.047863 -0.101372 0.911804
0.049348 -0.101255 0.910748
0.050845 -0.101169 0.909982
0.052344 -0.101095 0.909308
0.053856 -0.101048 0.908888
0.055380 -0.101025 0.908682
0.056890 -0.100977 0.908252
0.058408 -0.100947 0.907984
0.059929 -0.100924 0.907776
0.061444 -0.100892 0.907483
0.062954 -0.100853 0.907131
0.064487 -0.100853 0.907131
0.066015 -0.100843 0.907047
0.067541 -0.100833 0.906956
0.069074 -0.100832 0.906947
0.070607 -0.100832 0.906947
0.072141 -0.100833 0.906956
0.073682 -0.100843 0.907047
0.075222 -0.100853 0.907131
0.076756 -0.100853 0.907131
0.078289 -0.100853 0.907131
0.079823 -0.100853 0.907131
0.081356 -0.100853 0.907131
0.082890 -0.100853 0.907131
0.084423 -0.100853 0.907131
0.085957 -0.100853 0.907131
0.087490 -0.100853 0.907131
0.089024 -0.100853 0.907131
0.090558 -0.100853 0.907131
0.092091 -0.100853 0.907131
0.093644 -0.100873 0.907316
0.095227 -0.100925 0.907784
0.096816 -0.100982 0.908293
0.098405 -0.101037 0.908795
0.099993 -0.101090 0.909263
0.101559 -0.101118 0.909523
0.103097 -0.101118 0.909523
0.104635 -0.101118 0.909523
0.106172 -0.101118 0.909523
0.107710 -0.101118 0.909523
0.109237 -0.101109 0.909438
0.110752 -0.101089 0.909256
0.112232 -0.101037 0.908792
0.113707 -0.100982 0.908296
0.115167 -0.100916 0.907706
0.116605 -0.100833 0.906951
0.118040 -0.100749 0.906198
0.119493 -0.100682 0.905602
0.120889 -0.100570 0.904587
0.122279 -0.100456 0.903561
0.123687 -0.100359 0.902692
0.125120 -0.100284 0.902015
0.126568 -0.100223 0.901470
0.128041 -0.100184 0.901115
0.129511 -0.100142 0.900738
0.130987 -0.100106 0.900416
0.132464 -0.100072 0.900114
0.133959 -0.100052 0.899932
0.135509 -0.100073 0.900120
0.137073 -0.100104 0.900401
0.138611 -0.100116 0.900505
0.140131 -0.100114 0.900490
0.141959 -0.100330 0.902432
0.144414 -0.100980 0.908276
0.146946 -0.101670 0.914482
0.149559 -0.102400 0.921051
0.012905 -0.103805 0.948143
0.014499 -0.103746 0.947608
0.016090 -0.103673 0.946938
0.017665 -0.103525 0.945586
0.019222 -0.103298 0.943513
0.020762 -0.103024 0.941009
0.022288 -0.102728 0.938309
0.023804 -0.102425 0.935537
0.025322 -0.102168 0.933194
0.026845 -0.101960 0.931291
0.028368 -0.101776 0.929615
0.029895 -0.101626 0.928242
0.031417 -0.101473 0.926847
0.032931 -0.101311 0.925359
0.034436 -0.101135 0.923759
0.035939 -0.100970 0.922246
0.037441 -0.100818 0.920859
0.038941 -0.100670 0.919513
0.040445 -0.100543 0.918353
0.041956 -0.100445 0.917452
0.043449 -0.100310 0.916222
0.044936 -0.100174 0.914976
0.046423 -0.100044 0.913792
0.047905 -0.099913 0.912597
0.049380 -0.099777 0.911354
0.050867 -0.099671 0.910389
0.052357 -0.099577 0.909525
0.053865 -0.099522 0.909025
0.055383 -0.099490 0.908727
0.056893 -0.099443 0.908303
0.058410 -0.099412 0.908020
0.059930 -0.099387 0.907790
0.061444 -0.099354 0.907485
0.062954 -0.099315 0.907131
0.064481 -0.099306 0.907047
0.066001 -0.099286 0.906866
0.067533 -0.099284 0.906847
0.069066 -0.099283 0.906842
0.070593 -0.099275 0.906772
0.072127 -0.099277 0.906782
0.073667 -0.099285 0.906863
0.075192 -0.099276 0.906772
0.076718 -0.099266 0.906688
0.078258 -0.099276 0.906772
0.079799 -0.099285 0.906863
0.081340 -0.099296 0.906956
0.082882 -0.099306 0.907047
0.084423 -0.099315 0.907131
0.085957 -0.099315 0.907131
0.087490 -0.099315 0.907131
0.089024 -0.099315 0.907131
0.090558 -0.099315 0.907131
0.092091 -0.099315 0.907131
0.093652 -0.099343 0.907391
0.095235 -0.099395 0.907859
0.096823 -0.099449 0.908361
0.098414 -0.099505 0.908871
0.100002 -0.099556 0.909338
0.101559 -0.099577 0.909523
0.103097 -0.099577 0.909523
0.104635 -0.099577 0.909523
0.106162 -0.099567 0.909438
0.107689 -0.099557 0.909347
0.109204 -0.099537 0.909162
0.110706 -0.099506 0.908876
0.112184 -0.099454 0.908404
0.113658 -0.099400 0.907906
0.115119 -0.099336 0.907327
0.116557 -0.099254 0.906580
0.118002 -0.099181 0.905911
0.119445 -0.099107 0.905233
0.120839 -0.098996 0.904216
0.122239 -0.098892 0.903266
0.123658 -0.098805 0.902478
0.125104 -0.098742 0.901903
0.126581 -0.098705 0.901560
0.128069 -0.098678 0.901312
0.129552 -0.098646 0.901025
0.131039 -0.098619 0.900778
0.132516 -0.098585 0.900468
0.134012 -0.098566 0.900292
0.135577 -0.098597 0.900576
0.137145 -0.098630 0.900875
0.138687 -0.098643 0.900995
0.140328 -0.098726 0.901753
0.142179 -0.098954 0.903833
0.144679 -0.099623 0.909943
0.147251 -0.100327 0.916375
0.149887 -0.101060 0.923067
0.014502 -0.102161 0.947803
0.016094 -0.102091 0.947155
0.017671 -0.101955 0.945896
0.019230 -0.101744 0.943930
0.020773 -0.101482 0.941504
0.022302 -0.101200 0.938888
0.023824 -0.100923 0.936316
0.025347 -0.100683 0.934095
0.026871 -0.100480 0.932205
0.028399 -0.100309 0.930620
0.029924 -0.100149 0.929133
0.031445 -0.099989 0.927655
0.032963 -0.099838 0.926250
0.034470 -0.099667 0.924663
0.035971 -0.099495 0.923069
0.037474 -0.099343 0.921659
0.038966 -0.099174 0.920096
0.040461 -0.099028 0.918734
0.041973 -0.098930 0.917823
0.043470 -0.098807 0.916684
0.044964 -0.098685 0.915551
0.046458 -0.098569 0.914474
0.047942 -0.098442 0.913296
0.049417 -0.098305 0.912030
0.050900 -0.098191 0.910974
0.052385 -0.098088 0.910013
0.053894 -0.098034 0.909515
0.055408 -0.097994 0.909141
0.056918 -0.097946 0.908701
0.058429 -0.097905 0.908318
0.059943 -0.097869 0.907985
0.061451 -0.097826 0.907583
0.062959 -0.097786 0.907216
0.064475 -0.097758 0.906956
0.065987 -0.097728 0.906672
0.067517 -0.097724 0.906635
0.069049 -0.097722 0.906621
0.070571 -0.097708 0.906485
0.072104 -0.097709 0.906497
0.073643 -0.097716 0.906566
0.075159 -0.097696 0.906375
0.076677 -0.097677 0.906200
0.078217 -0.097687 0.906291
0.079758 -0.097697 0.906392
0.081299 -0.097709 0.906497
0.082841 -0.097720 0.906598
0.084390 -0.097738 0.906772
0.085932 -0.097748 0.906863
0.087474 -0.097758 0.906956
0.089016 -0.097768 0.907047
0.090558 -0.097777 0.907131
0.092091 -0.097777 0.907131
0.093652 -0.097805 0.907391
0.095235 -0.097856 0.907859
0.096823 -0.097910 0.908361
0.098414 -0.097965 0.908871
0.100002 -0.098015 0.909338
0.101559 -0.098035 0.909523
0.103097 -0.098035 0.909523
0.104635 -0.098035 0.909523
0.106152 -0.098016 0.909347
0.107666 -0.097995 0.909155
0.109168 -0.097964 0.908861
0.110657 -0.097922 0.908472
0.112123 -0.097861 0.907906
0.113597 -0.097808 0.907421
0.115058 -0.097746 0.906846
0.116496 -0.097666 0.906103
0.117940 -0.097594 0.905433
0.119382 -0.097522 0.904761
0.120776 -0.097412 0.903742
0.122173 -0.097308 0.902776
0.123600 -0.097230 0.902057
0.125070 -0.097187 0.901655
0.126573 -0.097171 0.901510
0.128092 -0.097167 0.901470
0.129602 -0.097156 0.901371
0.131103 -0.097140 0.901216
0.132582 -0.097107 0.900913
0.134080 -0.097089 0.900749
0.135648 -0.097121 0.901048
0.137214 -0.097152 0.901328
0.138756 -0.097164 0.901447
0.140581 -0.097373 0.903384
0.142656 -0.097748 0.906861
0.145245 -0.098464 0.913502
0.147794 -0.099138 0.919754
0.150398 -0.099834 0.926217
0.152399 -0.101695 0.928867
0.152677 -0.100303 0.930562
0.014503 -0.100555 0.947813
0.016093 -0.100481 0.947114
0.017672 -0.100356 0.945929
0.019234 -0.100161 0.944096
0.020779 -0.099917 0.941799
0.022312 -0.099655 0.939322
0.023843 -0.099415 0.937066
0.025370 -0.099193 0.934971
0.026896 -0.098990 0.933054
0.028423 -0.098817 0.931429
0.029946 -0.098646 0.929811
0.031464 -0.098478 0.928236
0.032987 -0.098340 0.926934
0.034496 -0.098175 0.925376
0.035999 -0.098006 0.923781
0.037499 -0.097846 0.922270
0.038987 -0.097668 0.920598
0.040474 -0.097502 0.919030
0.041986 -0.097403 0.918101
0.043488 -0.097291 0.917048
0.044988 -0.097182 0.916020
0.046486 -0.097079 0.915042
0.047977 -0.096964 0.913959
0.049453 -0.096829 0.912692
0.050936 -0.096716 0.911627
0.052422 -0.096614 0.910666
0.053927 -0.096552 0.910082
0.055442 -0.096512 0.909697
0.056952 -0.096464 0.909247
0.058454 -0.096405 0.908695
0.059962 -0.096360 0.908267
0.061463 -0.096307 0.907768
0.062960 -0.096249 0.907223
0.064462 -0.096201 0.906772
0.065966 -0.096160 0.906382
0.067488 -0.096145 0.906240
0.069013 -0.096135 0.906151
0.070534 -0.096121 0.906014
0.072067 -0.096122 0.906024
0.073602 -0.096127 0.906073
0.075117 -0.096105 0.905866
0.076633 -0.096086 0.905683
0.078172 -0.096096 0.905776
0.079713 -0.096107 0.905882
0.081255 -0.096120 0.906001
0.082796 -0.096131 0.906107
0.084345 -0.096150 0.906291
0.085887 -0.096161 0.906392
0.087437 -0.096181 0.906581
0.088989 -0.096201 0.906772
0.090540 -0.096221 0.906956
0.092083 -0.096230 0.907047
0.093644 -0.096259 0.907316
0.095227 -0.096309 0.907784
0.096816 -0.096363 0.908293
0.098405 -0.096416 0.908795
0.099993 -0.096465 0.909263
0.101559 -0.096493 0.909523
0.103097 -0.096493 0.909523
0.104625 -0.096484 0.909438
0.106130 -0.096455 0.909162
0.107631 -0.096423 0.908861
0.109119 -0.096380 0.908452
0.110596 -0.096329 0.907975
0.112063 -0.096270 0.907418
0.113537 -0.096219 0.906939
0.114997 -0.096158 0.906361
0.116432 -0.096078 0.905607
0.117876 -0.096007 0.904940
0.119318 -0.095936 0.904272
0.120722 -0.095837 0.903340
0.122130 -0.095744 0.902464
0.123570 -0.095678 0.901838
0.125053 -0.095646 0.901533
0.126569 -0.095640 0.901481
0.128102 -0.095647 0.901544
0.129628 -0.095648 0.901554
0.131146 -0.095643 0.901510
0.132640 -0.095622 0.901308
0.134153 -0.095614 0.901237
0.135735 -0.095655 0.901622
0.137300 -0.095684 0.901892
0.138841 -0.095695 0.901997
0.140742 -0.095951 0.904412
0.143150 -0.096544 0.910005
0.145897 -0.097351 0.917606
0.148349 -0.097945 0.923211
0.150806 -0.098531 0.928730
0.152847 -0.098835 0.931599
0.154753 -0.100630 0.933595
0.156022 -0.099859 0.941251
0.157825 -0.101591 0.942516
0.157803 -0.099980 0.942389
0.014503 -0.098950 0.947823
0.016092 -0.098873 0.947091
