1704
0.109201 -0.124193 0.909140
0.110506 -0.123932 0.907233
0.111815 -0.123683 0.905410
0.113120 -0.123438 0.903611
0.114466 -0.123242 0.902179
0.115845 -0.123086 0.901041
0.117293 -0.123008 0.900468
0.118711 -0.122900 0.899676
0.120169 -0.122835 0.899202
0.121620 -0.122766 0.898695
0.123085 -0.122711 0.898295
0.124554 -0.122663 0.897941
0.126062 -0.122653 0.897868
0.127580 -0.122653 0.897868
0.129109 -0.122663 0.897941
0.130614 -0.122652 0.897859
0.132133 -0.122652 0.897861
0.133664 -0.122664 0.897948
0.135182 -0.122664 0.897951
0.136687 -0.122653 0.897869
0.138204 -0.122652 0.897860
0.139708 -0.122640 0.897771
0.141200 -0.122617 0.897606
0.144291 -0.125508 0.907506
-0.020165 -0.124273 0.921155
-0.018609 -0.124282 0.921222
-0.017048 -0.124255 0.921024
-0.015480 -0.124162 0.920337
-0.013913 -0.124069 0.919646
-0.012348 -0.123963 0.918862
-0.010782 -0.123820 0.917800
-0.009220 -0.123672 0.916704
-0.007660 -0.123512 0.915519
-0.006106 -0.123379 0.914528
-0.004553 -0.123214 0.913308
-0.003006 -0.123094 0.912418
-0.001463 -0.122974 0.911530
0.000078 -0.122855 0.910650
0.001616 -0.122693 0.909446
0.003150 -0.122573 0.908560
0.004682 -0.122454 0.907672
0.006211 -0.122352 0.906916
0.007741 -0.122303 0.906555
0.009278 -0.122366 0.907019
0.010824 -0.122507 0.908067
0.012379 -0.122706 0.909542
0.013942 -0.122931 0.911212
0.015509 -0.123140 0.912758
0.017072 -0.123280 0.913797
0.018624 -0.123331 0.914178
0.020170 -0.123330 0.914168
0.021708 -0.123290 0.913869
0.023234 -0.123189 0.913122
0.024756 -0.123082 0.912332
0.026273 -0.122963 0.911445
0.027789 -0.122855 0.910649
0.029302 -0.122742 0.909811
0.030815 -0.122641 0.909062
0.032327 -0.122550 0.908387
0.033831 -0.122433 0.907516
0.035317 -0.122268 0.906294
0.036795 -0.122086 0.904950
0.038282 -0.121951 0.903943
0.039749 -0.121763 0.902556
0.041228 -0.121626 0.901538
0.042716 -0.121523 0.900772
0.044210 -0.121444 0.900188
0.045690 -0.121334 0.899369
0.047189 -0.121279 0.898964
0.048684 -0.121215 0.898492
0.050182 -0.121165 0.898123
0.051685 -0.121130 0.897859
0.053198 -0.121118 0.897769
0.054710 -0.121107 0.897687
0.056212 -0.121072 0.897430
0.057699 -0.121010 0.896972
0.059183 -0.120943 0.896474
0.060660 -0.120866 0.895904
0.062119 -0.120758 0.895101
0.063586 -0.120671 0.894455
0.065062 -0.120603 0.893958
0.066531 -0.120528 0.893395
0.068014 -0.120478 0.893026
0.069516 -0.120465 0.892933
0.071040 -0.120489 0.893111
0.072558 -0.120504 0.893221
0.074084 -0.120530 0.893414
0.075601 -0.120540 0.893488
0.077155 -0.120608 0.893990
0.078731 -0.120707 0.894727
0.080331 -0.120839 0.895704
0.081943 -0.120984 0.896775
0.083554 -0.121120 0.897787
0.085157 -0.121241 0.898686
0.086748 -0.121342 0.899435
0.088381 -0.121497 0.900584
0.090048 -0.121693 0.902033
0.091739 -0.121914 0.903669
0.093499 -0.122217 0.905918
0.095280 -0.122538 0.908297
0.097046 -0.122829 0.910457
0.098787 -0.123080 0.912316
0.100503 -0.123293 0.913894
0.102132 -0.123394 0.914646
0.103691 -0.123411 0.914765
0.105207 -0.123374 0.914496
0.106621 -0.123222 0.913367
0.107979 -0.123010 0.911794
0.109275 -0.122734 0.909749
0.110543 -0.122436 0.907540
0.111820 -0.122155 0.905455
0.113124 -0.121910 0.903640
0.114468 -0.121714 0.902193
0.115845 -0.121559 0.901044
0.117293 -0.121482 0.900468
0.118700 -0.121364 0.899593
0.120157 -0.121299 0.899113
0.121608 -0.121230 0.898603
0.123061 -0.121165 0.898123
0.124519 -0.121107 0.897687
0.126037 -0.121107 0.897687
0.127554 -0.121107 0.897687
0.129072 -0.121107 0.897687
0.130589 -0.121107 0.897687
0.132107 -0.121107 0.897687
0.133612 -0.121095 0.897604
0.135103 -0.121071 0.897427
0.136591 -0.121046 0.897237
0.138078 -0.121020 0.897044
0.139567 -0.120995 0.896864
0.141069 -0.120983 0.896775
0.142660 -0.122568 0.897248
0.142543 -0.120948 0.896512
-0.020226 -0.123085 0.923958
-0.018648 -0.122975 0.923139
-0.017074 -0.122878 0.922410
-0.015498 -0.122748 0.921429
-0.013928 -0.122642 0.920636
-0.012360 -0.122525 0.919757
-0.010793 -0.122382 0.918687
-0.009229 -0.122239 0.917608
-0.007668 -0.122092 0.916505
-0.006112 -0.121948 0.915429
-0.004558 -0.121783 0.914186
-0.003009 -0.121664 0.913295
-0.001464 -0.121533 0.912308
0.000078 -0.121417 0.911439
0.001617 -0.121278 0.910398
0.003153 -0.121162 0.909529
0.004687 -0.121069 0.908824
0.006221 -0.121004 0.908338
0.007755 -0.120992 0.908251
0.009298 -0.121093 0.909005
0.010850 -0.121261 0.910268
0.012408 -0.121448 0.911671
0.013972 -0.121644 0.913144
0.015535 -0.121796 0.914288
0.017090 -0.121859 0.914762
0.018634 -0.121846 0.914658
0.020171 -0.121792 0.914252
0.021701 -0.121701 0.913570
0.023221 -0.121573 0.912611
0.024740 -0.121456 0.911732
0.026258 -0.121350 0.910934
0.027777 -0.121260 0.910258
0.029292 -0.121161 0.909522
0.030808 -0.121074 0.908864
0.032320 -0.120983 0.908183
0.033820 -0.120857 0.907235
0.035303 -0.120682 0.905926
0.036780 -0.120503 0.904580
0.038266 -0.120368 0.903568
0.039736 -0.120195 0.902266
0.041220 -0.120073 0.901353
0.042712 -0.119985 0.900692
0.044211 -0.119920 0.900207
0.045696 -0.119824 0.899485
0.047197 -0.119774 0.899105
0.048691 -0.119710 0.898627
0.050189 -0.119659 0.898243
0.051691 -0.119621 0.897958
0.053198 -0.119597 0.897776
0.054710 -0.119585 0.897687
0.056212 -0.119550 0.897427
0.057699 -0.119489 0.896967
0.059178 -0.119413 0.896394
0.060654 -0.119335 0.895811
0.062112 -0.119228 0.895009
0.063580 -0.119143 0.894372
0.065051 -0.119068 0.893808
0.066519 -0.118991 0.893228
0.067994 -0.118929 0.892764
0.069494 -0.118914 0.892653
0.071012 -0.118929 0.892761
0.072530 -0.118944 0.892873
0.074055 -0.118968 0.893057
0.075578 -0.118989 0.893215
0.077125 -0.119046 0.893644
0.078708 -0.119156 0.894468
0.080308 -0.119287 0.895448
0.081919 -0.119428 0.896508
0.083520 -0.119550 0.897425
0.085112 -0.119655 0.898215
0.086692 -0.119741 0.898859
0.088306 -0.119869 0.899820
0.089953 -0.120036 0.901071
0.091624 -0.120230 0.902530
0.093400 -0.120553 0.904955
0.095222 -0.120924 0.907743
0.097053 -0.121294 0.910519
0.098857 -0.121620 0.912963
0.100636 -0.121905 0.915105
0.102296 -0.122040 0.916116
0.103858 -0.122056 0.916240
0.105372 -0.122015 0.915932
0.106792 -0.121869 0.914834
0.108089 -0.121588 0.912727
0.109327 -0.121250 0.910188
0.110547 -0.120901 0.907570
0.111827 -0.120627 0.905513
0.113090 -0.120342 0.903368
0.114456 -0.120173 0.902104
0.115845 -0.120032 0.901041
0.117293 -0.119955 0.900468
0.118700 -0.119839 0.899593
0.120157 -0.119775 0.899113
0.121608 -0.119707 0.898603
0.123061 -0.119643 0.898123
0.124519 -0.119585 0.897687
0.126037 -0.119585 0.897687
0.127543 -0.119574 0.897604
0.129047 -0.119562 0.897515
0.130551 -0.119550 0.897424
0.132055 -0.119538 0.897335
0.133547 -0.119515 0.897164
0.135035 -0.119490 0.896974
0.136520 -0.119462 0.896767
0.138003 -0.119434 0.896551
0.139488 -0.119408 0.896359
0.140989 -0.119396 0.896267
0.142477 -0.119373 0.896096
-0.021859 -0.121914 0.926963
-0.020269 -0.121773 0.925895
-0.018677 -0.121601 0.924591
-0.017093 -0.121452 0.923452
-0.015512 -0.121296 0.922269
-0.013938 -0.121168 0.921292
-0.012368 -0.121040 0.920325
-0.010800 -0.120912 0.919345
-0.009237 -0.120793 0.918442
-0.007675 -0.120651 0.917363
-0.006118 -0.120523 0.916388
-0.004563 -0.120381 0.915313
-0.003013 -0.120276 0.914512
-0.001466 -0.120148 0.913539
0.000079 -0.120047 0.912768
0.001620 -0.119934 0.911913
0.003159 -0.119821 0.911053
0.004696 -0.119740 0.910439
0.006233 -0.119700 0.910132
0.007772 -0.119714 0.910240
0.009319 -0.119817 0.911025
0.010875 -0.119986 0.912305
0.012433 -0.120145 0.913518
0.013995 -0.120289 0.914614
0.015552 -0.120378 0.915288
0.017099 -0.120378 0.915286
0.018637 -0.120312 0.914787
0.020165 -0.120206 0.913983
0.021687 -0.120076 0.912995
0.023203 -0.119936 0.911931
0.024721 -0.119821 0.911056
0.026239 -0.119719 0.910281
0.027761 -0.119644 0.909710
0.029278 -0.119559 0.909063
0.030795 -0.119484 0.908494
0.032307 -0.119395 0.907810
0.033806 -0.119270 0.906865
0.035285 -0.119087 0.905472
0.036761 -0.118909 0.904120
0.038243 -0.118765 0.903024
0.039717 -0.118607 0.901822
0.041200 -0.118488 0.900916
0.042700 -0.118423 0.900426
0.044203 -0.118372 0.900038
0.045692 -0.118290 0.899415
0.047194 -0.118243 0.899052
0.048693 -0.118192 0.898668
0.050191 -0.118141 0.898278
0.051691 -0.118101 0.897972
0.053198 -0.118075 0.897778
0.054705 -0.118052 0.897604
0.056201 -0.118006 0.897253
0.057682 -0.117933 0.896700
0.059153 -0.117844 0.896023
0.060623 -0.117757 0.895358
0.062086 -0.117661 0.894632
0.063560 -0.117589 0.894083
0.065030 -0.117515 0.893520
0.066498 -0.117440 0.892952
0.067978 -0.117389 0.892560
0.069479 -0.117375 0.892457
0.070996 -0.117389 0.892563
0.072522 -0.117416 0.892769
0.074053 -0.117452 0.893039
0.075585 -0.117485 0.893294
0.077133 -0.117543 0.893736
0.078717 -0.117653 0.894571
0.080317 -0.117782 0.895546
0.081919 -0.117909 0.896513
0.083504 -0.118006 0.897253
0.085078 -0.118086 0.897859
0.086640 -0.118145 0.898311
0.088224 -0.118232 0.898974
0.089839 -0.118359 0.899933
0.091485 -0.118520 0.901157
0.093249 -0.118826 0.903488
0.095089 -0.119219 0.906472
0.096973 -0.119652 0.909765
0.098842 -0.120054 0.912826
0.100685 -0.120413 0.915556
0.102398 -0.120607 0.917031
0.103992 -0.120659 0.917422
0.105523 -0.120636 0.917248
0.106953 -0.120499 0.916211
0.108184 -0.120146 0.913527
0.109363 -0.119747 0.910488
0.110529 -0.119343 0.907420
0.111757 -0.119017 0.904940
0.113040 -0.118758 0.902971
0.114431 -0.118618 0.901903
0.115833 -0.118492 0.900945
0.117283 -0.118418 0.900385
0.118700 -0.118314 0.899593
0.120157 -0.118251 0.899113
0.121608 -0.118184 0.898603
0.123061 -0.118120 0.898123
0.124519 -0.118063 0.897687
0.126037 -0.118063 0.897687
0.127530 -0.118041 0.897515
0.129020 -0.118016 0.897328
0.130509 -0.117990 0.897133
0.131998 -0.117966 0.896946
0.133475 -0.117931 0.896683
0.134962 -0.117906 0.896491
0.136445 -0.117877 0.896275
0.137916 -0.117839 0.895986
0.139400 -0.117814 0.895790
0.140900 -0.117802 0.895698
0.142388 -0.117780 0.895536
0.145442 -0.120575 0.905117
-0.023477 -0.120605 0.928984
-0.021883 -0.120473 0.927973
-0.020288 -0.120316 0.926760
-0.018691 -0.120125 0.925291
-0.017104 -0.119960 0.924017
-0.015520 -0.119792 0.922722
-0.013944 -0.119652 0.921651
-0.012372 -0.119526 0.920680
-0.010807 -0.119424 0.919888
-0.009244 -0.119320 0.919090
-0.007682 -0.119195 0.918124
-0.006124 -0.119093 0.917339
-0.004569 -0.118979 0.916467
-0.003018 -0.118900 0.915852
-0.001468 -0.118801 0.915091
0.000079 -0.118725 0.914510
0.001623 -0.118627 0.913751
0.003165 -0.118526 0.912973
0.004706 -0.118459 0.912458
0.006247 -0.118431 0.912245
0.007791 -0.118461 0.912472
0.009342 -0.118564 0.913268
0.010900 -0.118717 0.914445
0.012457 -0.118824 0.915270
0.014014 -0.118901 0.915866
0.015565 -0.118926 0.916052
0.017105 -0.118864 0.915574
0.018635 -0.118750 0.914696
0.020157 -0.118608 0.913603
0.021675 -0.118464 0.912498
0.023188 -0.118314 0.911343
0.024708 -0.118212 0.910557
0.026228 -0.118126 0.909896
0.027752 -0.118065 0.909423
0.029269 -0.117981 0.908779
0.030788 -0.117917 0.908286
0.032296 -0.117817 0.907515
0.033792 -0.117684 0.906487
0.035270 -0.117501 0.905078
0.036745 -0.117325 0.903724
0.038222 -0.117172 0.902542
0.039699 -0.117027 0.901427
0.041186 -0.116922 0.900621
0.042690 -0.116871 0.900225
0.044201 -0.116842 0.900003
0.045695 -0.116773 0.899473
0.047197 -0.116727 0.899113
0.048697 -0.116678 0.898736
0.050194 -0.116626 0.898341
0.051686 -0.116567 0.897884
0.053193 -0.116541 0.897687
0.054694 -0.116507 0.897424
0.056189 -0.116460 0.897059
0.057664 -0.116376 0.896416
0.059133 -0.116287 0.895724
0.060596 -0.116188 0.894962
0.062069 -0.116113 0.894384
0.063543 -0.116044 0.893854
0.065021 -0.115984 0.893396
0.066496 -0.115923 0.892923
0.067981 -0.115881 0.892602
0.069476 -0.115858 0.892424
0.070987 -0.115862 0.892453
0.072514 -0.115890 0.892673
0.074046 -0.115926 0.892945
0.075578 -0.115961 0.893215
0.077127 -0.116020 0.893668
0.078720 -0.116140 0.894597
0.080319 -0.116265 0.895561
0.081920 -0.116390 0.896522
0.083504 -0.116485 0.897253
0.085070 -0.116552 0.897769
0.086614 -0.116587 0.898040
0.088168 -0.116635 0.898410
0.089744 -0.116709 0.898978
0.091347 -0.116816 0.899799
0.093067 -0.117067 0.901733
0.094883 -0.117427 0.904512
0.096793 -0.117891 0.908080
0.098707 -0.118345 0.911580
0.100607 -0.118769 0.914845
0.102385 -0.119037 0.916913
0.104029 -0.119145 0.917744
0.105589 -0.119155 0.917815
0.107056 -0.119061 0.917094
0.109416 -0.118260 0.910925
0.110496 -0.117770 0.907154
0.111682 -0.117405 0.904335
0.112967 -0.117152 0.902387
0.114374 -0.117031 0.901456
0.115801 -0.116933 0.900702
0.117260 -0.116869 0.900212
0.118689 -0.116777 0.899504
0.120145 -0.116715 0.899021
0.121596 -0.116649 0.898514
0.123050 -0.116587 0.898040
0.124519 -0.116541 0.897687
0.126037 -0.116541 0.897687
0.127517 -0.116507 0.897424
0.128992 -0.116470 0.897133
0.130463 -0.116429 0.896821
0.131937 -0.116391 0.896530
0.133400 -0.116346 0.896178
0.134888 -0.116322 0.895998
0.136373 -0.116297 0.895805
0.137832 -0.116250 0.895445
0.139316 -0.116225 0.895252
0.140815 -0.116214 0.895161
0.142303 -0.116192 0.894999
0.143832 -0.117723 0.895098
0.143746 -0.116136 0.894567
-0.025071 -0.119141 0.929851
-0.023487 -0.119076 0.929345
-0.021895 -0.118967 0.928494
-0.020297 -0.118802 0.927204
-0.018699 -0.118605 0.925669
-0.017107 -0.118420 0.924225
-0.015521 -0.118240 0.922822
-0.013945 -0.118103 0.921750
-0.012375 -0.117992 0.920885
-0.010811 -0.117914 0.920279
-0.009249 -0.117826 0.919591
-0.007688 -0.117728 0.918824
-0.006130 -0.117641 0.918145
-0.004574 -0.117554 0.917466
-0.003021 -0.117491 0.916978
-0.001471 -0.117431 0.916507
0.000079 -0.117382 0.916125
0.001627 -0.117310 0.915560
0.003172 -0.117231 0.914948
0.004717 -0.117188 0.914613
0.006263 -0.117174 0.914504
0.007810 -0.117194 0.914660
0.009363 -0.117273 0.915273
0.010919 -0.117372 0.916046
0.012472 -0.117412 0.916359
0.014023 -0.117424 0.916451
0.015570 -0.117407 0.916320
0.017104 -0.117308 0.915544
0.018630 -0.117170 0.914466
0.020150 -0.117017 0.913273
0.021666 -0.116865 0.912088
0.023178 -0.116717 0.910934
0.024700 -0.116630 0.910258
0.026222 -0.116559 0.909697
0.027746 -0.116499 0.909232
0.029265 -0.116426 0.908659
0.030781 -0.116351 0.908076
0.032283 -0.116231 0.907142
0.033775 -0.116087 0.906017
0.035251 -0.115904 0.904591
0.036724 -0.115729 0.903219
0.038201 -0.115578 0.902041
0.039685 -0.115459 0.901112
0.041176 -0.115367 0.900397
0.042684 -0.115330 0.900106
0.044195 -0.115302 0.899888
0.045694 -0.115244 0.899439
0.047195 -0.115197 0.899070
0.048694 -0.115149 0.898692
0.050192 -0.115100 0.898311
0.051685 -0.115042 0.897859
0.053187 -0.115007 0.897589
0.054683 -0.114961 0.897232
0.056171 -0.114902 0.896772
0.057638 -0.114807 0.896023
0.059103 -0.114708 0.895255
0.060569 -0.114619 0.894561
0.062049 -0.114559 0.894092
0.063530 -0.114504 0.893662
0.065015 -0.114459 0.893310
0.066502 -0.114420 0.893007
0.067989 -0.114381 0.892699
0.069484 -0.114358 0.892519
0.070996 -0.114362 0.892554
0.072521 -0.114388 0.892760
0.074046 -0.114412 0.892947
0.075578 -0.114447 0.893215
0.077127 -0.114505 0.893668
0.078720 -0.114624 0.894597
0.080319 -0.114747 0.895561
0.081920 -0.114870 0.896522
0.083504 -0.114964 0.897253
0.085062 -0.115020 0.897687
0.086596 -0.115042 0.897859
0.088124 -0.115054 0.897958
0.089669 -0.115089 0.898227
0.091233 -0.115146 0.898675
0.092899 -0.115329 0.900105
0.094670 -0.115633 0.902473
0.096558 -0.116070 0.905881
0.098480 -0.116531 0.909485
0.100404 -0.116981 0.912997
0.102236 -0.117313 0.915586
0.103924 -0.117471 0.916820
0.105533 -0.117537 0.917334
0.107051 -0.117501 0.917054
0.108322 -0.117199 0.914697
0.110432 -0.116165 0.906628
0.111580 -0.115766 0.903511
0.112889 -0.115542 0.901763
0.114319 -0.115447 0.901022
0.115778 -0.115383 0.900520
0.117236 -0.115320 0.900030
0.118676 -0.115240 0.899405
0.120131 -0.115177 0.898917
0.121571 -0.115102 0.898332
0.123014 -0.115032 0.897779
0.124483 -0.114986 0.897424
0.125987 -0.114975 0.897335
0.127454 -0.114930 0.896984
0.128928 -0.114891 0.896683
0.130396 -0.114850 0.896359
0.131867 -0.114811 0.896058
0.133330 -0.114766 0.895707
0.134831 -0.114755 0.895618
0.136331 -0.114743 0.895527
0.137791 -0.114698 0.895176
0.139287 -0.114684 0.895066
0.140797 -0.114681 0.895045
0.142285 -0.114661 0.894887
0.143756 -0.114627 0.894626
-0.025087 -0.117637 0.930426
-0.023501 -0.117575 0.929934
-0.021911 -0.117474 0.929136
-0.020308 -0.117289 0.927668
-0.018707 -0.117085 0.926060
-0.017114 -0.116902 0.924606
-0.015526 -0.116713 0.923114
-0.013950 -0.116578 0.922047
-0.012381 -0.116481 0.921282
-0.010817 -0.116419 0.920790
-0.009255 -0.116345 0.920202
-0.007695 -0.116282 0.919707
-0.006137 -0.116220 0.919220
-0.004581 -0.116171 0.918829
-0.003027 -0.116134 0.918537
-0.001474 -0.116111 0.918353
0.000079 -0.116078 0.918089
0.001630 -0.116018 0.917619
0.003180 -0.115943 0.917027
0.004728 -0.115900 0.916687
0.006276 -0.115877 0.916504
0.007826 -0.115873 0.916471
0.009378 -0.115912 0.916779
0.010932 -0.115957 0.917137
0.012480 -0.115933 0.916947
0.014023 -0.115872 0.916461
0.015563 -0.115804 0.915928
0.017093 -0.115679 0.914940
0.018616 -0.115533 0.913783
0.020135 -0.115384 0.912607
0.021652 -0.115248 0.911527
0.023168 -0.115125 0.910552
0.024692 -0.115052 0.909977
0.026215 -0.114983 0.909432
0.027738 -0.114925 0.908970
0.029259 -0.114862 0.908478
0.030771 -0.114776 0.907794
0.032267 -0.114636 0.906684
0.033757 -0.114491 0.905539
0.035232 -0.114309 0.904103
0.036698 -0.114115 0.902567
0.038174 -0.113967 0.901394
0.039661 -0.113861 0.900556
0.041155 -0.113783 0.899937
0.042668 -0.113760 0.899756
0.044188 -0.113756 0.899731
0.045690 -0.113711 0.899374
0.047191 -0.113664 0.898999
0.048689 -0.113613 0.898599
0.050187 -0.113564 0.898212
0.051679 -0.113507 0.897761
0.053176 -0.113463 0.897412
0.054670 -0.113415 0.897031
0.056158 -0.113356 0.896565
0.057620 -0.113251 0.895730
0.059084 -0.113154 0.894970
0.060556 -0.113079 0.894375
0.062049 -0.113044 0.894094
0.063537 -0.113003 0.893771
0.065031 -0.112973 0.893534
0.066519 -0.112935 0.893231
0.068006 -0.112896 0.892925
0.069494 -0.112861 0.892651
0.070998 -0.112854 0.892590
0.072516 -0.112867 0.892696
0.074039 -0.112888 0.892866
0.075570 -0.112920 0.893115
0.077118 -0.112977 0.893566
0.078703 -0.113083 0.894407
0.080309 -0.113216 0.895457
0.081911 -0.113338 0.896422
0.083496 -0.113432 0.897164
0.085054 -0.113488 0.897604
0.086588 -0.113508 0.897769
0.088106 -0.113509 0.897776
0.089632 -0.113520 0.897861
0.091168 -0.113542 0.898037
0.092776 -0.113653 0.898911
0.094489 -0.113886 0.900753
0.096328 -0.114260 0.903715
0.098219 -0.114685 0.907075
0.100131 -0.115120 0.910517
0.101992 -0.115484 0.913396
0.103732 -0.115703 0.915125
0.105375 -0.115808 0.915957
0.106979 -0.115868 0.916430
0.114273 -0.113874 0.900658
0.115755 -0.113833 0.900339
0.117212 -0.113770 0.899842
0.118662 -0.113702 0.899301
0.120115 -0.113639 0.898799
0.121556 -0.113566 0.898222
0.122999 -0.113496 0.897671
0.124479 -0.113461 0.897396
0.125970 -0.113438 0.897215
0.127425 -0.113383 0.896775
0.128886 -0.113334 0.896393
0.130343 -0.113284 0.895991
0.131803 -0.113236 0.895618
0.133278 -0.113203 0.895355
0.134779 -0.113193 0.895273
0.136291 -0.113192 0.895267
0.137751 -0.113147 0.894915
0.139258 -0.113143 0.894880
0.140768 -0.113140 0.894859
0.142269 -0.113132 0.894789
0.143770 -0.113122 0.894714
-0.025145 -0.116329 0.932583
-0.023536 -0.116171 0.931315
-0.021932 -0.116015 0.930068
-0.020320 -0.115785 0.928223
-0.018715 -0.115562 0.926435
-0.017121 -0.115382 0.924987
-0.015533 -0.115196 0.923502
-0.013957 -0.115076 0.922535
-0.012390 -0.115004 0.921957
-0.010826 -0.114955 0.921569
-0.009265 -0.114906 0.921176
-0.007704 -0.114858 0.920787
-0.006145 -0.114819 0.920473
-0.004588 -0.114794 0.920272
-0.003032 -0.114792 0.920261
-0.001477 -0.114817 0.920458
0.000079 -0.114853 0.920750
0.001635 -0.114821 0.920492
0.003190 -0.114782 0.920177
0.004745 -0.114749 0.919916
0.006297 -0.114691 0.919453
0.007846 -0.114615 0.918843
0.009396 -0.114580 0.918558
0.010945 -0.114537 0.918219
0.012486 -0.114431 0.917363
0.014021 -0.114300 0.916318
0.015554 -0.114188 0.915415
0.017080 -0.114042 0.914249
0.018600 -0.113887 0.913006
0.020118 -0.113743 0.911852
0.021639 -0.113633 0.910967
0.023157 -0.113525 0.910101
0.024682 -0.113465 0.909618
0.026205 -0.113397 0.909078
0.027725 -0.113328 0.908526
0.029242 -0.113256 0.907943
0.030750 -0.113158 0.907163
0.032241 -0.113007 0.905952
0.033726 -0.112852 0.904705
0.035199 -0.112672 0.903265
0.036664 -0.112482 0.901742
0.038140 -0.112338 0.900589
0.039629 -0.112245 0.899838
0.041126 -0.112179 0.899313
0.042647 -0.112179 0.899311
0.044172 -0.112190 0.899403
0.045683 -0.112169 0.899234
0.047193 -0.112145 0.899037
0.048696 -0.112105 0.898716
0.050193 -0.112055 0.898320
0.051685 -0.111998 0.897859
0.053176 -0.111942 0.897408
0.054660 -0.111873 0.896858
0.056145 -0.111811 0.896364
0.057602 -0.111698 0.895456
0.059066 -0.111605 0.894708
0.060546 -0.111544 0.894220
0.062051 -0.111531 0.894121
0.063547 -0.111505 0.893911
0.065054 -0.111497 0.893844
0.066549 -0.111470 0.893627
0.068035 -0.111430 0.893311
0.069517 -0.111384 0.892940
0.071006 -0.111353 0.892694
0.072509 -0.111343 0.892609
0.074017 -0.111341 0.892596
0.075532 -0.111350 0.892667
0.077072 -0.111395 0.893028
0.078655 -0.111499 0.893860
0.080268 -0.111641 0.895000
0.081878 -0.111773 0.896060
0.083479 -0.111889 0.896983
0.085046 -0.111955 0.897515
0.086580 -0.111976 0.897687
0.088097 -0.111976 0.897687
0.089615 -0.111976 0.897687
0.091149 -0.111997 0.897852
0.092722 -0.112063 0.898384
0.094374 -0.112222 0.899659
0.096136 -0.112504 0.901919
0.097955 -0.112844 0.904639
0.099807 -0.113209 0.907571
0.101663 -0.113569 0.910452
0.103451 -0.113842 0.912642
0.105121 -0.113980 0.913752
0.106758 -0.114079 0.914541
0.114235 -0.112310 0.900359
0.115715 -0.112269 0.900030
0.117168 -0.112204 0.899508
0.118627 -0.112145 0.899038
0.120082 -0.112084 0.898553
0.121531 -0.112020 0.898038
0.122986 -0.111962 0.897574
0.124476 -0.111937 0.897374
0.125954 -0.111903 0.897099
0.127407 -0.111847 0.896649
0.128868 -0.111799 0.896267
0.130327 -0.111752 0.895885
0.131789 -0.111707 0.895527
0.133265 -0.111675 0.895273
0.134752 -0.111653 0.895097
0.136263 -0.111651 0.895078
0.137709 -0.111596 0.894641
0.139216 -0.111593 0.894611
0.140740 -0.111601 0.894680
0.142270 -0.111615 0.894792
0.143803 -0.111631 0.894918
0.146908 -0.114388 0.904724
0.145430 -0.111719 0.895621
-0.025218 -0.115081 0.935287
-0.023583 -0.114821 0.933170
-0.021959 -0.114576 0.931183
-0.020337 -0.114307 0.929000
-0.018726 -0.114061 0.926996
-0.017130 -0.113873 0.925467
-0.015541 -0.113694 0.924012
-0.013967 -0.113597 0.923229
-0.012400 -0.113537 0.922740
-0.010837 -0.113501 0.922442
-0.009274 -0.113465 0.922155
-0.007715 -0.113452 0.922047
-0.006155 -0.113439 0.921944
-0.004597 -0.113450 0.922028
-0.003039 -0.113495 0.922400
-0.001481 -0.113557 0.922900
0.000079 -0.113632 0.923511
0.001641 -0.113628 0.923476
0.003201 -0.113600 0.923254
0.004760 -0.113555 0.922888
0.006315 -0.113459 0.922102
0.007864 -0.113320 0.920978
0.009413 -0.113221 0.920170
0.010956 -0.113095 0.919147
0.012489 -0.112907 0.917619
0.014017 -0.112719 0.916091
0.015546 -0.112572 0.914895
0.017067 -0.112406 0.913546
0.018586 -0.112254 0.912310
0.020107 -0.112136 0.911351
0.021631 -0.112049 0.910649
0.023149 -0.111946 0.909811
0.024675 -0.111887 0.909332
0.026198 -0.111829 0.908861
0.027715 -0.111750 0.908212
0.029228 -0.111666 0.907533
0.030731 -0.111550 0.906587
0.032216 -0.111387 0.905267
0.033693 -0.111212 0.903839
0.035162 -0.111024 0.902314
0.036623 -0.110828 0.900720
0.038100 -0.110697 0.899660
0.039592 -0.110615 0.898989
0.041096 -0.110572 0.898642
0.042627 -0.110604 0.898904
0.044166 -0.110651 0.899287
0.045692 -0.110666 0.899405
0.047213 -0.110666 0.899405
0.048717 -0.110629 0.899105
0.050205 -0.110558 0.898528
0.051686 -0.110479 0.897885
0.053166 -0.110399 0.897238
0.054639 -0.110310 0.896510
0.056118 -0.110238 0.895928
0.057579 -0.110136 0.895102
0.059049 -0.110055 0.894442
0.060535 -0.110008 0.894055
0.062046 -0.110007 0.894053
0.063548 -0.109992 0.893925
0.065061 -0.109994 0.893943
0.066563 -0.109979 0.893822
0.068043 -0.109929 0.893417
0.069523 -0.109881 0.893029
0.071005 -0.109838 0.892673
0.072492 -0.109805 0.892405
0.073985 -0.109781 0.892215
0.075491 -0.109778 0.892186
0.077023 -0.109812 0.892461
0.078605 -0.109913 0.893290
0.080225 -0.110065 0.894520
0.081843 -0.110207 0.895675
0.083461 -0.110344 0.896792
0.085037 -0.110422 0.897424
0.086580 -0.110454 0.897687
0.088097 -0.110454 0.897687
0.089615 -0.110454 0.897687
0.091150 -0.110476 0.897859
0.092714 -0.110531 0.898311
0.094321 -0.110634 0.899148
0.096019 -0.110840 0.900820
0.097759 -0.111087 0.902829
0.099548 -0.111381 0.905217
0.101366 -0.111697 0.907787
0.103161 -0.111980 0.910088
0.104831 -0.112121 0.911233
0.106493 -0.112249 0.912270
0.115691 -0.110720 0.899847
0.117135 -0.110647 0.899249
0.118591 -0.110587 0.898765
0.120050 -0.110532 0.898313
0.121509 -0.110477 0.897868
0.122976 -0.110431 0.897499
0.124479 -0.110419 0.897396
0.125957 -0.110384 0.897117
0.127409 -0.110328 0.896662
0.128867 -0.110279 0.896263
0.130326 -0.110232 0.895878
0.131788 -0.110188 0.895520
0.133252 -0.110147 0.895185
0.134736 -0.110123 0.894990
0.136245 -0.110119 0.894960
0.137690 -0.110065 0.894517
0.139200 -0.110063 0.894508
0.140738 -0.110083 0.894671
0.142298 -0.110120 0.894969
0.143863 -0.110160 0.895292
0.145524 -0.110272 0.896201
0.148652 -0.113017 0.906030
0.147166 -0.110367 0.896972
-0.026944 -0.114110 0.940352
-0.025293 -0.113833 0.938065
-0.023642 -0.113521 0.935493
-0.021998 -0.113199 0.932843
-0.020365 -0.112890 0.930294
-0.018746 -0.112607 0.927968
-0.017148 -0.112421 0.926430
-0.015558 -0.112246 0.924993
-0.013984 -0.112164 0.924311
-0.012416 -0.112115 0.923908
-0.010851 -0.112090 0.923705
-0.009288 -0.112068 0.923524
-0.007728 -0.112079 0.923616
-0.006167 -0.112093 0.923729
-0.004607 -0.112128 0.924018
-0.003047 -0.112212 0.924707
-0.001485 -0.112300 0.925434
0.000080 -0.112403 0.926286
0.001646 -0.112414 0.926375
0.003211 -0.112388 0.926163
0.004773 -0.112308 0.925497
0.006330 -0.112173 0.924386
0.007879 -0.111975 0.922757
0.009426 -0.111813 0.921420
0.010965 -0.111626 0.919885
0.012495 -0.111399 0.918012
0.014017 -0.111166 0.916089
0.015542 -0.110996 0.914685
0.017063 -0.110829 0.913311
0.018580 -0.110668 0.911987
0.020100 -0.110552 0.911028
0.021626 -0.110480 0.910435
0.023144 -0.110379 0.909607
0.024667 -0.110311 0.909040
0.026189 -0.110250 0.908543
0.027702 -0.110159 0.907791
0.029210 -0.110056 0.906944
0.030704 -0.109919 0.905810
0.032182 -0.109736 0.904303
0.033654 -0.109549 0.902767
0.035117 -0.109354 0.901154
0.036572 -0.109151 0.899484
0.038052 -0.109033 0.898510
0.039545 -0.108963 0.897932
0.041048 -0.108921 0.897592
0.042583 -0.108967 0.897970
0.044129 -0.109036 0.898537
0.045669 -0.109086 0.898949
0.047204 -0.109121 0.899241
0.048719 -0.109109 0.899141
0.050207 -0.109040 0.898574
0.051692 -0.108968 0.897974
0.053155 -0.108856 0.897052
0.054616 -0.108744 0.896134
0.056088 -0.108663 0.895461
0.057549 -0.108563 0.894636
0.059019 -0.108484 0.893986
0.060515 -0.108457 0.893764
0.062026 -0.108456 0.893760
0.063533 -0.108451 0.893715
0.065052 -0.108464 0.893822
0.066555 -0.108451 0.893715
0.068030 -0.108393 0.893238
0.069516 -0.108355 0.892927
0.070988 -0.108299 0.892466
0.072468 -0.108256 0.892112
0.073953 -0.108221 0.891821
0.075457 -0.108217 0.891788
0.076980 -0.108238 0.891963
0.078561 -0.108339 0.892791
0.080181 -0.108489 0.894029
0.081808 -0.108642 0.895289
0.083435 -0.108790 0.896511
0.085020 -0.108879 0.897246
0.086571 -0.108923 0.897604
0.088097 -0.108933 0.897687
0.089615 -0.108933 0.897687
0.091159 -0.108965 0.897951
0.092725 -0.109021 0.898415
0.094315 -0.109103 0.899090
0.095963 -0.109249 0.900291
0.097645 -0.109429 0.901775
0.099367 -0.109646 0.903568
0.101128 -0.109900 0.905657
0.102910 -0.110169 0.907876
0.104617 -0.110351 0.909371
0.106299 -0.110501 0.910609
0.107992 -0.110659 0.911909
0.118563 -0.109038 0.898555
0.120029 -0.108990 0.898156
0.121498 -0.108945 0.897787
0.122977 -0.108911 0.897509
0.124483 -0.108901 0.897424
0.125962 -0.108868 0.897155
0.127414 -0.108813 0.896699
0.128871 -0.108763 0.896291
0.130329 -0.108715 0.895894
0.131789 -0.108671 0.895527
0.133239 -0.108618 0.895094
0.134721 -0.108593 0.894887
0.136227 -0.108588 0.894843
0.137686 -0.108546 0.894496
0.139200 -0.108547 0.894506
0.140752 -0.108578 0.894762
0.142340 -0.108635 0.895231
0.143933 -0.108695 0.895730
0.145600 -0.108810 0.896672
0.147255 -0.108912 0.897516
0.150404 -0.111645 0.907358
0.148913 -0.109015 0.898368
-0.028594 -0.114349 0.942321
-0.028677 -0.113079 0.945057
-0.027021 -0.112837 0.943035
-0.025360 -0.112542 0.940565
-0.023699 -0.112203 0.937735
-0.022042 -0.111841 0.934713
-0.020397 -0.111485 0.931734
-0.018768 -0.111168 0.929086
-0.017169 -0.110983 0.927539
-0.015577 -0.110811 0.926100
-0.014002 -0.110742 0.925526
-0.012433 -0.110705 0.925215
-0.010868 -0.110691 0.925100
-0.009304 -0.110692 0.925108
-0.007743 -0.110739 0.925502
-0.006181 -0.110779 0.925831
-0.004619 -0.110850 0.926430
-0.003056 -0.110979 0.927501
-0.001490 -0.111081 0.928359
0.000080 -0.111197 0.929325
0.001651 -0.111206 0.929401
0.003221 -0.111155 0.928980
0.004786 -0.111029 0.927924
0.006345 -0.110859 0.926501
0.007895 -0.110627 0.924565
0.009441 -0.110433 0.922942
0.010978 -0.110203 0.921019
0.012507 -0.109951 0.918917
0.014024 -0.109671 0.916578
0.015544 -0.109457 0.914788
0.017061 -0.109270 0.913225
0.018576 -0.109100 0.911805
0.020094 -0.108975 0.910759
0.021622 -0.108915 0.910255
0.023140 -0.108816 0.909424
0.024659 -0.108736 0.908763
0.026181 -0.108675 0.908252
0.027690 -0.108574 0.907403
0.029191 -0.108451 0.906377
0.030682 -0.108303 0.905139
0.032154 -0.108110 0.903524
0.033620 -0.107912 0.901872
0.035079 -0.107709 0.900176
0.036532 -0.107508 0.898497
0.038010 -0.107391 0.897523
0.039502 -0.107323 0.896952
0.041007 -0.107294 0.896704
0.042550 -0.107362 0.897277
0.044104 -0.107453 0.898036
0.045658 -0.107536 0.898730
0.047207 -0.107604 0.899302
0.048728 -0.107606 0.899316
0.050212 -0.107529 0.898669
0.051691 -0.107444 0.897960
0.053142 -0.107309 0.896832
0.054591 -0.107176 0.895724
0.056058 -0.107086 0.894969
0.057517 -0.106987 0.894139
0.058986 -0.106909 0.893492
0.060477 -0.106874 0.893200
0.061986 -0.106873 0.893192
0.063498 -0.106877 0.893224
0.065023 -0.106900 0.893417
0.066533 -0.106900 0.893416
0.068021 -0.106865 0.893126
0.069514 -0.106839 0.892908
0.070987 -0.106784 0.892448
0.072467 -0.106742 0.892093
0.073944 -0.106697 0.891715
0.075448 -0.106692 0.891675
0.076962 -0.106702 0.891757
0.078535 -0.106791 0.892501
0.080155 -0.106938 0.893734
0.081789 -0.107100 0.895083
0.083417 -0.107248 0.896321
0.085011 -0.107347 0.897154
0.086571 -0.107400 0.897598
0.088097 -0.107411 0.897687
0.089615 -0.107411 0.897687
0.091168 -0.107453 0.898040
0.092735 -0.107510 0.898514
0.094316 -0.107581 0.899104
0.095944 -0.107702 0.900116
0.097585 -0.107834 0.901218
0.099263 -0.108001 0.902620
0.100989 -0.108216 0.904417
0.102758 -0.108469 0.906531
0.104480 -0.108667 0.908181
0.106204 -0.108860 0.909796
0.107960 -0.109080 0.911633
0.120004 -0.107445 0.897972
0.121499 -0.107424 0.897794
0.123002 -0.107411 0.897687
0.124519 -0.107411 0.897687
0.126013 -0.107391 0.897515
0.127478 -0.107347 0.897148
0.128925 -0.107289 0.896668
0.130369 -0.107230 0.896172
0.131816 -0.107174 0.895707
0.133238 -0.107100 0.895088
0.134695 -0.107056 0.894716
0.136200 -0.107050 0.894667
0.137662 -0.107011 0.894340
0.139163 -0.107002 0.894271
0.140729 -0.107043 0.894613
0.142328 -0.107108 0.895156
0.143922 -0.107168 0.895658
0.145589 -0.107281 0.896599
0.147242 -0.107381 0.897435
0.148882 -0.107470 0.898177
-0.030367 -0.111818 0.947944
-0.028732 -0.111692 0.946882
-0.027081 -0.111485 0.945120
-0.025418 -0.111202 0.942725
-0.023752 -0.110862 0.939844
-0.022085 -0.110472 0.936536
-0.020432 -0.110095 0.933343
-0.018795 -0.109749 0.930409
-0.017192 -0.109556 0.928771
-0.015600 -0.109407 0.927506
-0.014026 -0.109361 0.927119
-0.012456 -0.109337 0.926915
-0.010891 -0.109357 0.927086
-0.009326 -0.109381 0.927288
-0.007763 -0.109442 0.927800
-0.006197 -0.109493 0.928240
-0.004632 -0.109587 0.929033
-0.003065 -0.109726 0.930209
-0.001494 -0.109817 0.930986
0.000080 -0.109928 0.931921
0.001656 -0.109921 0.931862
0.003229 -0.109844 0.931212
0.004796 -0.109693 0.929930
0.006358 -0.109513 0.928410
0.007909 -0.109263 0.926284
0.009456 -0.109042 0.924410
0.010991 -0.108770 0.922111
0.012518 -0.108489 0.919726
0.014034 -0.108190 0.917192
0.015549 -0.107947 0.915127
0.017064 -0.107739 0.913363
0.018578 -0.107568 0.911919
0.020095 -0.107434 0.910777
0.021618 -0.107353 0.910094
0.023133 -0.107244 0.909173
0.024650 -0.107154 0.908409
0.026165 -0.107073 0.907717
0.027666 -0.106942 0.906608
0.029160 -0.106799 0.905394
0.030642 -0.106630 0.903969
0.032109 -0.106427 0.902244
0.033572 -0.106232 0.900591
0.035032 -0.106041 0.898975
0.036491 -0.105865 0.897483
0.037968 -0.105752 0.896524
0.039465 -0.105703 0.896107
0.040973 -0.105685 0.895954
0.042519 -0.105763 0.896612
0.044077 -0.105865 0.897476
0.045643 -0.105977 0.898433
0.047201 -0.106067 0.899191
0.048728 -0.106081 0.899315
0.050212 -0.106005 0.898670
0.051685 -0.105910 0.897862
0.053135 -0.105774 0.896704
0.054572 -0.105622 0.895419
0.056033 -0.105522 0.894570
0.057492 -0.105424 0.893744
0.058954 -0.105338 0.893010
0.060438 -0.105292 0.892623
0.061947 -0.105292 0.892621
0.063458 -0.105296 0.892658
0.064989 -0.105330 0.892948
0.066511 -0.105352 0.893127
0.068007 -0.105330 0.892946
0.069508 -0.105316 0.892830
0.070988 -0.105274 0.892466
0.072476 -0.105242 0.892200
0.073953 -0.105199 0.891830
0.075458 -0.105194 0.891793
0.076965 -0.105194 0.891788
0.078536 -0.105279 0.892513
0.080140 -0.105403 0.893567
0.081773 -0.105562 0.894907
0.083400 -0.105706 0.896134
0.085003 -0.105816 0.897060
0.086563 -0.105869 0.897513
0.088097 -0.105889 0.897687
0.089615 -0.105889 0.897687
0.091177 -0.105941 0.898123
0.092744 -0.105997 0.898603
0.094317 -0.106058 0.899113
0.095935 -0.106166 0.900032
0.097556 -0.106274 0.900951
0.099212 -0.106417 0.902163
0.100917 -0.106607 0.903772
0.102672 -0.106843 0.905771
0.104406 -0.107052 0.907540
0.106162 -0.107275 0.909432
0.107940 -0.107515 0.911466
0.109702 -0.107732 0.913307
0.121503 -0.105906 0.897824
0.123032 -0.105916 0.897911
0.124547 -0.105913 0.897890
0.126051 -0.105901 0.897789
0.127529 -0.105868 0.897507
0.128978 -0.105813 0.897036
0.130411 -0.105745 0.896462
0.131857 -0.105689 0.895985
0.133252 -0.105594 0.895184
0.134706 -0.105548 0.894792
0.136187 -0.105523 0.894582
0.137649 -0.105485 0.894256
0.139137 -0.105467 0.894103
0.140702 -0.105506 0.894440
0.142284 -0.105558 0.894881
0.143877 -0.105617 0.895380
0.145543 -0.105728 0.896315
0.147196 -0.105827 0.897156
0.148833 -0.105913 0.897884
-0.032079 -0.110589 0.951198
-0.030438 -0.110468 0.950154
-0.028795 -0.110330 0.948972
-0.027140 -0.110124 0.947197
-0.025478 -0.109860 0.944925
-0.023800 -0.109492 0.941763
-0.022125 -0.109083 0.938244
-0.020467 -0.108697 0.934921
-0.018825 -0.108344 0.931884
-0.017216 -0.108133 0.930076
-0.015627 -0.108020 0.929098
-0.014053 -0.107998 0.928908
-0.012482 -0.107987 0.928819
-0.010916 -0.108031 0.929198
-0.009347 -0.108057 0.929422
-0.007781 -0.108128 0.930033
-0.006212 -0.108180 0.930473
-0.004643 -0.108271 0.931260
-0.003072 -0.108396 0.932334
-0.001497 -0.108463 0.932909
0.000080 -0.108526 0.933450
0.001658 -0.108480 0.933053
0.003232 -0.108367 0.932088
0.004799 -0.108185 0.930519
0.006363 -0.108018 0.929087
0.007917 -0.107794 0.927154
0.009465 -0.107578 0.925302
0.011000 -0.107291 0.922834
0.012527 -0.107010 0.920415
0.014043 -0.106701 0.917756
0.015567 -0.106513 0.916140
0.017065 -0.106199 0.913439
0.018561 -0.105927 0.911101
0.020057 -0.105690 0.909058
0.021566 -0.105557 0.907917
0.023060 -0.105366 0.906276
0.024588 -0.105352 0.906156
0.026117 -0.105340 0.906051
0.027627 -0.105255 0.905317
0.029114 -0.105101 0.903994
0.030589 -0.104916 0.902404
0.032059 -0.104736 0.900852
0.033528 -0.104566 0.899389
0.034993 -0.104400 0.897967
0.036458 -0.104250 0.896679
0.037941 -0.104160 0.895904
0.039446 -0.104133 0.895671
0.040960 -0.104134 0.895677
0.042510 -0.104221 0.896423
0.044073 -0.104333 0.897390
0.045639 -0.104445 0.898356
0.047193 -0.104524 0.899031
0.048718 -0.104536 0.899135
0.050198 -0.104452 0.898409
0.051665 -0.104348 0.897519
0.053114 -0.104213 0.896359
0.054551 -0.104063 0.895068
0.056006 -0.103955 0.894137
0.057464 -0.103858 0.893306
0.058930 -0.103781 0.892642
0.060418 -0.103745 0.892333
0.061926 -0.103745 0.892329
0.063438 -0.103750 0.892371
0.064980 -0.103804 0.892836
0.066510 -0.103836 0.893115
0.068021 -0.103838 0.893127
0.069537 -0.103846 0.893200
0.071039 -0.103835 0.893105
0.072535 -0.103814 0.892927
0.074015 -0.103774 0.892577
0.075521 -0.103770 0.892543
0.077029 -0.103768 0.892527
0.078586 -0.103832 0.893078
0.080173 -0.103931 0.893933
0.081796 -0.104074 0.895164
0.083408 -0.104197 0.896218
0.085002 -0.104294 0.897056
0.086562 -0.104347 0.897509
0.088097 -0.104368 0.897687
0.089615 -0.104368 0.897687
0.091177 -0.104418 0.898123
0.092744 -0.104474 0.898603
0.094317 -0.104534 0.899113
0.095935 -0.104640 0.900032
0.097556 -0.104747 0.900951
0.099212 -0.104888 0.902163
0.100917 -0.105074 0.903766
0.102661 -0.105297 0.905676
0.104393 -0.105500 0.907426
0.106170 -0.105742 0.909505
0.107966 -0.105995 0.911686
0.109750 -0.106230 0.913706
0.111525 -0.108003 0.915602
0.111588 -0.106510 0.916114
0.113452 -0.106807 0.918670
0.123063 -0.104420 0.898136
0.124572 -0.104412 0.898067
0.126083 -0.104406 0.898018
0.127570 -0.104380 0.897797
0.129032 -0.104335 0.897409
0.130456 -0.104261 0.896767
0.131899 -0.104204 0.896275
0.133280 -0.104099 0.895373
0.134732 -0.104051 0.894960
0.136186 -0.104006 0.894577
0.137646 -0.103966 0.894233
0.139119 -0.103938 0.893987
0.140667 -0.103964 0.894216
0.142220 -0.103995 0.894481
0.143813 -0.104053 0.894978
0.145463 -0.104152 0.895827
0.147119 -0.104251 0.896686
0.148756 -0.104337 0.897418
-0.032114 -0.109096 0.952237
-0.030479 -0.109006 0.951454
-0.028836 -0.108877 0.950326
-0.027184 -0.108695 0.948738
-0.025522 -0.108447 0.946571
-0.023851 -0.108124 0.943759
-0.022167 -0.107695 0.940009
-0.020499 -0.107283 0.936419
-0.018852 -0.106921 0.933253
-0.017248 -0.106756 0.931818
-0.015652 -0.106618 0.930608
-0.014079 -0.106620 0.930628
-0.012508 -0.106633 0.930744
-0.010939 -0.106678 0.931137
-0.009367 -0.106704 0.931365
-0.007797 -0.106764 0.931884
-0.006223 -0.106790 0.932116
-0.004650 -0.106846 0.932604
-0.003076 -0.106935 0.933375
-0.001498 -0.106965 0.933641
0.000080 -0.106991 0.933867
0.001658 -0.106921 0.933258
0.003232 -0.106798 0.932184
0.004800 -0.106619 0.930617
0.006365 -0.106477 0.929381
0.007921 -0.106281 0.927668
0.009473 -0.106100 0.926089
0.011011 -0.105836 0.923787
0.012542 -0.105575 0.921506
0.014067 -0.105331 0.919376
0.015605 -0.105216 0.918376
0.017085 -0.104776 0.914532
0.018558 -0.104364 0.910935
0.020025 -0.103986 0.907636
0.021496 -0.103679 0.904956
0.022952 -0.103345 0.902045
0.024488 -0.103391 0.902448
0.026024 -0.103435 0.902828
0.027539 -0.103391 0.902443
0.029033 -0.103277 0.901450
0.030517 -0.103145 0.900294
0.031998 -0.103013 0.899141
0.033481 -0.102899 0.898147
0.034959 -0.102780 0.897109
0.036442 -0.102686 0.896290
0.037937 -0.102631 0.895809
0.039454 -0.102637 0.895858
0.040977 -0.102657 0.896041
0.042528 -0.102745 0.896802
0.044087 -0.102846 0.897683
0.045644 -0.102935 0.898462
0.047189 -0.102991 0.898948
0.048704 -0.102981 0.898863
0.050182 -0.102896 0.898123
0.051649 -0.102795 0.897240
0.053099 -0.102664 0.896102
0.054536 -0.102518 0.894821
0.055990 -0.102411 0.893890
0.057441 -0.102305 0.892962
0.058907 -0.102228 0.892296
0.060401 -0.102203 0.892076
0.061921 -0.102223 0.892247
0.063439 -0.102239 0.892392
0.064994 -0.102311 0.893021
0.066531 -0.102354 0.893393
0.068056 -0.102376 0.893587
0.069574 -0.102387 0.893685
0.071092 -0.102397 0.893771
0.072596 -0.102388 0.893686
0.074085 -0.102358 0.893425
0.075594 -0.102355 0.893400
0.077103 -0.102354 0.893389
0.078645 -0.102395 0.893749
0.080215 -0.102470 0.894408
0.081822 -0.102589 0.895442
0.083416 -0.102688 0.896304
0.085003 -0.102774 0.897060
0.086563 -0.102826 0.897513
0.088097 -0.102846 0.897687
0.089615 -0.102846 0.897687
0.091177 -0.102896 0.898123
0.092744 -0.102951 0.898603
0.094317 -0.103009 0.899113
0.095935 -0.103115 0.900032
0.097556 -0.103220 0.900951
0.099214 -0.103360 0.902172
0.100910 -0.103535 0.903703
0.102655 -0.103755 0.905622
0.104376 -0.103944 0.907275
0.106162 -0.104192 0.909433
0.107968 -0.104452 0.911703
0.109770 -0.104700 0.913874
0.111602 -0.104970 0.916229
0.113459 -0.105256 0.918724
0.115316 -0.107095 0.921149
0.115336 -0.105553 0.921311
0.117095 -0.105735 0.922901
0.124626 -0.102934 0.898456
0.126139 -0.102930 0.898418
0.127641 -0.102916 0.898297
0.129111 -0.102877 0.897961
0.130524 -0.102795 0.897238
0.131956 -0.102729 0.896663
0.133333 -0.102622 0.895731
0.134747 -0.102545 0.895060
0.136174 -0.102480 0.894494
0.137631 -0.102439 0.894135
0.139086 -0.102397 0.893771
0.140606 -0.102404 0.893833
0.142145 -0.102424 0.894004
0.143719 -0.102469 0.894397
0.145356 -0.102557 0.895167
0.147010 -0.102655 0.896022
0.151931 -0.105487 0.907317
0.150230 -0.103834 0.906308
-0.033767 -0.107620 0.953465
-0.032135 -0.107553 0.952868
-0.030505 -0.107484 0.952258
-0.028868 -0.107384 0.951369
-0.027223 -0.107240 0.950093
-0.025568 -0.107033 0.948265
-0.023899 -0.106738 0.945649
-0.022221 -0.106360 0.942298
-0.020542 -0.105915 0.938356
-0.018885 -0.105519 0.934850
-0.017281 -0.105379 0.933612
-0.015686 -0.105266 0.932611
-0.014101 -0.105207 0.932085
-0.012527 -0.105221 0.932210
-0.010957 -0.105273 0.932667
-0.009381 -0.105287 0.932793
-0.007808 -0.105331 0.933187
-0.006230 -0.105334 0.933207
-0.004653 -0.105353 0.933382
-0.003077 -0.105395 0.933747
-0.001498 -0.105378 0.933602
0.000080 -0.105360 0.933441
0.001657 -0.105270 0.932642
0.003229 -0.105129 0.931398
0.004796 -0.104965 0.929940
0.006362 -0.104859 0.929001
0.007921 -0.104711 0.927688
0.009478 -0.104579 0.926522
0.011006 -0.104220 0.923343
0.012521 -0.103838 0.919960
0.014028 -0.103483 0.916810
0.015543 -0.103249 0.914740
0.016995 -0.102680 0.909700
0.018463 -0.102292 0.906259
0.019919 -0.101904 0.902824
0.021381 -0.101599 0.900121
0.022837 -0.101304 0.897511
0.024381 -0.101417 0.898508
0.025923 -0.101508 0.899315
0.027443 -0.101508 0.899310
0.028944 -0.101440 0.898715
0.030438 -0.101356 0.897968
0.031933 -0.101282 0.897311
0.033434 -0.101235 0.896894
0.034933 -0.101182 0.896429
0.036437 -0.101152 0.896163
0.037952 -0.101152 0.896158
0.039482 -0.101191 0.896506
0.041019 -0.101244 0.896977
0.042573 -0.101331 0.897750
0.044128 -0.101419 0.898525
0.045673 -0.101475 0.899024
0.047201 -0.101494 0.899194
0.048696 -0.101442 0.898727
0.050164 -0.101337 0.897804
0.051622 -0.101221 0.896769
0.053072 -0.101094 0.895648
0.054508 -0.100950 0.894372
0.055961 -0.100844 0.893430
0.057417 -0.100749 0.892587
0.058884 -0.100676 0.891940
0.060384 -0.100662 0.891824
0.061911 -0.100695 0.892110
0.063436 -0.100721 0.892340
0.064997 -0.100802 0.893061
0.066547 -0.100863 0.893602
0.068087 -0.100906 0.893986
0.069614 -0.100929 0.894187
0.071146 -0.100959 0.894448
0.072665 -0.100968 0.894530
0.074163 -0.100949 0.894364
0.075674 -0.100947 0.894348
0.077184 -0.100945 0.894329
0.078719 -0.100975 0.894592
0.080274 -0.101028 0.895066
0.081864 -0.101123 0.895904
0.083442 -0.101200 0.896590
0.085019 -0.101273 0.897237
0.086571 -0.101314 0.897598
0.088097 -0.101324 0.897687
0.089615 -0.101324 0.897687
0.091177 -0.101373 0.898123
0.092744 -0.101428 0.898603
0.094317 -0.101485 0.899113
0.095935 -0.101589 0.900032
0.097556 -0.101693 0.900951
0.099214 -0.101831 0.902179
0.100911 -0.102005 0.903715
0.102647 -0.102212 0.905555
0.104359 -0.102390 0.907126
0.106141 -0.102630 0.909258
0.107936 -0.102876 0.911432
0.109758 -0.103140 0.913776
0.111625 -0.103439 0.916422
0.113500 -0.103736 0.919058
0.115371 -0.104022 0.921591
0.117138 -0.104208 0.923235
0.118830 -0.105891 0.924261
0.118871 -0.104360 0.924579
0.126188 -0.101446 0.898762
0.127704 -0.101443 0.898743
0.129176 -0.101406 0.898411
0.130594 -0.101328 0.897721
0.132025 -0.101262 0.897132
0.133400 -0.101154 0.896181
0.134788 -0.101059 0.895336
0.136201 -0.100984 0.894673
0.137644 -0.100933 0.894223
0.139085 -0.100882 0.893766
0.140577 -0.100868 0.893647
0.142086 -0.100867 0.893638
0.143630 -0.100890 0.893842
0.146832 -0.102066 0.904254
-0.033801 -0.106108 0.954400
-0.032169 -0.106049 0.953875
-0.030542 -0.105998 0.953411
-0.028911 -0.105929 0.952788
-0.027276 -0.105833 0.951927
-0.025629 -0.105679 0.950539
-0.023968 -0.105440 0.948397
-0.020590 -0.104571 0.940576
-0.018908 -0.104064 0.936013
-0.017304 -0.103932 0.934829
-0.015710 -0.103842 0.934020
-0.014124 -0.103795 0.933601
-0.012549 -0.103822 0.933842
-0.010975 -0.103865 0.934223
-0.009395 -0.103856 0.934143
-0.007816 -0.103857 0.934152
-0.006235 -0.103824 0.933858
-0.004655 -0.103798 0.933623
-0.003076 -0.103773 0.933402
-0.001497 -0.103722 0.932937
0.000080 -0.103679 0.932558
0.001655 -0.103571 0.931582
0.003225 -0.103415 0.930178
0.004791 -0.103274 0.928915
0.006356 -0.103192 0.928177
0.007917 -0.103083 0.927190
0.009463 -0.102851 0.925108
0.010979 -0.102403 0.921077
0.012476 -0.101913 0.916670
0.013962 -0.101446 0.912467
0.015452 -0.101103 0.909384
0.016899 -0.100569 0.904578
0.018363 -0.100210 0.901352
0.019815 -0.099849 0.898102
0.021273 -0.099568 0.895577
0.022728 -0.099309 0.893244
0.024274 -0.099455 0.894561
0.025818 -0.099579 0.895672
0.027346 -0.099627 0.896107
0.028855 -0.099607 0.895929
0.030358 -0.099571 0.895605
0.031866 -0.099552 0.895435
0.033386 -0.099570 0.895592
0.034907 -0.099591 0.895781
0.036434 -0.099625 0.896088
0.037977 -0.099697 0.896736
0.039533 -0.099798 0.897643
0.041085 -0.099883 0.898408
0.042637 -0.099960 0.899106
0.044189 -0.100033 0.899760
0.045715 -0.100043 0.899853
0.047220 -0.100010 0.899552
0.048695 -0.099916 0.898703
0.050152 -0.099791 0.897581
0.051599 -0.099655 0.896361
0.053043 -0.099522 0.895160
0.054478 -0.099380 0.893882
0.055930 -0.099274 0.892936
0.057391 -0.099190 0.892173
0.058863 -0.099129 0.891627
0.060376 -0.099138 0.891712
0.061911 -0.099183 0.892110
0.063448 -0.099228 0.892518
0.065017 -0.099319 0.893339
0.066574 -0.099389 0.893967
0.068122 -0.099442 0.894448
0.069664 -0.099485 0.894827
0.071205 -0.099525 0.895186
0.072733 -0.099544 0.895364
0.074247 -0.099545 0.895368
0.075760 -0.099544 0.895363
0.077273 -0.099543 0.895353
0.078801 -0.099562 0.895519
0.080333 -0.099584 0.895724
0.081899 -0.099647 0.896286
0.083460 -0.099702 0.896779
0.085020 -0.099754 0.897246
0.086564 -0.099784 0.897522
0.088097 -0.099803 0.897687
0.089615 -0.099803 0.897687
0.091177 -0.099851 0.898123
0.092744 -0.099904 0.898603
0.094317 -0.099961 0.899113
0.095935 -0.100063 0.900032
0.097556 -0.100165 0.900951
0.099223 -0.100311 0.902256
0.100920 -0.100481 0.903794
0.102655 -0.100685 0.905624
0.104365 -0.100858 0.907180
0.106137 -0.101085 0.909218
0.107910 -0.101306 0.911211
0.109731 -0.101566 0.913550
0.111612 -0.101873 0.916310
0.113523 -0.102199 0.919242
0.115420 -0.102504 0.921984
0.117206 -0.102703 0.923773
0.118931 -0.102844 0.925046
0.120607 -0.102940 0.925907
0.126253 -0.099974 0.899225
0.127765 -0.099968 0.899170
0.129229 -0.099924 0.898780
0.130646 -0.099846 0.898076
0.132081 -0.099783 0.897512
0.133469 -0.099687 0.896645
0.134857 -0.099592 0.895791
0.136247 -0.099501 0.894975
0.137674 -0.099439 0.894414
0.139088 -0.099369 0.893789
0.140539 -0.099327 0.893408
0.142006 -0.099296 0.893132
-0.033841 -0.104616 0.955548
-0.032216 -0.104585 0.955267
-0.030592 -0.104554 0.954984
-0.028982 -0.104567 0.955108
-0.027364 -0.104554 0.954989
-0.025733 -0.104489 0.954389
-0.024086 -0.104342 0.953051
-0.018939 -0.102645 0.937547
-0.017328 -0.102492 0.936150
-0.014141 -0.102334 0.934704
-0.012564 -0.102362 0.934963
-0.010986 -0.102381 0.935136
-0.009402 -0.102350 0.934857
-0.007819 -0.102318 0.934558
-0.006235 -0.102251 0.933948
-0.004653 -0.102182 0.933316
-0.003073 -0.102113 0.932690
-0.001495 -0.102038 0.932004
0.000080 -0.101982 0.931496
0.001653 -0.101865 0.930424
0.003221 -0.101701 0.928930
0.004786 -0.101587 0.927888
0.006349 -0.101505 0.927138
0.007899 -0.101282 0.925100
0.009431 -0.100937 0.921952
