1709
0.066745 -0.180624 0.876368
0.068232 -0.180641 0.876446
0.069713 -0.180638 0.876432
0.071187 -0.180618 0.876338
0.072675 -0.180635 0.876417
0.074186 -0.180705 0.876760
0.075700 -0.180781 0.877126
0.077215 -0.180856 0.877492
0.078737 -0.180945 0.877924
0.080237 -0.180981 0.878100
0.081746 -0.181036 0.878366
0.083256 -0.181091 0.878632
0.084786 -0.181185 0.879086
0.086325 -0.181296 0.879626
0.087916 -0.181512 0.880674
0.089508 -0.181720 0.881685
0.091131 -0.181984 0.882966
0.092766 -0.182264 0.884324
0.094415 -0.182562 0.885768
0.096060 -0.182844 0.887134
0.097693 -0.183094 0.888350
0.038486 -0.185761 0.908762
0.039857 -0.184994 0.905012
0.041257 -0.184412 0.902165
0.042680 -0.183974 0.900020
0.044119 -0.183629 0.898331
0.045560 -0.183317 0.896807
0.047010 -0.183058 0.895542
0.048443 -0.182753 0.894049
0.049850 -0.182373 0.892189
0.051232 -0.181924 0.889995
0.052611 -0.181489 0.887862
0.054018 -0.181174 0.886323
0.055440 -0.180926 0.885112
0.056859 -0.180681 0.883910
0.058306 -0.180533 0.883189
0.059743 -0.180363 0.882358
0.061130 -0.180056 0.880857
0.062505 -0.179728 0.879252
0.063915 -0.179512 0.878194
0.065326 -0.179312 0.877213
0.066765 -0.179191 0.876625
0.068247 -0.179193 0.876631
0.069735 -0.179209 0.876710
0.071217 -0.179209 0.876710
0.072706 -0.179225 0.876788
0.074217 -0.179294 0.877126
0.075731 -0.179369 0.877492
0.077248 -0.179448 0.877877
0.078772 -0.179538 0.878321
0.080281 -0.179592 0.878582
0.081798 -0.179660 0.878917
0.083317 -0.179733 0.879273
0.084847 -0.179826 0.879727
0.086396 -0.179954 0.880354
0.087998 -0.180187 0.881495
0.089583 -0.180378 0.882428
0.091208 -0.180641 0.883716
0.092844 -0.180918 0.885070
0.094484 -0.181194 0.886422
0.096112 -0.181438 0.887613
0.097733 -0.181661 0.888707
0.031209 -0.188201 0.920698
0.029644 -0.186587 0.920437
0.031190 -0.186527 0.920143
0.032746 -0.188091 0.920163
0.032724 -0.186404 0.919534
0.034259 -0.187856 0.919012
0.034234 -0.186163 0.918344
0.035706 -0.187298 0.916282
0.035717 -0.185798 0.916546
0.037101 -0.186523 0.912490
0.037151 -0.185225 0.913718
0.038557 -0.184563 0.910451
0.039931 -0.183800 0.906689
0.041325 -0.183186 0.903660
0.042739 -0.182700 0.901263
0.044170 -0.182319 0.899381
0.045604 -0.181974 0.897680
0.047063 -0.181744 0.896547
0.048506 -0.181474 0.895214
0.049921 -0.181117 0.893455
0.051316 -0.180710 0.891445
0.052707 -0.180313 0.889489
0.054106 -0.179966 0.887778
0.055521 -0.179686 0.886397
0.056929 -0.179403 0.884998
0.058360 -0.179201 0.884002
0.059795 -0.179025 0.883133
0.061183 -0.178719 0.881624
0.062554 -0.178377 0.879936
0.063958 -0.178143 0.878784
0.065362 -0.177921 0.877688
0.066787 -0.177765 0.876916
0.068264 -0.177750 0.876846
0.069754 -0.177770 0.876945
0.071244 -0.177790 0.877039
0.072734 -0.177807 0.877124
0.074245 -0.177875 0.877462
0.075761 -0.177951 0.877836
0.077280 -0.178032 0.878236
0.078805 -0.178124 0.878689
0.080322 -0.178194 0.879032
0.081840 -0.178261 0.879368
0.083361 -0.178335 0.879731
0.084893 -0.178430 0.880200
0.086451 -0.178575 0.880916
0.088063 -0.178823 0.882139
0.089659 -0.179032 0.883171
0.091302 -0.179328 0.884630
0.092949 -0.179621 0.886074
0.094591 -0.179895 0.887426
0.096210 -0.180117 0.888519
0.097830 -0.180334 0.889594
0.028092 -0.185056 0.920585
0.029633 -0.184957 0.920088
0.031174 -0.184874 0.919680
0.032706 -0.184743 0.919024
0.034213 -0.184495 0.917790
0.035694 -0.184128 0.915965
0.037155 -0.183694 0.913807
0.038577 -0.183114 0.910920
0.039963 -0.182409 0.907417
0.041363 -0.181822 0.904494
0.042773 -0.181316 0.901978
0.044197 -0.180904 0.899930
0.045632 -0.180560 0.898219
0.047090 -0.180330 0.897072
0.048534 -0.180060 0.895732
0.049960 -0.179743 0.894156
0.051367 -0.179377 0.892330
0.052771 -0.179023 0.890569
0.054179 -0.178700 0.888965
0.055589 -0.178404 0.887492
0.056988 -0.178085 0.885907
0.058402 -0.177831 0.884641
0.059826 -0.177619 0.883586
0.061209 -0.177298 0.881988
0.062573 -0.176941 0.880212
0.063971 -0.176690 0.878968
0.065373 -0.176464 0.877841
0.066797 -0.176306 0.877058
0.068275 -0.176293 0.876990
0.069773 -0.176333 0.877190
0.071271 -0.176370 0.877375
0.072768 -0.176404 0.877541
0.074280 -0.176472 0.877879
0.075797 -0.176547 0.878253
0.077317 -0.176627 0.878652
0.078836 -0.176702 0.879026
0.080353 -0.176770 0.879364
0.081871 -0.176838 0.879703
0.083393 -0.176914 0.880079
0.084935 -0.177027 0.880640
0.086503 -0.177189 0.881448
0.088124 -0.177453 0.882759
0.089731 -0.177679 0.883885
0.091386 -0.177992 0.885442
0.093037 -0.178286 0.886907
0.094699 -0.178593 0.888433
0.096321 -0.178816 0.889541
0.097954 -0.179053 0.890721
0.028080 -0.183415 0.920181
0.029617 -0.183299 0.919597
0.031152 -0.183183 0.919016
0.032677 -0.183024 0.918218
0.034173 -0.182725 0.916718
0.035652 -0.182361 0.914893
0.037114 -0.181947 0.912816
0.038536 -0.181376 0.909949
0.039933 -0.180733 0.906726
0.041345 -0.180210 0.904101
0.042764 -0.179747 0.901778
0.044188 -0.179343 0.899749
0.045630 -0.179031 0.898187
0.047085 -0.178789 0.896970
0.048524 -0.178507 0.895557
0.049955 -0.178211 0.894071
0.051373 -0.177885 0.892437
0.052789 -0.177572 0.890868
0.054209 -0.177292 0.889463
0.055631 -0.177032 0.888158
0.057029 -0.176713 0.886557
0.058438 -0.176440 0.885186
0.059846 -0.176179 0.883879
0.061222 -0.175842 0.882185
0.062581 -0.175470 0.880319
0.063968 -0.175192 0.878926
0.065364 -0.174951 0.877718
0.066787 -0.174793 0.876924
0.068258 -0.174762 0.876769
0.069756 -0.174803 0.876974
0.071261 -0.174858 0.877250
0.072765 -0.174909 0.877505
0.074284 -0.174991 0.877915
0.075799 -0.175063 0.878280
0.077318 -0.175141 0.878668
0.078836 -0.175213 0.879032
0.080360 -0.175295 0.879443
0.081886 -0.175380 0.879868
0.083417 -0.175472 0.880332
0.084969 -0.175603 0.880986
0.086546 -0.175780 0.881877
0.088168 -0.176044 0.883198
0.089785 -0.176286 0.884415
0.091451 -0.176617 0.886074
0.093114 -0.176931 0.887648
0.094798 -0.177274 0.889369
0.096442 -0.177532 0.890664
0.098099 -0.177807 0.892043
0.100528 -0.180977 0.900289
0.099733 -0.178030 0.893164
0.026530 -0.181895 0.920383
0.028068 -0.181779 0.919796
0.029605 -0.181666 0.919222
0.031132 -0.181508 0.918424
0.032646 -0.181297 0.917357
0.034138 -0.180981 0.915754
0.035610 -0.180599 0.913821
0.037067 -0.180170 0.911655
0.038487 -0.179604 0.908788
0.039893 -0.179020 0.905833
0.041310 -0.178523 0.903319
0.042732 -0.178089 0.901121
0.044161 -0.177706 0.899185
0.045610 -0.177431 0.897794
0.047065 -0.177192 0.896585
0.048505 -0.176917 0.895195
0.049945 -0.176659 0.893889
0.051372 -0.176368 0.892416
0.052789 -0.176063 0.890874
0.054211 -0.175790 0.889488
0.055633 -0.175534 0.888194
0.057032 -0.175217 0.886592
0.058428 -0.174911 0.885045
0.059824 -0.174618 0.883558
0.061198 -0.174278 0.881838
0.062557 -0.173911 0.879983
0.063938 -0.173622 0.878521
0.065334 -0.173385 0.877323
0.066762 -0.173242 0.876600
0.068226 -0.173195 0.876359
0.069730 -0.173252 0.876647
0.071242 -0.173325 0.877015
0.072754 -0.173393 0.877363
0.074272 -0.173476 0.877783
0.075793 -0.173562 0.878215
0.077311 -0.173635 0.878587
0.078829 -0.173707 0.878950
0.080360 -0.173806 0.879450
0.081895 -0.173907 0.879963
0.083427 -0.174000 0.880432
0.084986 -0.174146 0.881169
0.086564 -0.174322 0.882063
0.088180 -0.174569 0.883314
0.089805 -0.174825 0.884608
0.091481 -0.175171 0.886360
0.093154 -0.175501 0.888026
0.094868 -0.175896 0.890024
0.096535 -0.176191 0.891519
0.098216 -0.176504 0.893102
0.099871 -0.176761 0.894401
0.026522 -0.180277 0.920086
0.028059 -0.180161 0.919492
0.029589 -0.180011 0.918730
0.031109 -0.179819 0.917749
0.032616 -0.179575 0.916505
0.034099 -0.179223 0.914709
0.035559 -0.178791 0.912501
0.037009 -0.178344 0.910220
0.038426 -0.177781 0.907346
0.039838 -0.177240 0.904586
0.041262 -0.176787 0.902274
0.042693 -0.176398 0.900287
0.044128 -0.176051 0.898517
0.045581 -0.175798 0.897226
0.047030 -0.175545 0.895934
0.048466 -0.175259 0.894476
0.049909 -0.175017 0.893240
0.051334 -0.174728 0.891764
0.052751 -0.174426 0.890226
0.054182 -0.174189 0.889012
0.055605 -0.173939 0.887741
0.057008 -0.173641 0.886218
0.058398 -0.173322 0.884588
0.059786 -0.173011 0.883001
0.061158 -0.172670 0.881262
0.062527 -0.172336 0.879560
0.063910 -0.172056 0.878126
0.065318 -0.171856 0.877106
0.066752 -0.171728 0.876456
0.068207 -0.171663 0.876123
0.069704 -0.171701 0.876319
0.071216 -0.171776 0.876698
0.072722 -0.171832 0.876987
0.074241 -0.171917 0.877417
0.075769 -0.172018 0.877934
0.077294 -0.172108 0.878395
0.078820 -0.172198 0.878853
0.080368 -0.172332 0.879539
0.081912 -0.172452 0.880152
0.083453 -0.172562 0.880711
0.085020 -0.172721 0.881521
0.086599 -0.172896 0.882416
0.088207 -0.173125 0.883585
0.089839 -0.173392 0.884948
0.091515 -0.173733 0.886688
0.093199 -0.174078 0.888450
0.094925 -0.174492 0.890559
0.096614 -0.174823 0.892250
0.098315 -0.175167 0.894005
0.099964 -0.175407 0.895233
0.026527 -0.178750 0.920255
0.028061 -0.178614 0.919553
0.029583 -0.178417 0.918539
0.031096 -0.178187 0.917356
0.032598 -0.177923 0.915999
0.034072 -0.177535 0.913998
0.035524 -0.177068 0.911594
0.036968 -0.176606 0.909215
0.038380 -0.176030 0.906251
0.039795 -0.175516 0.903607
0.041219 -0.175074 0.901331
0.042657 -0.174725 0.899534
0.044092 -0.174384 0.897774
0.045547 -0.174147 0.896557
0.046996 -0.173897 0.895272
0.048430 -0.173614 0.893812
0.049867 -0.173357 0.892488
0.051285 -0.173051 0.890916
0.052694 -0.172733 0.889278
0.054124 -0.172497 0.888064
0.055546 -0.172251 0.886794
0.056953 -0.171973 0.885366
0.058348 -0.171673 0.883821
0.059734 -0.171365 0.882232
0.061105 -0.171026 0.880490
0.062484 -0.170728 0.878955
0.063868 -0.170454 0.877545
0.065283 -0.170276 0.876629
0.066722 -0.170168 0.876070
0.068176 -0.170100 0.875724
0.069671 -0.170136 0.875909
0.071189 -0.170224 0.876362
0.072696 -0.170283 0.876665
0.074215 -0.170368 0.877103
0.075749 -0.170485 0.877702
0.077275 -0.170576 0.878173
0.078804 -0.170672 0.878669
0.080369 -0.170843 0.879546
0.081922 -0.170981 0.880258
0.083472 -0.171107 0.880907
0.085047 -0.171280 0.881797
0.086634 -0.171470 0.882775
0.088242 -0.171696 0.883939
0.089875 -0.171960 0.885299
0.091541 -0.172279 0.886941
0.093225 -0.172621 0.888702
0.094952 -0.173031 0.890813
0.096643 -0.173363 0.892523
0.098355 -0.173721 0.894364
0.100003 -0.173958 0.895583
0.024981 -0.177261 0.920624
0.026522 -0.177158 0.920086
0.028055 -0.177016 0.919349
0.029571 -0.176788 0.918165
0.031080 -0.176541 0.916881
0.032577 -0.176257 0.915408
0.034043 -0.175838 0.913231
0.035486 -0.175336 0.910625
0.036921 -0.174843 0.908064
0.038331 -0.174272 0.905097
0.039745 -0.173766 0.902472
0.041172 -0.173351 0.900318
0.042614 -0.173024 0.898618
0.044051 -0.172703 0.896951
0.045505 -0.172467 0.895723
0.046948 -0.172203 0.894355
0.048380 -0.171920 0.892885
0.049810 -0.171648 0.891471
0.051221 -0.171327 0.889802
0.052623 -0.170992 0.888066
0.054049 -0.170757 0.886843
0.055469 -0.170513 0.885578
0.056887 -0.170275 0.884340
0.058292 -0.170012 0.882974
0.059690 -0.169743 0.881576
0.061071 -0.169440 0.880005
0.062463 -0.169181 0.878659
0.063848 -0.168914 0.877272
0.065264 -0.168740 0.876371
0.066697 -0.168618 0.875733
0.068137 -0.168518 0.875218
0.069617 -0.168521 0.875230
0.071126 -0.168591 0.875593
0.072624 -0.168631 0.875802
0.074148 -0.168730 0.876319
0.075695 -0.168876 0.877077
0.077236 -0.169002 0.877732
0.078780 -0.169133 0.878410
0.080369 -0.169352 0.879545
0.081932 -0.169508 0.880357
0.083482 -0.169633 0.881009
0.085057 -0.169805 0.881900
0.086653 -0.170011 0.882969
0.088246 -0.170206 0.883980
0.089879 -0.170468 0.885344
0.091543 -0.170780 0.886965
0.093235 -0.171133 0.888796
0.094954 -0.171524 0.890826
0.096653 -0.171868 0.892613
0.098355 -0.172206 0.894370
0.099983 -0.172405 0.895402
0.025002 -0.175846 0.921387
0.026526 -0.175627 0.920240
0.028052 -0.175437 0.919243
0.029561 -0.175175 0.917867
0.031060 -0.174879 0.916317
0.032548 -0.174546 0.914576
0.034006 -0.174095 0.912211
0.035439 -0.173564 0.909429
0.036869 -0.173056 0.906767
0.038283 -0.172523 0.903974
0.039704 -0.172056 0.901528
0.041134 -0.171666 0.899484
0.042574 -0.171343 0.897791
0.044010 -0.171022 0.896107
0.045458 -0.170770 0.894790
0.046894 -0.170493 0.893336
0.048325 -0.170215 0.891883
0.049759 -0.169961 0.890549
0.051168 -0.169641 0.888875
0.052562 -0.169292 0.887045
0.053982 -0.169042 0.885732
0.055400 -0.168801 0.884472
0.056822 -0.168583 0.883331
0.058234 -0.168347 0.882094
0.059650 -0.168135 0.880981
0.061049 -0.167889 0.879693
0.062459 -0.167682 0.878607
0.063856 -0.167450 0.877394
0.065285 -0.167311 0.876662
0.066724 -0.167201 0.876090
0.068158 -0.167086 0.875484
0.069624 -0.167053 0.875314
0.071119 -0.167088 0.875495
0.072602 -0.167095 0.875532
0.074111 -0.167161 0.875879
0.075657 -0.167306 0.876637
0.077205 -0.167447 0.877380
0.078757 -0.167594 0.878150
0.080354 -0.167828 0.879376
0.081923 -0.167998 0.880265
0.083481 -0.168139 0.881004
0.085057 -0.168310 0.881898
0.086661 -0.168531 0.883055
0.088256 -0.168726 0.884079
0.089890 -0.168988 0.885450
0.091555 -0.169298 0.887074
0.093253 -0.169659 0.888969
0.094963 -0.170031 0.890917
0.096663 -0.170372 0.892704
0.098355 -0.170690 0.894369
0.099970 -0.170866 0.895291
0.016353 -0.183679 0.962430
0.014607 -0.180580 0.954672
0.016195 -0.180282 0.953094
0.017805 -0.181886 0.953032
0.017771 -0.179934 0.951257
0.019293 -0.179129 0.947001
0.025016 -0.174387 0.921928
0.026529 -0.174087 0.920343
0.028045 -0.173840 0.919036
0.029549 -0.173544 0.917473
0.031044 -0.173232 0.915822
0.032523 -0.172868 0.913897
0.033973 -0.172383 0.911336
0.035402 -0.171840 0.908463
0.036825 -0.171318 0.905703
0.038243 -0.170810 0.903017
0.039662 -0.170350 0.900589
0.041096 -0.169982 0.898643
0.042535 -0.169662 0.896952
0.043968 -0.169341 0.895254
0.045405 -0.169059 0.893760
0.046840 -0.168783 0.892305
0.048270 -0.168510 0.890858
0.049698 -0.168247 0.889470
0.051102 -0.167917 0.887727
0.052499 -0.167586 0.885974
0.053916 -0.167336 0.884655
0.055338 -0.167114 0.883480
0.056770 -0.166934 0.882529
0.058199 -0.166752 0.881565
0.059632 -0.166594 0.880731
0.061052 -0.166404 0.879726
0.062482 -0.166251 0.878919
0.063892 -0.166056 0.877885
0.065327 -0.165931 0.877227
0.066766 -0.165821 0.876644
0.068193 -0.165688 0.875941
0.069640 -0.165607 0.875510
0.071125 -0.165619 0.875576
0.072593 -0.165590 0.875423
0.074088 -0.165624 0.875600
0.075627 -0.165753 0.876284
0.077174 -0.165893 0.877025
0.078725 -0.166039 0.877795
0.080322 -0.166271 0.879026
0.081891 -0.166440 0.879917
0.083455 -0.166594 0.880732
0.085038 -0.166778 0.881703
0.086642 -0.166998 0.882865
0.088239 -0.167194 0.883902
0.089872 -0.167452 0.885269
0.091527 -0.167743 0.886803
0.093234 -0.168118 0.888789
0.094946 -0.168490 0.890755
0.096656 -0.168847 0.892639
0.098356 -0.169175 0.894377
0.099969 -0.169346 0.895279
0.011479 -0.182162 0.963031
0.009792 -0.179444 0.957241
0.011401 -0.179304 0.956495
0.013010 -0.180815 0.955910
0.013003 -0.179091 0.955362
0.014596 -0.178819 0.953911
0.016176 -0.178462 0.952002
0.017739 -0.177992 0.949497
0.019253 -0.177159 0.945051
0.020732 -0.176147 0.939657
0.023558 -0.173561 0.925858
0.025028 -0.172906 0.922368
0.026531 -0.172538 0.920401
0.028039 -0.172242 0.918827
0.029539 -0.171931 0.917167
0.031027 -0.171585 0.915318
0.032502 -0.171205 0.913290
0.033946 -0.170703 0.910615
0.035373 -0.170161 0.907724
0.036796 -0.169646 0.904976
0.038217 -0.169163 0.902401
0.039637 -0.168715 0.900009
0.041070 -0.168352 0.898075
0.042503 -0.168018 0.896289
0.043926 -0.167664 0.894404
0.045357 -0.167365 0.892806
0.046785 -0.167076 0.891268
0.048215 -0.166808 0.889837
0.049642 -0.166550 0.888461
0.051049 -0.166241 0.886809
0.052450 -0.165931 0.885156
0.053862 -0.165670 0.883768
0.055288 -0.165466 0.882678
0.056724 -0.165302 0.881805
0.058168 -0.165171 0.881102
0.059609 -0.165037 0.880388
0.061052 -0.164914 0.879734
0.062501 -0.164813 0.879192
0.063926 -0.164654 0.878345
0.065364 -0.164536 0.877714
0.066803 -0.164427 0.877134
0.068224 -0.164277 0.876333
0.069656 -0.164161 0.875716
0.071126 -0.164137 0.875589
0.072585 -0.164090 0.875335
0.074072 -0.164105 0.875419
0.075596 -0.164202 0.875933
0.077134 -0.164323 0.876578
0.078676 -0.164448 0.877248
0.080264 -0.164664 0.878400
0.081833 -0.164833 0.879299
0.083397 -0.164986 0.880116
0.084979 -0.165168 0.881088
0.086581 -0.165385 0.882243
0.088168 -0.165562 0.883191
0.089790 -0.165802 0.884469
0.091434 -0.166072 0.885908
0.093115 -0.166399 0.887655
0.094825 -0.166768 0.889621
0.096536 -0.167125 0.891528
0.098235 -0.167452 0.893272
0.099856 -0.167639 0.894268
0.006610 -0.180927 0.965154
0.004950 -0.178293 0.959784
0.006564 -0.178056 0.958506
0.008181 -0.179602 0.958087
0.008175 -0.177859 0.957447
0.009785 -0.177701 0.956596
0.011392 -0.177543 0.955743
0.012991 -0.177313 0.954507
0.014582 -0.177040 0.953036
0.016156 -0.176632 0.950839
0.017710 -0.176098 0.947966
0.019219 -0.175241 0.943353
0.020700 -0.174285 0.938207
0.022135 -0.174688 0.931873
0.022137 -0.173124 0.931956
0.023569 -0.172071 0.926290
0.025033 -0.171373 0.922530
0.026524 -0.170932 0.920155
0.028019 -0.170565 0.918181
0.029515 -0.170238 0.916422
0.030995 -0.169860 0.914388
0.032465 -0.169464 0.912254
0.033907 -0.168966 0.909572
0.035336 -0.168445 0.906769
0.036761 -0.167955 0.904131
0.038189 -0.167513 0.901750
0.039613 -0.167088 0.899462
0.041049 -0.166744 0.897612
0.042477 -0.166395 0.895731
0.043894 -0.166027 0.893753
0.045315 -0.165697 0.891976
0.046732 -0.165378 0.890258
0.048154 -0.165093 0.888724
0.049580 -0.164839 0.887354
0.050991 -0.164550 0.885799
0.052396 -0.164261 0.884246
0.053812 -0.164020 0.882950
0.055243 -0.163836 0.881955
0.056682 -0.163688 0.881161
0.058132 -0.163575 0.880552
0.059583 -0.163473 0.880002
0.061039 -0.163387 0.879539
0.062494 -0.163305 0.879098
0.063932 -0.163181 0.878430
0.065377 -0.163082 0.877899
0.066819 -0.162977 0.877336
0.068239 -0.162828 0.876532
0.069664 -0.162695 0.875816
0.071120 -0.162639 0.875513
0.072572 -0.162575 0.875168
0.074051 -0.162576 0.875172
0.075560 -0.162637 0.875505
0.077086 -0.162736 0.876034
0.078625 -0.162856 0.876681
0.080197 -0.163038 0.877662
0.081758 -0.163192 0.878492
0.083312 -0.163328 0.879223
0.084891 -0.163507 0.880185
0.086485 -0.163706 0.881257
0.088060 -0.163865 0.882116
0.089671 -0.164083 0.883288
0.091301 -0.164330 0.884614
0.092967 -0.164632 0.886242
0.094665 -0.164980 0.888117
0.096374 -0.165336 0.890033
0.098064 -0.165649 0.891719
0.099703 -0.165868 0.892894
0.003352 -0.179614 0.966895
0.001706 -0.176797 0.960496
0.003329 -0.176714 0.960041
0.004948 -0.176600 0.959426
0.006562 -0.176367 0.958155
0.008171 -0.176139 0.956919
0.009779 -0.175962 0.955956
0.011382 -0.175768 0.954903
0.012977 -0.175503 0.953461
0.014565 -0.175213 0.951886
0.016138 -0.174826 0.949787
0.017686 -0.174255 0.946682
0.019191 -0.173395 0.942010
0.020670 -0.172442 0.936837
0.022124 -0.171441 0.931397
0.023571 -0.170515 0.926364
0.025030 -0.169793 0.922442
0.026514 -0.169309 0.919815
0.027999 -0.168886 0.917517
0.029490 -0.168542 0.915645
0.030965 -0.168149 0.913511
0.032430 -0.167739 0.911284
0.033875 -0.167266 0.908716
0.035313 -0.166804 0.906202
0.036747 -0.166356 0.903772
0.038182 -0.165953 0.901581
0.039609 -0.165547 0.899373
0.041040 -0.165189 0.897431
0.042464 -0.164826 0.895458
0.043872 -0.164430 0.893304
0.045283 -0.164069 0.891344
0.046689 -0.163717 0.889431
0.048100 -0.163401 0.887714
0.049518 -0.163129 0.886237
0.050931 -0.162858 0.884769
0.052342 -0.162594 0.883332
0.053763 -0.162375 0.882145
0.055202 -0.162222 0.881313
0.056646 -0.162090 0.880592
0.058100 -0.161994 0.880072
0.059552 -0.161897 0.879546
0.061013 -0.161828 0.879171
0.062479 -0.161774 0.878878
0.063929 -0.161683 0.878386
0.065382 -0.161604 0.877956
0.066830 -0.161519 0.877490
0.068257 -0.161385 0.876763
0.069675 -0.161236 0.875954
0.071125 -0.161166 0.875575
0.072570 -0.161089 0.875154
0.074037 -0.161060 0.874996
0.075523 -0.161074 0.875076
0.077031 -0.161135 0.875407
0.078552 -0.161219 0.875860
0.080100 -0.161354 0.876597
0.081650 -0.161490 0.877335
0.083202 -0.161623 0.878055
0.084770 -0.161783 0.878924
0.086351 -0.161962 0.879897
0.087932 -0.162133 0.880828
0.089539 -0.162348 0.881993
0.091157 -0.162573 0.883218
0.092807 -0.162849 0.884718
0.094488 -0.163169 0.886454
0.096171 -0.163483 0.888161
0.097843 -0.163768 0.889710
0.099480 -0.163987 0.890900
-0.001551 -0.177966 0.966843
-0.003183 -0.176163 0.965945
-0.001540 -0.175081 0.960014
0.000083 -0.176844 0.960746
0.000083 -0.175176 0.960532
0.001706 -0.175108 0.960163
0.003327 -0.175006 0.959603
0.004946 -0.174878 0.958898
0.006558 -0.174647 0.957635
0.008166 -0.174405 0.956307
0.009772 -0.174227 0.955328
0.011374 -0.174014 0.954161
0.012965 -0.173731 0.952610
0.014552 -0.173445 0.951044
0.016126 -0.173082 0.949053
0.017663 -0.172423 0.945435
0.019166 -0.171568 0.940749
0.020642 -0.170624 0.935574
0.022094 -0.169633 0.930138
0.023537 -0.168707 0.925059
0.025009 -0.168087 0.921662
0.026494 -0.167623 0.919118
0.027977 -0.167202 0.916810
0.029464 -0.166843 0.914839
0.030943 -0.166482 0.912860
0.032411 -0.166094 0.910736
0.033863 -0.165665 0.908385
0.035313 -0.165265 0.906190
0.036755 -0.164860 0.903967
0.038190 -0.164462 0.901785
0.039610 -0.164027 0.899398
0.041033 -0.163637 0.897262
0.042447 -0.163244 0.895106
0.043850 -0.162835 0.892862
0.045252 -0.162447 0.890734
0.046656 -0.162093 0.888795
0.048059 -0.161758 0.886961
0.049470 -0.161471 0.885384
0.050883 -0.161206 0.883932
0.052298 -0.160961 0.882587
0.053724 -0.160764 0.881511
0.055168 -0.160628 0.880764
0.056617 -0.160514 0.880137
0.058076 -0.160435 0.879703
0.059528 -0.160341 0.879192
0.060989 -0.160273 0.878817
0.062459 -0.160233 0.878597
0.063913 -0.160156 0.878173
0.065367 -0.160080 0.877758
0.066817 -0.159999 0.877313
0.068250 -0.159881 0.876667
0.069667 -0.159733 0.875855
0.071117 -0.159664 0.875475
0.072556 -0.159574 0.874982
0.074015 -0.159529 0.874737
0.075484 -0.159510 0.874633
0.076969 -0.159522 0.874698
0.078465 -0.159557 0.874889
0.079986 -0.159642 0.875356
0.081518 -0.159744 0.875917
0.083050 -0.159841 0.876450
0.084605 -0.159981 0.877213
0.086175 -0.160142 0.878098
0.087753 -0.160313 0.879036
0.089359 -0.160528 0.880216
0.090965 -0.160737 0.881360
0.092591 -0.160974 0.882660
0.094255 -0.161267 0.884266
0.095922 -0.161558 0.885860
0.097567 -0.161802 0.887200
0.099197 -0.162015 0.888365
-0.004812 -0.174393 0.965213
-0.003159 -0.173231 0.958782
-0.001540 -0.173362 0.959505
0.000083 -0.173420 0.959823
0.001705 -0.173349 0.959431
0.003325 -0.173250 0.958885
0.004942 -0.173124 0.958190
0.006554 -0.172916 0.957036
0.008161 -0.172691 0.955790
0.009767 -0.172512 0.954802
0.011366 -0.172281 0.953520
0.012957 -0.172000 0.951967
0.014542 -0.171716 0.950393
0.016117 -0.171378 0.948525
0.017648 -0.170681 0.944664
0.019146 -0.169802 0.939799
0.020616 -0.168824 0.934389
0.022063 -0.167819 0.928827
0.023502 -0.166884 0.923649
0.024977 -0.166311 0.920478
0.026466 -0.165888 0.918139
0.027951 -0.165490 0.915934
0.029435 -0.165133 0.913959
0.030913 -0.164775 0.911980
0.032387 -0.164428 0.910057
0.033849 -0.164057 0.908004
0.035307 -0.163701 0.906036
0.036757 -0.163337 0.904017
0.038192 -0.162942 0.901834
0.039603 -0.162475 0.899248
0.041016 -0.162052 0.896906
0.042425 -0.161642 0.894639
0.043819 -0.161207 0.892232
0.045215 -0.160808 0.890023
0.046618 -0.160457 0.888080
0.048015 -0.160109 0.886156
0.049425 -0.159824 0.884575
0.050846 -0.159590 0.883284
0.052266 -0.159367 0.882046
0.053698 -0.159191 0.881072
0.055146 -0.159072 0.880412
0.056599 -0.158973 0.879868
0.058053 -0.158882 0.879364
0.059506 -0.158792 0.878862
0.060965 -0.158722 0.878479
0.062434 -0.158681 0.878253
0.063888 -0.158605 0.877829
0.065343 -0.158533 0.877431
0.066792 -0.158452 0.876983
0.068224 -0.158336 0.876340
0.069641 -0.158188 0.875520
0.071077 -0.158091 0.874983
0.072514 -0.157999 0.874478
0.073971 -0.157953 0.874219
0.075432 -0.157917 0.874022
0.076906 -0.157910 0.873983
0.078391 -0.157925 0.874068
0.079895 -0.157977 0.874353
0.081407 -0.158043 0.874721
0.082919 -0.158106 0.875069
0.084447 -0.158198 0.875575
0.086005 -0.158340 0.876364
0.087572 -0.158496 0.877224
0.089168 -0.158697 0.878339
0.090774 -0.158908 0.879507
0.092381 -0.159115 0.880652
0.094020 -0.159370 0.882064
0.095661 -0.159620 0.883448
0.097269 -0.159809 0.884494
0.098873 -0.159984 0.885464
0.100904 -0.162344 0.890172
0.100573 -0.160308 0.887256
-0.006391 -0.171347 0.957334
-0.004775 -0.171427 0.957781
-0.003158 -0.171527 0.958339
-0.001538 -0.171620 0.958859
0.000083 -0.171675 0.959165
0.001703 -0.171605 0.958775
0.003322 -0.171509 0.958238
0.004939 -0.171387 0.957556
0.006550 -0.171199 0.956506
0.008157 -0.170974 0.955252
0.009762 -0.170800 0.954277
0.011360 -0.170571 0.952999
0.012950 -0.170293 0.951447
0.014535 -0.170027 0.949960
0.016111 -0.169712 0.948197
0.017637 -0.168973 0.944070
0.019128 -0.168045 0.938888
0.020591 -0.167042 0.933284
0.022032 -0.166010 0.927515
0.023465 -0.165058 0.922199
0.024944 -0.164536 0.919280
0.026437 -0.164156 0.917158
0.027921 -0.163766 0.914976
0.029408 -0.163430 0.913104
0.030888 -0.163095 0.911232
0.032367 -0.162786 0.909505
0.033839 -0.162471 0.907746
0.035304 -0.162153 0.905965
0.036754 -0.161793 0.903958
0.038189 -0.161399 0.901756
0.039591 -0.160900 0.898969
0.040991 -0.160430 0.896341
0.042393 -0.160004 0.893958
0.043786 -0.159572 0.891548
0.045177 -0.159165 0.889275
0.046580 -0.158823 0.887362
0.047981 -0.158493 0.885520
0.049390 -0.158213 0.883952
0.050816 -0.157999 0.882757
0.052241 -0.157796 0.881622
0.053682 -0.157651 0.880814
0.055135 -0.157549 0.880244
0.056594 -0.157467 0.879783
0.058043 -0.157362 0.879199
0.059494 -0.157271 0.878688
0.060941 -0.157172 0.878137
0.062398 -0.157101 0.877743
0.063845 -0.157011 0.877235
0.065298 -0.156939 0.876837
0.066747 -0.156860 0.876396
0.068184 -0.156759 0.875829
0.069606 -0.156625 0.875083
0.071041 -0.156528 0.874537
0.072477 -0.156436 0.874027
0.073932 -0.156389 0.873760
0.075391 -0.156352 0.873555
0.076858 -0.156332 0.873442
0.078334 -0.156330 0.873434
0.079820 -0.156348 0.873533
0.081313 -0.156380 0.873714
0.082806 -0.156411 0.873883
0.084316 -0.156470 0.874213
0.085854 -0.156580 0.874827
0.087416 -0.156729 0.875663
0.089001 -0.156913 0.876691
0.090604 -0.157122 0.877859
0.092226 -0.157359 0.879180
0.093855 -0.157598 0.880520
0.095483 -0.157829 0.881810
0.097077 -0.157996 0.882742
0.098664 -0.158149 0.883596
-0.009696 -0.172558 0.964101
-0.011229 -0.169456 0.955819
-0.009615 -0.169496 0.956045
-0.008006 -0.171274 0.956928
-0.008000 -0.169520 0.956183
-0.006386 -0.169592 0.956587
-0.004771 -0.169668 0.957020
-0.003155 -0.169748 0.957471
-0.001537 -0.169807 0.957799
0.000082 -0.169859 0.958092
0.001702 -0.169805 0.957789
0.003319 -0.169712 0.957267
0.004934 -0.169613 0.956708
0.006546 -0.169461 0.955851
0.008152 -0.169259 0.954712
0.009756 -0.169089 0.953752
0.011354 -0.168866 0.952492
0.012942 -0.168575 0.950854
0.014526 -0.168311 0.949365
0.016104 -0.168030 0.947780
0.017619 -0.167202 0.943111
0.019101 -0.166225 0.937595
0.020557 -0.165187 0.931742
0.021992 -0.164142 0.925847
0.023417 -0.163165 0.920336
0.024907 -0.162736 0.917917
0.026405 -0.162399 0.916017
0.027895 -0.162059 0.914097
0.029386 -0.161761 0.912417
0.030872 -0.161466 0.910755
0.032357 -0.161196 0.909228
0.033838 -0.160930 0.907730
0.035307 -0.160630 0.906041
0.036754 -0.160259 0.903943
0.038180 -0.159834 0.901548
0.039573 -0.159305 0.898562
0.040959 -0.158788 0.895649
0.042356 -0.158350 0.893176
0.043748 -0.157925 0.890782
0.045144 -0.157540 0.888609
0.046554 -0.157231 0.886868
0.047959 -0.156923 0.885128
0.049374 -0.156663 0.883663
0.050805 -0.156469 0.882570
0.052235 -0.156285 0.881530
0.053677 -0.156144 0.880734
0.055135 -0.156057 0.880244
0.056589 -0.155961 0.879703
0.058031 -0.155841 0.879026
0.059476 -0.155733 0.878416
0.060915 -0.155617 0.877760
0.062365 -0.155531 0.877277
0.063810 -0.155439 0.876761
0.065256 -0.155353 0.876275
0.066704 -0.155275 0.875836
0.068140 -0.155174 0.875262
0.069562 -0.155044 0.874530
0.070996 -0.154947 0.873981
0.072431 -0.154856 0.873472
0.073885 -0.154809 0.873207
0.075345 -0.154776 0.873021
0.076812 -0.154759 0.872922
0.078281 -0.154745 0.872843
0.079765 -0.154760 0.872930
0.081248 -0.154775 0.873014
0.082732 -0.154789 0.873093
0.084223 -0.154818 0.873256
0.085742 -0.154894 0.873685
0.087281 -0.155005 0.874313
0.088851 -0.155166 0.875220
0.090451 -0.155371 0.876377
0.092072 -0.155609 0.877715
0.093701 -0.155849 0.879072
0.095325 -0.156075 0.880345
0.096915 -0.156239 0.881268
0.098483 -0.156363 0.881970
-0.012826 -0.167590 0.954421
-0.011216 -0.167640 0.954706
-0.009604 -0.167679 0.954932
-0.007991 -0.167713 0.955126
-0.006379 -0.167767 0.955430
-0.004766 -0.167841 0.955853
-0.003151 -0.167920 0.956303
-0.001535 -0.167978 0.956631
0.000082 -0.168029 0.956923
0.001700 -0.168009 0.956807
0.003316 -0.167935 0.956387
0.004930 -0.167857 0.955944
0.006542 -0.167728 0.955210
0.008148 -0.167564 0.954275
0.009752 -0.167396 0.953318
0.011350 -0.167195 0.952171
0.012936 -0.166891 0.950443
0.014520 -0.166629 0.948948
0.016082 -0.166193 0.946465
0.017583 -0.165265 0.941182
0.019053 -0.164221 0.935235
0.020505 -0.163189 0.929358
0.021938 -0.162168 0.923543
0.023380 -0.161350 0.918888
0.024882 -0.161011 0.916956
0.026382 -0.160707 0.915224
0.027876 -0.160400 0.913477
0.029367 -0.160109 0.911818
0.030855 -0.159837 0.910269
0.032347 -0.159604 0.908941
0.033835 -0.159373 0.907627
0.035300 -0.159062 0.905856
0.036746 -0.158692 0.903746
0.038164 -0.158238 0.901162
0.039547 -0.157679 0.897979
0.040928 -0.157151 0.894972
0.042324 -0.156719 0.892511
0.043716 -0.156301 0.890129
0.045120 -0.155952 0.888144
0.046539 -0.155677 0.886576
0.047953 -0.155402 0.885013
0.049373 -0.155161 0.883640
0.050809 -0.154987 0.882647
0.052240 -0.154805 0.881613
0.053682 -0.154665 0.880814
0.055135 -0.154565 0.880244
0.056588 -0.154469 0.879697
0.058025 -0.154334 0.878932
0.059468 -0.154224 0.878301
0.060901 -0.154092 0.877550
0.062337 -0.153974 0.876880
0.063774 -0.153867 0.876268
0.065213 -0.153765 0.875687
0.066653 -0.153673 0.875168
0.068090 -0.153575 0.874610
0.069517 -0.153462 0.873966
0.070945 -0.153356 0.873358
0.072379 -0.153267 0.872853
0.073833 -0.153221 0.872588
0.075293 -0.153190 0.872412
0.076754 -0.153162 0.872255
0.078222 -0.153150 0.872186
0.079704 -0.153165 0.872270
0.081179 -0.153165 0.872270
0.082654 -0.153165 0.872270
0.084143 -0.153192 0.872426
0.085651 -0.153250 0.872758
0.087170 -0.153327 0.873196
0.088717 -0.153450 0.873898
0.090304 -0.153636 0.874953
0.091914 -0.153855 0.876203
0.093541 -0.154095 0.877570
0.095172 -0.154335 0.878933
0.096786 -0.154539 0.880096
0.098372 -0.154694 0.880981
-0.014434 -0.167533 0.954096
-0.016021 -0.165648 0.952559
-0.014414 -0.165680 0.952744
-0.012808 -0.165743 0.953107
-0.011200 -0.165790 0.953377
-0.009592 -0.165855 0.953749
-0.007982 -0.165892 0.953962
-0.006371 -0.165944 0.954262
-0.004760 -0.166016 0.954677
-0.003147 -0.166092 0.955114
-0.001533 -0.166153 0.955461
0.000082 -0.166204 0.955757
0.001698 -0.166202 0.955743
0.003313 -0.166147 0.955427
0.004927 -0.166108 0.955206
0.006537 -0.166002 0.954597
0.008145 -0.165876 0.953870
0.009750 -0.165742 0.953097
0.011349 -0.165575 0.952136
0.012938 -0.165305 0.950588
0.014527 -0.165097 0.949391
0.016072 -0.164485 0.945869
0.017562 -0.163467 0.940017
0.019020 -0.162352 0.933606
0.020462 -0.161282 0.927450
0.021887 -0.160233 0.921418
0.023349 -0.159579 0.917659
0.024854 -0.159279 0.915936
0.026354 -0.158989 0.914268
0.027846 -0.158685 0.912516
0.029338 -0.158412 0.910951
0.030830 -0.158165 0.909525
0.032327 -0.157967 0.908389
0.033821 -0.157770 0.907257
0.035286 -0.157464 0.905498
0.036731 -0.157098 0.903392
0.038145 -0.156632 0.900713
0.039527 -0.156075 0.897511
0.040906 -0.155551 0.894494
0.042307 -0.155141 0.892139
0.043703 -0.154746 0.889868
0.045116 -0.154433 0.888069
0.046544 -0.154190 0.886669
0.047968 -0.153949 0.885283
0.049394 -0.153728 0.884014
0.050831 -0.153556 0.883021
0.052266 -0.153386 0.882047
0.053707 -0.153244 0.881232
0.055151 -0.153117 0.880498
0.056599 -0.153007 0.879869
0.058030 -0.152859 0.879013
0.059467 -0.152732 0.878282
0.060888 -0.152573 0.877372
0.062312 -0.152428 0.876534
0.063742 -0.152304 0.875826
0.065172 -0.152186 0.875146
0.066605 -0.152080 0.874537
0.068041 -0.151983 0.873981
0.069469 -0.151875 0.873358
0.070890 -0.151758 0.872681
0.072329 -0.151682 0.872247
0.073781 -0.151635 0.871975
0.075239 -0.151603 0.871790
0.076707 -0.151590 0.871719
0.078181 -0.151592 0.871731
0.079663 -0.151607 0.871817
0.081137 -0.151607 0.871817
0.082611 -0.151607 0.871817
0.084093 -0.151622 0.871902
0.085583 -0.151652 0.872073
0.087092 -0.151712 0.872418
0.088620 -0.151803 0.872941
0.090186 -0.151954 0.873814
0.091785 -0.152157 0.874977
0.093418 -0.152407 0.876416
0.095048 -0.152645 0.877787
0.096671 -0.152865 0.879049
0.098274 -0.153048 0.880104
-0.016010 -0.163911 0.951846
-0.014399 -0.163900 0.951785
-0.012792 -0.163924 0.951924
-0.011184 -0.163947 0.952055
-0.009578 -0.164003 0.952381
-0.007970 -0.164042 0.952609
-0.006362 -0.164109 0.952998
-0.004754 -0.164195 0.953500
-0.003143 -0.164271 0.953938
-0.001531 -0.164333 0.954301
0.000082 -0.164404 0.954709
0.001696 -0.164403 0.954708
0.003310 -0.164383 0.954589
0.004923 -0.164381 0.954579
0.006535 -0.164314 0.954191
0.008144 -0.164242 0.953769
0.009752 -0.164159 0.953291
0.011354 -0.164029 0.952532
0.012948 -0.163816 0.951294
0.014540 -0.163637 0.950255
0.016064 -0.162799 0.945391
0.017536 -0.161637 0.938643
0.018976 -0.160399 0.931457
0.020403 -0.159245 0.924752
0.021840 -0.158332 0.919452
0.023323 -0.157843 0.916611
0.024830 -0.157577 0.915066
0.026327 -0.157275 0.913312
0.027820 -0.156988 0.911645
0.029311 -0.156720 0.910090
0.030804 -0.156491 0.908762
0.032300 -0.156297 0.907633
0.033796 -0.156119 0.906601
0.035261 -0.155819 0.904858
0.036706 -0.155459 0.902769
0.038119 -0.154998 0.900090
0.039507 -0.154476 0.897057
0.040890 -0.153973 0.894139
0.042295 -0.153586 0.891890
0.043704 -0.153242 0.889892
0.045126 -0.152962 0.888269
0.046560 -0.152739 0.886973
0.047994 -0.152533 0.885774
0.049426 -0.152330 0.884597
0.050864 -0.152159 0.883606
0.052299 -0.151988 0.882608
0.053740 -0.151844 0.881772
0.055179 -0.151701 0.880945
0.056623 -0.151578 0.880232
0.058048 -0.151416 0.879287
0.059480 -0.151276 0.878476
0.060890 -0.151089 0.877392
0.062302 -0.150918 0.876398
0.063725 -0.150779 0.875589
0.065147 -0.150645 0.874814
0.066573 -0.150525 0.874114
0.068014 -0.150442 0.873634
0.069441 -0.150336 0.873015
0.070862 -0.150218 0.872333
0.072300 -0.150142 0.871888
0.073748 -0.150090 0.871591
0.075199 -0.150045 0.871326
0.076665 -0.150031 0.871244
0.078139 -0.150032 0.871253
0.079619 -0.150047 0.871337
0.081092 -0.150047 0.871337
0.082565 -0.150047 0.871337
0.084046 -0.150062 0.871424
0.085529 -0.150079 0.871522
0.087030 -0.150126 0.871795
0.088548 -0.150201 0.872233
0.090095 -0.150322 0.872933
0.091681 -0.150503 0.873987
0.093303 -0.150736 0.875340
0.094923 -0.150959 0.876633
0.096536 -0.151164 0.877826
0.098139 -0.151347 0.878888
-0.017614 -0.162256 0.951606
-0.016001 -0.162207 0.951320
-0.014389 -0.162173 0.951118
-0.012781 -0.162164 0.951065
-0.011172 -0.162150 0.950986
-0.009568 -0.162208 0.951321
-0.007961 -0.162246 0.951548
-0.006355 -0.162313 0.951942
-0.004749 -0.162399 0.952443
-0.003140 -0.162474 0.952887
-0.001529 -0.162536 0.953249
0.000082 -0.162607 0.953667
0.001694 -0.162623 0.953760
0.003307 -0.162638 0.953846
0.004921 -0.162687 0.954135
0.006534 -0.162678 0.954081
0.008146 -0.162661 0.953981
0.009756 -0.162618 0.953730
0.011363 -0.162541 0.953278
0.012962 -0.162390 0.952388
0.014541 -0.162041 0.950343
0.016043 -0.160994 0.944204
0.017501 -0.159733 0.936807
0.018925 -0.158393 0.928949
0.020337 -0.157165 0.921747
0.021794 -0.156441 0.917501
0.023298 -0.156122 0.915632
0.024806 -0.155873 0.914172
0.026301 -0.155576 0.912427
0.027793 -0.155292 0.910764
0.029283 -0.155028 0.909217
0.030772 -0.154787 0.907800
0.032263 -0.154581 0.906590
0.033757 -0.154404 0.905554
0.035223 -0.154120 0.903889
0.036671 -0.153783 0.901914
0.038087 -0.153346 0.899349
0.039486 -0.152876 0.896593
0.040881 -0.152425 0.893948
0.042291 -0.152060 0.891810
0.043710 -0.151752 0.890002
0.045145 -0.151519 0.888635
0.046589 -0.151330 0.887527
0.048030 -0.151143 0.886429
0.049469 -0.150960 0.885358
0.050908 -0.150790 0.884362
0.052338 -0.150605 0.883271
0.053775 -0.150445 0.882336
0.055204 -0.150277 0.881348
0.056638 -0.150126 0.880468
0.058056 -0.149946 0.879411
0.059482 -0.149792 0.878503
0.060886 -0.149592 0.877331
0.062298 -0.149422 0.876337
0.063720 -0.149283 0.875520
0.065136 -0.149136 0.874657
0.066560 -0.149014 0.873943
0.068000 -0.148932 0.873463
0.069421 -0.148813 0.872766
0.070841 -0.148695 0.872073
0.072276 -0.148616 0.871606
0.073718 -0.148551 0.871227
0.075161 -0.148492 0.870883
0.076626 -0.148478 0.870801
0.078098 -0.148479 0.870807
0.079578 -0.148493 0.870885
0.081050 -0.148493 0.870885
0.082522 -0.148493 0.870885
0.084003 -0.148507 0.870969
0.085484 -0.148523 0.871062
0.086975 -0.148554 0.871247
0.088484 -0.148615 0.871600
0.090021 -0.148719 0.872214
0.091588 -0.148869 0.873095
0.093197 -0.149082 0.874341
0.094805 -0.149286 0.875541
0.096406 -0.149474 0.876642
0.097996 -0.149640 0.877612
-0.017612 -0.160621 0.951475
-0.015997 -0.160557 0.951096
-0.014385 -0.160511 0.950821
-0.012774 -0.160462 0.950532
-0.011163 -0.160414 0.950248
-0.009559 -0.160451 0.950467
-0.007953 -0.160472 0.950591
-0.006348 -0.160525 0.950908
-0.004743 -0.160609 0.951405
-0.003137 -0.160701 0.951951
-0.001528 -0.160777 0.952397
0.000082 -0.160848 0.952818
0.001693 -0.160862 0.952904
0.003305 -0.160909 0.953180
0.004918 -0.160980 0.953603
0.006532 -0.161027 0.953882
0.008148 -0.161084 0.954217
0.009764 -0.161130 0.954491
0.011377 -0.161126 0.954465
0.012987 -0.161079 0.954191
0.014552 -0.160552 0.951067
0.016034 -0.159299 0.943642
0.018887 -0.156499 0.927060
0.020280 -0.155171 0.919192
0.021756 -0.154615 0.915899
0.023275 -0.154418 0.914729
0.024779 -0.154157 0.913187
0.026273 -0.153867 0.911464
0.027761 -0.153572 0.909720
0.029246 -0.153295 0.908080
0.030733 -0.153054 0.906651
0.032219 -0.152832 0.905336
0.033710 -0.152655 0.904289
0.035181 -0.152403 0.902795
0.036634 -0.152101 0.901007
0.038058 -0.151703 0.898650
0.039469 -0.151288 0.896189
0.040876 -0.150890 0.893833
0.042291 -0.150548 0.891806
0.043718 -0.150273 0.890179
0.045163 -0.150072 0.888986
0.046613 -0.149902 0.887979
0.048060 -0.149733 0.886979
0.049504 -0.149567 0.885997
0.050940 -0.149385 0.884919
0.052366 -0.149186 0.883740
0.053803 -0.149028 0.882804
0.055223 -0.148833 0.881646
0.056656 -0.148682 0.880749
0.058074 -0.148501 0.879681
0.059493 -0.148329 0.878664
0.060890 -0.148116 0.877401
0.062302 -0.147947 0.876398
0.063713 -0.147783 0.875426
0.065128 -0.147636 0.874557
0.066553 -0.147516 0.873844
0.067993 -0.147436 0.873369
0.069408 -0.147305 0.872597
0.070827 -0.147188 0.871902
0.072261 -0.147107 0.871424
0.073696 -0.147031 0.870969
0.075132 -0.146960 0.870553
0.076597 -0.146947 0.870475
0.078069 -0.146947 0.870475
0.079533 -0.146934 0.870397
0.080997 -0.146920 0.870313
0.082460 -0.146905 0.870227
0.083938 -0.146917 0.870299
0.085418 -0.146933 0.870389
0.086915 -0.146976 0.870646
0.088422 -0.147035 0.870993
0.089948 -0.147121 0.871507
0.091496 -0.147241 0.872217
0.093083 -0.147420 0.873279
0.094678 -0.147605 0.874372
0.096265 -0.147772 0.875359
0.097850 -0.147931 0.876304
0.099549 -0.149744 0.878226
0.099399 -0.148032 0.876900
-0.017617 -0.159052 0.951737
-0.015997 -0.158941 0.951072
-0.014381 -0.158857 0.950574
-0.012768 -0.158783 0.950130
-0.011157 -0.158719 0.949743
-0.009554 -0.158752 0.949945
-0.007949 -0.158771 0.950055
-0.006345 -0.158821 0.950356
-0.004741 -0.158906 0.950862
-0.003135 -0.158997 0.951410
-0.001527 -0.159057 0.951767
0.000082 -0.159094 0.951988
0.001691 -0.159074 0.951868
0.003301 -0.159087 0.951946
0.004913 -0.159190 0.952565
0.006528 -0.159310 0.953280
0.008148 -0.159459 0.954176
0.009770 -0.159609 0.955071
0.011393 -0.159736 0.955833
0.013011 -0.159752 0.955928
0.014578 -0.159223 0.952761
0.016043 -0.157790 0.944189
0.017461 -0.156197 0.934657
0.018842 -0.154560 0.924861
0.020239 -0.153301 0.917323
0.021731 -0.152889 0.914862
0.023248 -0.152691 0.913677
0.024751 -0.152433 0.912134
0.026243 -0.152147 0.910417
0.027727 -0.151842 0.908593
0.029212 -0.151579 0.907021
0.030693 -0.151323 0.905488
0.032174 -0.151088 0.904084
0.033660 -0.150897 0.902943
0.035135 -0.150676 0.901619
0.036591 -0.150396 0.899941
0.038025 -0.150053 0.897887
0.039448 -0.149691 0.895721
0.040867 -0.149344 0.893646
0.042287 -0.149021 0.891717
0.043722 -0.148778 0.890259
0.045172 -0.148594 0.889162
0.046631 -0.148456 0.888332
0.048084 -0.148306 0.887434
0.049534 -0.148154 0.886524
0.050965 -0.147959 0.885357
0.052391 -0.147758 0.884156
0.053823 -0.147587 0.883136
0.055239 -0.147380 0.881898
0.056667 -0.147216 0.880916
0.058084 -0.147034 0.879828
0.059496 -0.146849 0.878717
0.060889 -0.146625 0.877379
0.062300 -0.146457 0.876371
0.063706 -0.146282 0.875325
0.065121 -0.146136 0.874450
0.066544 -0.146016 0.873733
0.067979 -0.145926 0.873193
0.069388 -0.145785 0.872348
0.070813 -0.145681 0.871731
0.072247 -0.145602 0.871253
0.073675 -0.145514 0.870730
0.075112 -0.145445 0.870313
0.076575 -0.145430 0.870227
0.078039 -0.145416 0.870144
0.079495 -0.145389 0.869983
0.080957 -0.145374 0.869890
0.082419 -0.145357 0.869792
0.083888 -0.145356 0.869783
0.085360 -0.145357 0.869792
0.086855 -0.145400 0.870046
0.088361 -0.145457 0.870390
0.089878 -0.145530 0.870826
0.091414 -0.145632 0.871436
0.092989 -0.145792 0.872390
0.094561 -0.145942 0.873292
0.096119 -0.146067 0.874038
0.097701 -0.146222 0.874966
0.099256 -0.146334 0.875635
-0.017623 -0.157492 0.952059
-0.015999 -0.157355 0.951232
-0.014381 -0.157246 0.950574
-0.012767 -0.157157 0.950038
-0.011155 -0.157077 0.949551
-0.009551 -0.157092 0.949643
-0.007945 -0.157093 0.949650
-0.006341 -0.157126 0.949845
-0.004738 -0.157209 0.950347
-0.003133 -0.157298 0.950886
-0.001526 -0.157343 0.951162
0.000082 -0.157346 0.951176
0.001689 -0.157304 0.950927
0.003296 -0.157278 0.950766
0.004908 -0.157410 0.951565
0.006524 -0.157600 0.952713
0.008146 -0.157819 0.954039
0.009776 -0.158086 0.955649
0.011410 -0.158342 0.957196
0.013035 -0.158423 0.957689
0.014604 -0.157882 0.954418
0.017454 -0.154548 0.934265
0.018810 -0.152737 0.923315
0.020188 -0.151359 0.914984
0.021707 -0.151166 0.913821
0.023221 -0.150968 0.912621
0.024725 -0.150728 0.911171
0.026215 -0.150445 0.909459
0.027700 -0.150157 0.907718
0.029181 -0.149882 0.906056
0.030657 -0.149612 0.904423
0.032133 -0.149365 0.902932
0.033614 -0.149164 0.901718
0.035091 -0.148963 0.900500
0.036553 -0.148717 0.899014
0.037998 -0.148424 0.897244
0.039432 -0.148112 0.895359
0.040863 -0.147815 0.893562
0.042287 -0.147511 0.891725
0.043727 -0.147283 0.890347
0.045180 -0.147115 0.889331
0.046641 -0.146980 0.888515
0.048095 -0.146834 0.887632
0.049545 -0.146684 0.886722
0.050980 -0.146500 0.885612
0.052400 -0.146285 0.884315
0.053827 -0.146101 0.883199
0.055243 -0.145896 0.881963
0.056671 -0.145734 0.880980
0.058084 -0.145542 0.879821
0.059496 -0.145360 0.878721
0.060889 -0.145138 0.877378
0.062301 -0.144972 0.876373
0.063700 -0.144784 0.875241
0.065113 -0.144638 0.874357
0.066537 -0.144519 0.873634
0.067965 -0.144416 0.873015
0.069374 -0.144276 0.872171
0.070805 -0.144187 0.871633
0.072239 -0.144109 0.871160
0.073661 -0.144010 0.870562
0.075096 -0.143940 0.870137
0.076551 -0.143910 0.869954
0.078006 -0.143881 0.869777
0.079447 -0.143827 0.869453
0.080907 -0.143810 0.869349
0.082366 -0.143791 0.869236
0.083835 -0.143790 0.869227
0.085306 -0.143792 0.869245
0.086802 -0.143837 0.869516
0.088300 -0.143882 0.869784
0.089814 -0.143953 0.870214
0.091340 -0.144039 0.870734
0.092887 -0.144155 0.871437
0.094439 -0.144275 0.872163
0.095984 -0.144381 0.872802
0.097538 -0.144498 0.873513
0.099076 -0.144588 0.874051
-0.019256 -0.156067 0.953215
-0.017630 -0.155940 0.952439
-0.016004 -0.155785 0.951490
-0.014384 -0.155667 0.950769
-0.012771 -0.155595 0.950329
-0.011159 -0.155515 0.949845
-0.009552 -0.155500 0.949753
-0.007946 -0.155499 0.949743
-0.006341 -0.155497 0.949736
-0.004737 -0.155548 0.950045
-0.003132 -0.155620 0.950485
-0.001525 -0.155648 0.950654
0.000082 -0.155571 0.950184
0.001687 -0.155460 0.949505
0.003288 -0.155258 0.948273
0.004890 -0.155213 0.948000
0.006493 -0.155244 0.948189
0.008109 -0.155484 0.949651
0.009741 -0.155909 0.952250
0.011390 -0.156452 0.955565
0.013035 -0.156804 0.957718
0.014626 -0.156504 0.955884
0.018802 -0.151103 0.922895
0.020167 -0.149653 0.914038
0.021685 -0.149470 0.912920
0.023199 -0.149276 0.911735
0.024703 -0.149053 0.910375
0.026193 -0.148776 0.908680
0.027674 -0.148479 0.906866
0.029151 -0.148192 0.905114
0.030625 -0.147923 0.903475
0.032097 -0.147667 0.901907
0.033576 -0.147468 0.900696
0.035059 -0.147300 0.899665
0.036527 -0.147086 0.898360
0.037979 -0.146829 0.896793
0.039424 -0.146566 0.895183
0.040864 -0.146303 0.893577
0.042292 -0.146016 0.891828
0.043731 -0.145790 0.890445
0.045189 -0.145635 0.889500
0.046646 -0.145490 0.888611
0.048101 -0.145347 0.887737
0.049551 -0.145199 0.886835
0.050986 -0.145014 0.885707
0.052401 -0.144788 0.884324
0.053827 -0.144604 0.883199
0.055238 -0.144388 0.881884
0.056666 -0.144227 0.880901
0.058078 -0.144038 0.879742
0.059492 -0.143860 0.878655
0.060885 -0.143641 0.877322
0.062297 -0.143478 0.876326
0.063689 -0.143276 0.875092
0.065101 -0.143129 0.874194
0.066524 -0.143010 0.873463
0.067946 -0.142895 0.872766
0.069360 -0.142769 0.871995
0.070796 -0.142692 0.871522
0.072231 -0.142616 0.871062
0.073647 -0.142506 0.870389
0.075081 -0.142435 0.869954
0.076525 -0.142387 0.869659
0.077964 -0.142329 0.869308
0.079388 -0.142248 0.868811
0.080840 -0.142217 0.868624
0.082291 -0.142187 0.868438
0.083758 -0.142186 0.868434
0.085229 -0.142190 0.868458
0.086724 -0.142234 0.868727
0.088219 -0.142278 0.868992
0.089733 -0.142348 0.869425
0.091241 -0.142408 0.869792
0.092777 -0.142509 0.870403
0.094315 -0.142610 0.871022
0.095848 -0.142699 0.871568
0.097391 -0.142801 0.872191
0.098936 -0.142904 0.872818
-0.020877 -0.156146 0.953698
-0.020882 -0.154566 0.953925
-0.019259 -0.154480 0.953389
-0.017634 -0.154367 0.952696
-0.016007 -0.154210 0.951726
-0.014389 -0.154105 0.951078
-0.012775 -0.154036 0.950650
-0.011162 -0.153958 0.950172
-0.009554 -0.153927 0.949980
-0.007948 -0.153923 0.949953
-0.006341 -0.153889 0.949743
-0.004735 -0.153890 0.949753
-0.003130 -0.153927 0.949981
-0.001524 -0.153874 0.949655
0.000082 -0.153699 0.948573
0.001682 -0.153445 0.947005
0.003275 -0.153075 0.944722
0.004865 -0.152842 0.943285
0.006456 -0.152742 0.942665
0.008059 -0.152923 0.943781
0.009698 -0.153615 0.948056
0.013036 -0.155187 0.957753
0.014682 -0.155474 0.959527
0.016150 -0.154007 0.950470
0.018807 -0.149581 0.923157
0.020138 -0.147896 0.912756
0.021659 -0.147746 0.911830
0.023171 -0.147559 0.910677
0.024677 -0.147357 0.909429
0.026166 -0.147082 0.907737
0.027646 -0.146791 0.905941
0.029121 -0.146508 0.904189
0.030597 -0.146255 0.902633
0.032070 -0.146014 0.901143
0.033552 -0.145834 0.900035
0.035037 -0.145683 0.899098
0.036511 -0.145500 0.897969
0.037967 -0.145262 0.896501
0.039416 -0.145019 0.895004
0.040861 -0.144776 0.893503
0.042293 -0.144509 0.891854
0.043732 -0.144283 0.890459
0.045189 -0.144129 0.889508
0.046646 -0.143983 0.888611
0.048101 -0.143842 0.887737
0.049551 -0.143696 0.886835
0.050981 -0.143501 0.885636
0.052397 -0.143277 0.884252
0.053823 -0.143096 0.883136
0.055234 -0.142882 0.881812
0.056666 -0.142735 0.880909
0.058084 -0.142560 0.879827
0.059504 -0.142398 0.878828
0.060903 -0.142196 0.877580
0.062316 -0.142034 0.876583
0.063701 -0.141821 0.875264
0.065113 -0.141673 0.874352
0.066529 -0.141540 0.873532
0.067939 -0.141401 0.872676
0.069353 -0.141276 0.871902
0.070788 -0.141198 0.871424
0.072223 -0.141125 0.870969
0.073633 -0.141004 0.870222
0.075065 -0.140932 0.869777
0.076494 -0.140856 0.869308
0.077916 -0.140769 0.868776
0.079324 -0.140661 0.868104
0.080766 -0.140616 0.867829
0.082207 -0.140572 0.867560
0.083675 -0.140574 0.867567
0.085144 -0.140578 0.867593
0.086636 -0.140620 0.867854
0.088129 -0.140661 0.868108
0.089633 -0.140717 0.868453
0.091138 -0.140775 0.868812
0.092665 -0.140862 0.869349
0.094191 -0.140947 0.869874
0.095710 -0.141018 0.870309
0.097247 -0.141114 0.870900
0.098789 -0.141213 0.871516
