1706
0.079465 -0.142066 0.886047
0.080930 -0.142008 0.885686
0.082394 -0.141950 0.885325
0.083855 -0.141890 0.884947
0.085331 -0.141856 0.884737
0.086800 -0.141812 0.884465
0.088270 -0.141772 0.884212
0.089729 -0.141716 0.883868
0.091185 -0.141657 0.883494
0.092621 -0.141568 0.882941
0.094056 -0.141481 0.882400
0.095500 -0.141411 0.881961
0.096971 -0.141382 0.881780
0.098443 -0.141355 0.881614
0.099933 -0.141355 0.881614
0.101433 -0.141368 0.881694
0.102944 -0.141396 0.881866
0.104476 -0.141452 0.882219
0.106013 -0.141512 0.882593
0.107561 -0.141587 0.883058
0.109131 -0.141687 0.883683
0.110738 -0.141831 0.884580
0.112342 -0.141969 0.885441
0.113973 -0.142135 0.886480
0.115624 -0.142323 0.887651
0.117256 -0.142483 0.888649
0.119077 -0.144376 0.891033
0.118859 -0.142603 0.889397
-0.026912 -0.149000 0.939222
-0.025324 -0.149000 0.939222
-0.023723 -0.148915 0.938689
-0.022120 -0.148807 0.938004
-0.020512 -0.148647 0.936998
-0.018903 -0.148449 0.935750
-0.017294 -0.148221 0.934314
-0.015693 -0.148014 0.933008
-0.014100 -0.147850 0.931972
-0.012514 -0.147736 0.931254
-0.010937 -0.147689 0.930958
-0.009362 -0.147681 0.930911
-0.007793 -0.147761 0.931411
-0.006223 -0.147873 0.932119
-0.004652 -0.148033 0.933131
-0.003079 -0.148233 0.934389
-0.001501 -0.148448 0.935743
0.000081 -0.148613 0.936786
0.001665 -0.148635 0.936920
0.003248 -0.148611 0.936773
0.004828 -0.148513 0.936153
0.006407 -0.148424 0.935593
0.007987 -0.148396 0.935416
0.009566 -0.148354 0.935154
0.011149 -0.148380 0.935318
0.012740 -0.148491 0.936014
0.014329 -0.148569 0.936509
0.015870 -0.148167 0.933973
0.018912 -0.147267 0.928303
0.020391 -0.146620 0.924224
0.021881 -0.146137 0.921177
0.023409 -0.145949 0.919989
0.024924 -0.145718 0.918537
0.026432 -0.145472 0.916984
0.027940 -0.145251 0.915589
0.029429 -0.144962 0.913768
0.030918 -0.144699 0.912114
0.032401 -0.144438 0.910468
0.033887 -0.144209 0.909022
0.035375 -0.144013 0.907785
0.036865 -0.143836 0.906674
0.038350 -0.143659 0.905554
0.039838 -0.143504 0.904579
0.041314 -0.143320 0.903421
0.042784 -0.143126 0.902199
0.044266 -0.142987 0.901322
0.045756 -0.142882 0.900657
0.047250 -0.142796 0.900120
0.048738 -0.142699 0.899504
0.050232 -0.142622 0.899021
0.051718 -0.142529 0.898431
0.053178 -0.142371 0.897435
0.054633 -0.142210 0.896422
0.056072 -0.142017 0.895204
0.057511 -0.141833 0.894043
0.058948 -0.141653 0.892910
0.060401 -0.141521 0.892082
0.061860 -0.141409 0.891373
0.063334 -0.141336 0.890912
0.064800 -0.141248 0.890361
0.066264 -0.141161 0.889809
0.067734 -0.141089 0.889358
0.069202 -0.141017 0.888902
0.070689 -0.140986 0.888706
0.072177 -0.140956 0.888520
0.073650 -0.140901 0.888169
0.075112 -0.140828 0.887713
0.076571 -0.140750 0.887221
0.078014 -0.140647 0.886571
0.079463 -0.140560 0.886023
0.080927 -0.140502 0.885656
0.082399 -0.140459 0.885383
0.083871 -0.140416 0.885116
0.085358 -0.140401 0.885018
0.086837 -0.140373 0.884844
0.088317 -0.140348 0.884684
0.089778 -0.140294 0.884345
0.091235 -0.140236 0.883978
0.092672 -0.140148 0.883427
0.094098 -0.140048 0.882793
0.095530 -0.139960 0.882239
0.096990 -0.139915 0.881955
0.098452 -0.139873 0.881694
0.099933 -0.139861 0.881614
0.101424 -0.139861 0.881614
0.102924 -0.139873 0.881694
0.104435 -0.139901 0.881866
0.105947 -0.139930 0.882050
0.107471 -0.139972 0.882317
0.109017 -0.140042 0.882754
0.110599 -0.140155 0.883469
0.112179 -0.140263 0.884150
0.113783 -0.140399 0.885004
0.115409 -0.140557 0.886002
0.117016 -0.140688 0.886831
0.118602 -0.140791 0.887480
-0.025324 -0.147408 0.939222
-0.023724 -0.147329 0.938722
-0.022127 -0.147265 0.938312
-0.020521 -0.147125 0.937423
-0.018917 -0.146973 0.936453
-0.017309 -0.146766 0.935136
-0.015708 -0.146576 0.933923
-0.014111 -0.146385 0.932708
-0.012524 -0.146272 0.931988
-0.010943 -0.146195 0.931494
-0.009367 -0.146168 0.931322
-0.007795 -0.146215 0.931625
-0.006224 -0.146325 0.932326
-0.004653 -0.146472 0.933262
-0.003079 -0.146637 0.934315
-0.001501 -0.146784 0.935248
0.000081 -0.146892 0.935936
0.001662 -0.146833 0.935562
0.003241 -0.146705 0.934746
0.004814 -0.146498 0.933428
0.006383 -0.146292 0.932116
0.007948 -0.146079 0.930754
0.009506 -0.145848 0.929283
0.011067 -0.145716 0.928443
0.012645 -0.145812 0.929054
0.014223 -0.145893 0.929570
0.015778 -0.145735 0.928562
0.017334 -0.145621 0.927839
0.018870 -0.145372 0.926250
0.020369 -0.144894 0.923205
0.021879 -0.144559 0.921073
0.023406 -0.144375 0.919902
0.024927 -0.144178 0.918642
0.026438 -0.143950 0.917190
0.027950 -0.143748 0.915906
0.029442 -0.143476 0.914171
0.030931 -0.143215 0.912508
0.032412 -0.142940 0.910757
0.033890 -0.142682 0.909110
0.035371 -0.142457 0.907678
0.036852 -0.142252 0.906370
0.038333 -0.142059 0.905144
0.039820 -0.141907 0.904177
0.041297 -0.141728 0.903033
0.042770 -0.141552 0.901910
0.044256 -0.141429 0.901127
0.045751 -0.141339 0.900558
0.047245 -0.141257 0.900030
0.048738 -0.141174 0.899504
0.050232 -0.141098 0.899021
0.051723 -0.141019 0.898514
0.053188 -0.140876 0.897606
0.054649 -0.140732 0.896686
0.056084 -0.140528 0.895390
0.057517 -0.140332 0.894136
0.058941 -0.140122 0.892803
0.060388 -0.139978 0.891883
0.061840 -0.139854 0.891090
0.063315 -0.139783 0.890642
0.064786 -0.139709 0.890168
0.066255 -0.139633 0.889686
0.067724 -0.139561 0.889226
0.069193 -0.139492 0.888788
0.070688 -0.139477 0.888688
0.072176 -0.139449 0.888513
0.073650 -0.139396 0.888175
0.075113 -0.139325 0.887722
0.076572 -0.139248 0.887232
0.078007 -0.139133 0.886500
0.079449 -0.139033 0.885865
0.080905 -0.138963 0.885413
0.082386 -0.138935 0.885238
0.083867 -0.138910 0.885081
0.085373 -0.138925 0.885172
0.086870 -0.138926 0.885179
0.088374 -0.138938 0.885259
0.089837 -0.138886 0.884923
0.091294 -0.138828 0.884553
0.092730 -0.138738 0.883985
0.094147 -0.138624 0.883253
0.095560 -0.138509 0.882521
0.097010 -0.138448 0.882136
0.098462 -0.138392 0.881780
0.099933 -0.138366 0.881614
0.101424 -0.138366 0.881614
0.102914 -0.138366 0.881614
0.104414 -0.138379 0.881694
0.105915 -0.138392 0.881780
0.107407 -0.138394 0.881789
0.108918 -0.138420 0.881956
0.110473 -0.138500 0.882465
0.112025 -0.138574 0.882938
0.113592 -0.138665 0.883521
0.115202 -0.138805 0.884409
0.116781 -0.138905 0.885044
0.118352 -0.138993 0.885606
-0.023725 -0.145746 0.938775
-0.022131 -0.145699 0.938473
-0.020527 -0.145580 0.937702
-0.018928 -0.145469 0.936992
-0.017323 -0.145298 0.935889
-0.015723 -0.145126 0.934782
-0.014125 -0.144953 0.933664
-0.012538 -0.144850 0.933006
-0.010953 -0.144742 0.932310
-0.009373 -0.144682 0.931923
-0.007798 -0.144696 0.932008
-0.006225 -0.144771 0.932494
-0.004652 -0.144871 0.933140
-0.003077 -0.144986 0.933878
-0.001499 -0.145052 0.934306
0.000080 -0.145065 0.934390
0.001658 -0.144901 0.933329
0.003231 -0.144667 0.931822
0.004796 -0.144364 0.929874
0.006355 -0.144059 0.927911
0.007904 -0.143712 0.925673
0.009446 -0.143366 0.923447
0.010991 -0.143146 0.922030
0.012557 -0.143240 0.922632
0.014125 -0.143322 0.923160
0.015695 -0.143406 0.923704
0.017272 -0.143536 0.924541
0.018834 -0.143528 0.924486
0.020351 -0.143202 0.922390
0.021879 -0.142999 0.921082
0.023406 -0.142816 0.919905
0.024930 -0.142636 0.918740
0.026442 -0.142413 0.917307
0.027953 -0.142215 0.916028
0.029449 -0.141960 0.914385
0.030939 -0.141704 0.912737
0.032417 -0.141418 0.910899
0.033891 -0.141146 0.909147
0.035367 -0.140903 0.907581
0.036840 -0.140667 0.906060
0.038316 -0.140463 0.904743
0.039802 -0.140312 0.903774
0.041279 -0.140139 0.902661
0.042757 -0.139980 0.901637
0.044248 -0.139874 0.900951
0.045746 -0.139799 0.900468
0.047241 -0.139717 0.899940
0.048738 -0.139648 0.899495
0.050231 -0.139572 0.899009
0.051722 -0.139494 0.898504
0.053192 -0.139366 0.897682
0.054660 -0.139239 0.896864
0.056101 -0.139053 0.895661
0.057540 -0.138872 0.894496
0.058964 -0.138664 0.893158
0.060405 -0.138506 0.892138
0.061852 -0.138369 0.891256
0.063315 -0.138273 0.890640
0.064773 -0.138173 0.889993
0.066235 -0.138083 0.889418
0.067703 -0.138011 0.888949
0.069172 -0.137944 0.888520
0.070674 -0.137943 0.888513
0.072169 -0.137930 0.888432
0.073657 -0.137904 0.888264
0.075129 -0.137848 0.887904
0.076596 -0.137788 0.887515
0.078039 -0.137686 0.886862
0.079488 -0.137600 0.886304
0.080938 -0.137517 0.885771
0.082426 -0.137501 0.885668
0.083917 -0.137491 0.885601
0.085432 -0.137521 0.885794
0.086933 -0.137525 0.885822
0.088446 -0.137550 0.885982
0.089908 -0.137495 0.885630
0.091366 -0.137436 0.885251
0.092795 -0.137336 0.884607
0.094212 -0.137222 0.883871
0.095618 -0.137095 0.883054
0.097048 -0.137007 0.882486
0.098481 -0.136925 0.881955
0.099942 -0.136884 0.881694
0.101424 -0.136872 0.881614
0.102914 -0.136872 0.881614
0.104405 -0.136872 0.881614
0.105886 -0.136859 0.881534
0.107355 -0.136833 0.881363
0.108832 -0.136817 0.881260
0.110351 -0.136853 0.881492
0.111876 -0.136896 0.881769
0.113426 -0.136967 0.882228
0.115009 -0.137076 0.882933
0.116572 -0.137159 0.883462
0.118127 -0.137231 0.883925
-0.022138 -0.144158 0.938793
-0.020540 -0.144080 0.938291
-0.018945 -0.144014 0.937859
-0.017344 -0.143882 0.936997
-0.015741 -0.143712 0.935894
-0.014143 -0.143553 0.934859
-0.012552 -0.143425 0.934023
-0.010961 -0.143274 0.933041
-0.009378 -0.143180 0.932430
-0.007800 -0.143159 0.932292
-0.006225 -0.143173 0.932382
-0.004650 -0.143209 0.932616
-0.003074 -0.143261 0.932956
-0.001497 -0.143249 0.932877
0.000080 -0.143171 0.932367
0.001654 -0.142928 0.930786
0.003220 -0.142632 0.928856
0.004778 -0.142256 0.926410
0.006328 -0.141892 0.924043
0.007865 -0.141442 0.921112
0.009396 -0.141050 0.918553
0.010930 -0.140808 0.916978
0.012492 -0.140938 0.917830
0.014066 -0.141162 0.919284
0.015653 -0.141463 0.921248
0.017248 -0.141766 0.923220
0.018826 -0.141896 0.924062
0.020357 -0.141681 0.922665
0.021884 -0.141468 0.921281
0.023409 -0.141271 0.919996
0.024932 -0.141091 0.918821
0.026444 -0.140870 0.917385
0.027956 -0.140676 0.916118
0.029452 -0.140424 0.914482
0.030940 -0.140159 0.912754
0.032414 -0.139864 0.910830
0.033885 -0.139580 0.908985
0.035357 -0.139325 0.907322
0.036825 -0.139075 0.905695
0.038303 -0.138884 0.904449
0.039786 -0.138723 0.903404
0.041267 -0.138567 0.902387
0.042748 -0.138424 0.901455
0.044243 -0.138333 0.900861
0.045738 -0.138247 0.900302
0.047231 -0.138165 0.899765
0.048728 -0.138094 0.899308
0.050221 -0.138018 0.898814
0.051712 -0.137944 0.898327
0.053193 -0.137845 0.897685
0.054671 -0.137748 0.897051
0.056114 -0.137567 0.895876
0.057555 -0.137390 0.894723
0.058984 -0.137197 0.893466
0.060420 -0.137027 0.892355
0.061861 -0.136877 0.891380
0.063328 -0.136792 0.890825
0.064780 -0.136678 0.890087
0.066235 -0.136576 0.889420
0.067703 -0.136503 0.888947
0.069172 -0.136437 0.888513
0.070667 -0.136424 0.888432
0.072169 -0.136424 0.888432
0.073665 -0.136412 0.888351
0.075144 -0.136371 0.888088
0.076621 -0.136327 0.887800
0.078080 -0.136255 0.887327
0.079545 -0.136195 0.886941
0.081002 -0.136124 0.886474
0.082498 -0.136119 0.886446
0.083998 -0.136120 0.886454
0.085516 -0.136152 0.886659
0.087018 -0.136157 0.886692
0.088526 -0.136170 0.886777
0.089980 -0.136102 0.886333
0.091430 -0.136030 0.885863
0.092851 -0.135918 0.885138
0.094261 -0.135794 0.884330
0.095659 -0.135657 0.883433
0.097080 -0.135555 0.882768
0.098501 -0.135457 0.882136
0.099952 -0.135403 0.881780
0.101424 -0.135377 0.881614
0.102914 -0.135377 0.881614
0.104405 -0.135377 0.881614
0.105875 -0.135352 0.881449
0.107333 -0.135311 0.881180
0.108787 -0.135266 0.880891
0.110281 -0.135272 0.880931
0.111773 -0.135276 0.880953
0.113300 -0.135321 0.881249
0.114849 -0.135391 0.881700
0.116396 -0.135456 0.882126
0.117934 -0.135510 0.882479
0.119706 -0.137328 0.884550
0.119521 -0.135617 0.883178
-0.022149 -0.142635 0.939244
-0.020552 -0.142575 0.938849
-0.018959 -0.142530 0.938555
-0.017360 -0.142425 0.937863
-0.015758 -0.142278 0.936893
-0.014159 -0.142121 0.935865
-0.012564 -0.141980 0.934932
-0.010970 -0.141801 0.933756
-0.009383 -0.141678 0.932945
-0.007802 -0.141610 0.932494
-0.006223 -0.141563 0.932186
-0.004647 -0.141537 0.932019
-0.003071 -0.141527 0.931947
-0.001494 -0.141439 0.931369
0.000080 -0.141284 0.930352
0.001649 -0.140980 0.928346
0.003211 -0.140639 0.926103
0.004763 -0.140242 0.923489
0.006307 -0.139866 0.921011
0.007844 -0.139508 0.918658
0.009380 -0.139254 0.916980
0.010920 -0.139116 0.916077
0.012488 -0.139339 0.917544
0.014071 -0.139652 0.919606
0.015660 -0.139957 0.921615
0.017251 -0.140230 0.923410
0.018830 -0.140358 0.924252
0.020362 -0.140149 0.922877
0.021886 -0.139923 0.921391
0.023409 -0.139711 0.919993
0.024927 -0.139504 0.918629
0.026436 -0.139272 0.917102
0.027947 -0.139078 0.915825
0.029445 -0.138841 0.914266
0.030932 -0.138578 0.912533
0.032410 -0.138301 0.910707
0.033881 -0.138022 0.908870
0.035353 -0.137771 0.907215
0.036817 -0.137512 0.905511
0.038296 -0.137323 0.904269
0.039774 -0.137151 0.903138
0.041258 -0.137009 0.902198
0.042739 -0.136867 0.901266
0.044238 -0.136791 0.900762
0.045729 -0.136694 0.900123
0.047222 -0.136611 0.899580
0.048717 -0.136540 0.899110
0.050210 -0.136466 0.898625
0.051701 -0.136393 0.898144
0.053193 -0.136324 0.897690
0.054678 -0.136243 0.897157
0.056127 -0.136080 0.896085
0.057569 -0.135907 0.894944
0.059000 -0.135718 0.893700
0.060429 -0.135536 0.892498
0.061869 -0.135385 0.891503
0.063336 -0.135298 0.890932
0.064788 -0.135186 0.890193
0.066243 -0.135084 0.889522
0.067710 -0.135011 0.889044
0.069179 -0.134944 0.888601
0.070667 -0.134918 0.888432
0.072169 -0.134918 0.888432
0.073671 -0.134918 0.888432
0.075159 -0.134893 0.888264
0.076645 -0.134865 0.888081
0.078122 -0.134823 0.887803
0.079598 -0.134780 0.887524
0.081057 -0.134712 0.887076
0.082554 -0.134707 0.887043
0.084052 -0.134705 0.887026
0.085564 -0.134724 0.887154
0.087066 -0.134729 0.887184
0.088574 -0.134740 0.887260
0.090027 -0.134671 0.886801
0.091469 -0.134587 0.886248
0.092891 -0.134476 0.885520
0.094293 -0.134341 0.884632
0.095682 -0.134190 0.883640
0.097093 -0.134076 0.882888
0.098512 -0.133976 0.882231
0.099953 -0.133909 0.881789
0.101424 -0.133883 0.881614
0.102914 -0.133883 0.881614
0.104395 -0.133871 0.881534
0.105854 -0.133831 0.881275
0.107299 -0.133775 0.880906
0.108740 -0.133715 0.880512
0.110214 -0.133698 0.880397
0.111694 -0.133688 0.880332
0.113221 -0.133733 0.880630
0.114747 -0.133777 0.880915
0.116281 -0.133829 0.881259
0.117805 -0.133868 0.881515
0.119378 -0.133960 0.882122
-0.020563 -0.141052 0.939310
-0.018969 -0.141007 0.939009
-0.017369 -0.140909 0.938353
-0.015768 -0.140775 0.937462
-0.014169 -0.140642 0.936579
-0.012574 -0.140503 0.935649
-0.010977 -0.140311 0.934374
-0.009388 -0.140172 0.933446
-0.007804 -0.140059 0.932697
-0.006223 -0.139968 0.932090
-0.004645 -0.139898 0.931622
-0.003068 -0.139840 0.931238
-0.001493 -0.139692 0.930253
0.000080 -0.139490 0.928903
0.001646 -0.139145 0.926608
0.003205 -0.138796 0.924281
0.004755 -0.138449 0.921974
0.006300 -0.138154 0.920009
0.007840 -0.137880 0.918187
0.009382 -0.137733 0.917202
0.010933 -0.137739 0.917244
0.012506 -0.137983 0.918872
0.014090 -0.138284 0.920872
0.015679 -0.138571 0.922784
0.017268 -0.138802 0.924327
0.018835 -0.138833 0.924533
0.020366 -0.138615 0.923078
0.021889 -0.138376 0.921490
0.023406 -0.138137 0.919897
0.024919 -0.137903 0.918335
0.026424 -0.137658 0.916708
0.027930 -0.137440 0.915252
0.029427 -0.137204 0.913682
0.030912 -0.136942 0.911936
0.032392 -0.136680 0.910194
0.033866 -0.136420 0.908465
0.035345 -0.136203 0.907014
0.036814 -0.135963 0.905418
0.038296 -0.135790 0.904269
0.039770 -0.135607 0.903045
0.041253 -0.135464 0.902093
0.042734 -0.135322 0.901148
0.044233 -0.135248 0.900657
0.045723 -0.135153 0.900021
0.047217 -0.135071 0.899480
0.048710 -0.134998 0.898990
0.050203 -0.134925 0.898504
0.051695 -0.134855 0.898040
0.053193 -0.134803 0.897693
0.054684 -0.134737 0.897253
0.056139 -0.134589 0.896266
0.057585 -0.134428 0.895198
0.059016 -0.134240 0.893945
0.060440 -0.134047 0.892657
0.061881 -0.133899 0.891673
0.063342 -0.133801 0.891024
0.064789 -0.133679 0.890207
0.066245 -0.133580 0.889548
0.067711 -0.133506 0.889058
0.069179 -0.133439 0.888610
0.070667 -0.133412 0.888432
0.072176 -0.133424 0.888513
0.073679 -0.133425 0.888520
0.075174 -0.133414 0.888441
0.076668 -0.133400 0.888352
0.078155 -0.133374 0.888176
0.079633 -0.133335 0.887921
0.081103 -0.133284 0.887577
0.082601 -0.133280 0.887552
0.084101 -0.133280 0.887548
0.085611 -0.133294 0.887648
0.087114 -0.133297 0.887666
0.088621 -0.133307 0.887734
0.090076 -0.133240 0.887283
0.091517 -0.133154 0.886715
0.092930 -0.133031 0.885894
0.094323 -0.132882 0.884904
0.095700 -0.132719 0.883813
0.097102 -0.132592 0.882969
0.098512 -0.132481 0.882231
0.099944 -0.132403 0.881709
0.101405 -0.132364 0.881449
0.102894 -0.132362 0.881440
0.104365 -0.132337 0.881275
0.105813 -0.132285 0.880929
0.107256 -0.132229 0.880552
0.108695 -0.132169 0.880152
0.110159 -0.132139 0.879957
0.111638 -0.132129 0.879889
0.113163 -0.132174 0.880185
0.114676 -0.132202 0.880374
0.116210 -0.132254 0.880719
0.117721 -0.132279 0.880888
0.119283 -0.132359 0.881421
-0.018974 -0.139459 0.939300
-0.017375 -0.139362 0.938653
-0.015774 -0.139242 0.937842
-0.014177 -0.139131 0.937095
-0.012581 -0.138994 0.936172
-0.010982 -0.138790 0.934799
-0.009391 -0.138636 0.933757
-0.007805 -0.138507 0.932892
-0.006223 -0.138388 0.932090
-0.004643 -0.138277 0.931338
-0.003067 -0.138174 0.930649
-0.001491 -0.137980 0.929345
0.000080 -0.137737 0.927702
0.001644 -0.137370 0.925235
0.003200 -0.137042 0.923021
0.004750 -0.136747 0.921034
0.006296 -0.136503 0.919392
0.007839 -0.136306 0.918068
0.009387 -0.136243 0.917644
0.010948 -0.136366 0.918470
0.012525 -0.136633 0.920266
0.014113 -0.136944 0.922366
0.015702 -0.137204 0.924113
0.017290 -0.137408 0.925486
0.018847 -0.137353 0.925118
0.020379 -0.137135 0.923649
0.021900 -0.136883 0.921954
0.023415 -0.136630 0.920247
0.024920 -0.136355 0.918393
0.026421 -0.136085 0.916577
0.027917 -0.135826 0.914836
0.029410 -0.135579 0.913167
0.030892 -0.135307 0.911339
0.032374 -0.135064 0.909698
0.033852 -0.134823 0.908080
0.035338 -0.134637 0.906822
0.036810 -0.134415 0.905326
0.038296 -0.134257 0.904269
0.039766 -0.134062 0.902955
0.041249 -0.133920 0.901994
0.042729 -0.133779 0.901043
0.044228 -0.133706 0.900558
0.045715 -0.133601 0.899849
0.047211 -0.133532 0.899384
0.048705 -0.133459 0.898888
0.050198 -0.133387 0.898403
0.051681 -0.133295 0.897783
0.053187 -0.133266 0.897592
0.054673 -0.133189 0.897071
0.056132 -0.133054 0.896160
0.057584 -0.132908 0.895181
0.059026 -0.132747 0.894097
0.060445 -0.132544 0.892730
0.061890 -0.132408 0.891809
0.063352 -0.132312 0.891168
0.064795 -0.132181 0.890286
0.066252 -0.132085 0.889638
0.067724 -0.132024 0.889227
0.069192 -0.131958 0.888778
0.070681 -0.131932 0.888603
0.072197 -0.131957 0.888776
0.073708 -0.131971 0.888869
0.075211 -0.131973 0.888880
0.076720 -0.131984 0.888956
0.078215 -0.131971 0.888866
0.079702 -0.131945 0.888691
0.081182 -0.131907 0.888440
0.082675 -0.131892 0.888340
0.084168 -0.131880 0.888253
0.085670 -0.131880 0.888259
0.087165 -0.131870 0.888190
0.088665 -0.131868 0.888177
0.090122 -0.131803 0.887734
0.091556 -0.131707 0.887091
0.092959 -0.131570 0.886167
0.094339 -0.131405 0.885058
0.095707 -0.131229 0.883874
0.097099 -0.131091 0.882941
0.098501 -0.130972 0.882137
0.099924 -0.130881 0.881529
0.101374 -0.130829 0.881180
0.102852 -0.130815 0.881080
0.104311 -0.130777 0.880826
0.105759 -0.130726 0.880480
0.107211 -0.130681 0.880181
0.108662 -0.130637 0.879884
0.110126 -0.130609 0.879694
0.111604 -0.130598 0.879624
0.113126 -0.130638 0.879891
0.114626 -0.130653 0.879993
0.116149 -0.130692 0.880256
0.117649 -0.130706 0.880347
0.119208 -0.130783 0.880870
-0.017395 -0.137937 0.939780
-0.015793 -0.137820 0.938988
-0.014196 -0.137726 0.938342
-0.012593 -0.137537 0.937055
-0.010990 -0.137306 0.935486
-0.009396 -0.137124 0.934243
-0.007808 -0.136968 0.933178
-0.006223 -0.136822 0.932186
-0.004643 -0.136697 0.931332
-0.003066 -0.136554 0.930360
-0.001491 -0.136358 0.929026
0.000080 -0.136117 0.927379
0.001643 -0.135757 0.924931
0.003200 -0.135451 0.922842
0.004751 -0.135199 0.921126
0.006298 -0.134973 0.919586
0.007842 -0.134795 0.918376
0.009396 -0.134815 0.918510
0.010966 -0.135023 0.919931
0.012546 -0.135296 0.921791
0.014137 -0.135609 0.923919
0.015727 -0.135857 0.925609
0.017309 -0.135986 0.926488
0.018858 -0.135865 0.925661
0.020388 -0.135633 0.924082
0.021906 -0.135355 0.922189
0.023418 -0.135087 0.920366
0.024918 -0.134785 0.918309
0.026413 -0.134490 0.916296
0.027905 -0.134218 0.914445
0.029397 -0.133972 0.912765
0.030875 -0.133690 0.910847
0.032360 -0.133465 0.909314
0.033841 -0.133243 0.907800
0.035331 -0.133073 0.906646
0.036807 -0.132867 0.905242
0.038296 -0.132725 0.904269
0.039763 -0.132520 0.902872
0.041245 -0.132378 0.901904
0.042724 -0.132238 0.900951
0.044220 -0.132155 0.900385
0.045702 -0.132039 0.899596
0.047198 -0.131970 0.899125
0.048691 -0.131897 0.898632
0.050179 -0.131814 0.898061
0.051656 -0.131709 0.897348
0.053155 -0.131666 0.897057
0.054633 -0.131574 0.896427
0.056087 -0.131428 0.895437
0.057539 -0.131287 0.894477
0.058987 -0.131144 0.893500
0.060416 -0.130968 0.892304
0.061872 -0.130858 0.891551
0.063346 -0.130788 0.891074
0.064800 -0.130683 0.890361
0.066270 -0.130613 0.889883
0.067751 -0.130568 0.889574
0.069226 -0.130515 0.889212
0.070717 -0.130491 0.889049
0.072234 -0.130517 0.889231
0.073746 -0.130533 0.889335
0.075252 -0.130536 0.889358
0.076762 -0.130547 0.889432
0.078257 -0.130532 0.889333
0.079743 -0.130505 0.889146
0.081237 -0.130490 0.889044
0.082731 -0.130476 0.888947
0.084225 -0.130463 0.888859
0.085720 -0.130451 0.888778
0.087214 -0.130438 0.888691
0.088700 -0.130413 0.888520
0.090149 -0.130337 0.888001
0.091567 -0.130219 0.887196
0.092968 -0.130080 0.886253
0.094330 -0.129892 0.884971
0.095687 -0.129704 0.883687
0.097078 -0.129567 0.882757
0.098490 -0.129461 0.882035
0.099903 -0.129360 0.881345
0.101351 -0.129306 0.880980
0.102816 -0.129276 0.880771
0.104264 -0.129225 0.880426
0.105713 -0.129177 0.880097
0.107177 -0.129148 0.879898
0.108640 -0.129119 0.879703
0.110105 -0.129093 0.879523
0.111582 -0.129082 0.879450
0.113090 -0.129106 0.879617
0.114579 -0.129108 0.879630
0.116088 -0.129133 0.879797
0.117588 -0.129146 0.879890
0.119133 -0.129209 0.880317
-0.017412 -0.136478 0.940705
-0.015810 -0.136372 0.939976
-0.014212 -0.136285 0.939372
-0.012604 -0.136068 0.937881
-0.010999 -0.135837 0.936289
-0.009402 -0.135627 0.934840
-0.007811 -0.135443 0.933573
-0.006225 -0.135270 0.932382
-0.004643 -0.135119 0.931339
-0.003065 -0.134963 0.930264
-0.001491 -0.134770 0.928934
0.000080 -0.134533 0.927301
0.001643 -0.134192 0.924952
0.003200 -0.133903 0.922959
0.004752 -0.133666 0.921326
0.006299 -0.133454 0.919863
0.007846 -0.133303 0.918819
0.009406 -0.133403 0.919508
0.010983 -0.133683 0.921440
0.012569 -0.133975 0.923455
0.014164 -0.134297 0.925675
0.015755 -0.134524 0.927237
0.017327 -0.134558 0.927470
0.018871 -0.134384 0.926272
0.020398 -0.134129 0.924512
0.021909 -0.133814 0.922346
0.023417 -0.133521 0.920326
0.024912 -0.133193 0.918066
0.026400 -0.132871 0.915846
0.027888 -0.132588 0.913895
0.029382 -0.132357 0.912298
0.030863 -0.132092 0.910477
0.032354 -0.131896 0.909127
0.033838 -0.131691 0.907709
0.035331 -0.131537 0.906646
0.036807 -0.131333 0.905242
0.038296 -0.131192 0.904269
0.039763 -0.130989 0.902872
0.041245 -0.130849 0.901904
0.042724 -0.130710 0.900951
0.044215 -0.130615 0.900296
0.045697 -0.130499 0.899495
0.047192 -0.130430 0.899016
0.048681 -0.130346 0.898437
0.050163 -0.130252 0.897789
0.051634 -0.130133 0.896973
0.053121 -0.130062 0.896481
0.054591 -0.129952 0.895725
0.056054 -0.129834 0.894913
0.057513 -0.129712 0.894070
0.058969 -0.129590 0.893228
0.060410 -0.129443 0.892213
0.061872 -0.129345 0.891543
0.063340 -0.129265 0.890988
0.064801 -0.129176 0.890372
0.066285 -0.129133 0.890081
0.067773 -0.129102 0.889868
0.069257 -0.129064 0.889603
0.070755 -0.129054 0.889536
0.072273 -0.129080 0.889712
0.073787 -0.129096 0.889825
0.075293 -0.129099 0.889842
0.076804 -0.129111 0.889927
0.078300 -0.129097 0.889827
0.079787 -0.129069 0.889638
0.081281 -0.129052 0.889522
0.082775 -0.129037 0.889420
0.084270 -0.129024 0.889330
0.085765 -0.129012 0.889243
0.087251 -0.128986 0.889065
0.088735 -0.128958 0.888875
0.090176 -0.128870 0.888263
0.091576 -0.128727 0.887283
0.092968 -0.128577 0.886248
0.094319 -0.128377 0.884869
0.095667 -0.128180 0.883510
0.097059 -0.128046 0.882585
0.098471 -0.127942 0.881867
0.099874 -0.127829 0.881089
0.101318 -0.127772 0.880697
0.102772 -0.127728 0.880397
0.104210 -0.127666 0.879969
0.105667 -0.127630 0.879717
0.107134 -0.127605 0.879545
0.108608 -0.127590 0.879444
0.110074 -0.127566 0.879276
0.111550 -0.127555 0.879199
0.113047 -0.127566 0.879279
0.114544 -0.127578 0.879362
0.116042 -0.127590 0.879446
0.117541 -0.127603 0.879536
0.119073 -0.127652 0.879871
-0.017442 -0.135111 0.942293
-0.015834 -0.134980 0.941381
-0.014231 -0.134876 0.940651
-0.012616 -0.134615 0.938833
-0.011008 -0.134357 0.937035
-0.009408 -0.134131 0.935457
-0.007815 -0.133922 0.934003
-0.006227 -0.133734 0.932689
-0.004644 -0.133568 0.931534
-0.003066 -0.133413 0.930448
-0.001491 -0.133237 0.929225
0.000080 -0.133032 0.927792
0.001644 -0.132712 0.925562
0.003202 -0.132437 0.923643
0.004755 -0.132200 0.921989
0.006303 -0.131974 0.920418
0.007850 -0.131811 0.919279
0.009415 -0.131965 0.920355
0.010995 -0.132263 0.922430
0.012583 -0.132564 0.924528
0.014179 -0.132876 0.926704
0.015772 -0.133092 0.928213
0.017336 -0.133055 0.927954
0.018877 -0.132857 0.926570
0.020402 -0.132590 0.924709
0.021911 -0.132264 0.922438
0.023417 -0.131959 0.920310
0.024911 -0.131633 0.918036
0.026399 -0.131314 0.915815
0.027885 -0.131023 0.913785
0.029376 -0.130783 0.912106
0.030856 -0.130522 0.910285
0.032347 -0.130329 0.908941
0.033831 -0.130127 0.907533
0.035324 -0.129976 0.906477
0.036799 -0.129774 0.905068
0.038284 -0.129621 0.904003
0.039751 -0.129420 0.902600
0.041233 -0.129282 0.901638
0.042716 -0.129158 0.900778
0.044207 -0.129064 0.900121
0.045691 -0.128958 0.899384
0.047185 -0.128887 0.898888
0.048669 -0.128793 0.898231
0.050147 -0.128688 0.897498
0.051612 -0.128557 0.896582
0.053086 -0.128457 0.895886
0.054543 -0.128323 0.894949
0.056005 -0.128204 0.894124
0.057464 -0.128088 0.893316
0.058932 -0.127996 0.892672
0.060386 -0.127879 0.891852
0.061859 -0.127808 0.891364
0.063334 -0.127743 0.890907
0.064808 -0.127681 0.890472
0.066300 -0.127654 0.890285
0.067797 -0.127639 0.890183
0.069289 -0.127615 0.890014
0.070794 -0.127616 0.890019
0.072319 -0.127652 0.890274
0.073840 -0.127679 0.890461
0.075354 -0.127694 0.890563
0.076867 -0.127707 0.890654
0.078371 -0.127704 0.890636
0.079853 -0.127667 0.890374
0.081349 -0.127651 0.890268
0.082838 -0.127626 0.890093
0.084334 -0.127613 0.890002
0.085822 -0.127588 0.889828
0.087299 -0.127549 0.889551
0.088764 -0.127494 0.889169
0.090195 -0.127391 0.888450
0.091585 -0.127235 0.887365
0.092958 -0.127062 0.886159
0.094308 -0.126863 0.884771
0.095657 -0.126668 0.883412
0.097049 -0.126536 0.882493
0.098453 -0.126423 0.881704
0.099855 -0.126311 0.880919
0.101289 -0.126243 0.880446
0.102731 -0.126186 0.880048
0.104168 -0.126124 0.879617
0.105635 -0.126101 0.879452
0.107102 -0.126077 0.879285
0.108586 -0.126073 0.879264
0.110061 -0.126061 0.879176
0.111528 -0.126038 0.879020
0.113014 -0.126038 0.879020
0.114520 -0.126061 0.879176
0.116007 -0.126062 0.879184
0.117496 -0.126064 0.879199
0.119027 -0.126112 0.879529
-0.017471 -0.133740 0.943892
-0.015858 -0.133589 0.942823
-0.014251 -0.133471 0.941995
-0.012632 -0.133183 0.939961
-0.011020 -0.132913 0.938054
-0.009418 -0.132689 0.936473
-0.007822 -0.132467 0.934903
-0.006231 -0.132252 0.933389
-0.004647 -0.132071 0.932110
-0.003068 -0.131915 0.931012
-0.001492 -0.131745 0.929808
0.000080 -0.131547 0.928416
0.001646 -0.131257 0.926367
0.003205 -0.130997 0.924534
0.004760 -0.130763 0.922882
0.006309 -0.130539 0.921302
0.007859 -0.130402 0.920333
0.009427 -0.130573 0.921540
0.011008 -0.130846 0.923467
0.012595 -0.131118 0.925385
0.014189 -0.131394 0.927335
0.015776 -0.131551 0.928439
0.017333 -0.131456 0.927773
0.018871 -0.131243 0.926269
0.020395 -0.130976 0.924380
0.021904 -0.130655 0.922115
0.023409 -0.130355 0.919997
0.024905 -0.130046 0.917819
0.026393 -0.129731 0.915598
0.027879 -0.129444 0.913574
0.029367 -0.129197 0.911826
0.030849 -0.128951 0.910090
0.032337 -0.128749 0.908666
0.033821 -0.128549 0.907257
0.035310 -0.128387 0.906113
0.036784 -0.128186 0.904695
0.038265 -0.128022 0.903534
0.039734 -0.127835 0.902212
0.041216 -0.127700 0.901261
0.042699 -0.127580 0.900416
0.044189 -0.127487 0.899760
0.045673 -0.127382 0.899021
0.047162 -0.127300 0.898440
0.048645 -0.127206 0.897778
0.050121 -0.127101 0.897036
0.051580 -0.126959 0.896030
0.053048 -0.126847 0.895242
0.054503 -0.126712 0.894292
0.055963 -0.126595 0.893465
0.057422 -0.126482 0.892665
0.058900 -0.126415 0.892192
0.060365 -0.126324 0.891550
0.061846 -0.126270 0.891173
0.063327 -0.126220 0.890816
0.064815 -0.126183 0.890559
0.066313 -0.126171 0.890469
0.067818 -0.126170 0.890463
0.069324 -0.126171 0.890470
0.070843 -0.126195 0.890641
0.072370 -0.126232 0.890905
0.073899 -0.126271 0.891174
0.075421 -0.126298 0.891364
0.076936 -0.126310 0.891455
0.078443 -0.126310 0.891452
0.079934 -0.126284 0.891271
0.081432 -0.126271 0.891177
0.082923 -0.126247 0.891006
0.084421 -0.126235 0.890921
0.085910 -0.126209 0.890740
0.087380 -0.126157 0.890375
0.088837 -0.126090 0.889898
0.090257 -0.125972 0.889067
0.091621 -0.125781 0.887720
0.092975 -0.125583 0.886324
0.094316 -0.125373 0.884841
0.095655 -0.125168 0.883394
0.097039 -0.125028 0.882403
0.098452 -0.124928 0.881695
0.099854 -0.124817 0.880914
0.101288 -0.124749 0.880432
0.102722 -0.124682 0.879963
0.104158 -0.124621 0.879529
0.105615 -0.124586 0.879285
0.107070 -0.124549 0.879026
0.108543 -0.124534 0.878918
0.110016 -0.124519 0.878814
0.111472 -0.124486 0.878580
0.112957 -0.124486 0.878580
0.114463 -0.124508 0.878735
0.115950 -0.124511 0.878753
0.117449 -0.124525 0.878853
0.118970 -0.124562 0.879112
0.120550 -0.126150 0.879798
0.120480 -0.124586 0.879286
0.122090 -0.126204 0.880172
0.122004 -0.124624 0.879555
-0.017502 -0.132375 0.945571
-0.015885 -0.132220 0.944459
-0.014274 -0.132083 0.943485
-0.012649 -0.131773 0.941268
-0.011035 -0.131503 0.939338
-0.009431 -0.131283 0.937771
-0.007832 -0.131052 0.936118
-0.006239 -0.130827 0.934514
-0.004652 -0.130630 0.933105
-0.003071 -0.130461 0.931895
-0.001493 -0.130291 0.930687
0.000080 -0.130100 0.929320
0.001648 -0.129830 0.927387
0.003210 -0.129598 0.925734
0.004767 -0.129379 0.924166
0.006320 -0.129186 0.922790
0.007874 -0.129093 0.922125
0.009447 -0.129286 0.923504
0.011028 -0.129516 0.925150
0.012612 -0.129725 0.926641
0.014199 -0.129912 0.927977
0.015776 -0.129983 0.928485
0.017322 -0.129802 0.927187
0.018854 -0.129562 0.925473
0.020377 -0.129294 0.923564
0.021884 -0.128978 0.921305
0.023389 -0.128688 0.919230
0.024892 -0.128424 0.917345
0.026385 -0.128141 0.915323
0.027873 -0.127871 0.913395
0.029361 -0.127624 0.911635
0.030846 -0.127392 0.909976
0.032329 -0.127178 0.908448
0.033810 -0.126970 0.906961
0.035295 -0.126796 0.905720
0.036768 -0.126596 0.904292
0.038243 -0.126419 0.903027
0.039715 -0.126247 0.901794
0.041197 -0.126115 0.900856
0.042681 -0.126000 0.900031
0.044170 -0.125909 0.899382
0.045658 -0.125818 0.898729
0.047142 -0.125726 0.898072
0.048621 -0.125622 0.897330
0.050091 -0.125505 0.896498
0.051553 -0.125374 0.895560
0.053006 -0.125231 0.894538
0.054461 -0.125099 0.893595
0.055925 -0.124994 0.892844
0.057386 -0.124890 0.892105
0.058864 -0.124825 0.891639
0.060346 -0.124772 0.891261
0.061833 -0.124733 0.890985
0.063321 -0.124697 0.890722
0.064820 -0.124684 0.890631
0.066325 -0.124683 0.890626
0.067831 -0.124684 0.890631
0.069351 -0.124709 0.890810
0.070878 -0.124747 0.891083
0.072408 -0.124787 0.891366
0.073945 -0.124839 0.891736
0.075485 -0.124891 0.892110
0.077002 -0.124905 0.892213
0.078525 -0.124929 0.892380
0.080031 -0.124926 0.892358
0.081540 -0.124926 0.892360
0.083040 -0.124913 0.892267
0.084549 -0.124913 0.892269
0.086039 -0.124887 0.892084
0.087503 -0.124825 0.891637
0.088946 -0.124734 0.890990
0.090350 -0.124592 0.889977
0.091687 -0.124366 0.888361
0.093014 -0.124132 0.886689
0.094335 -0.123898 0.885020
0.095663 -0.123681 0.883468
0.097039 -0.123531 0.882398
0.098461 -0.123444 0.881772
0.099864 -0.123336 0.881000
0.101298 -0.123268 0.880520
0.102732 -0.123202 0.880049
0.104167 -0.123141 0.879609
0.105605 -0.123084 0.879199
0.107048 -0.123034 0.878846
0.108508 -0.123005 0.878638
0.109969 -0.122977 0.878440
0.111414 -0.122933 0.878121
0.112898 -0.122933 0.878121
0.114403 -0.122954 0.878276
0.115890 -0.122957 0.878294
0.117389 -0.122972 0.878400
0.118899 -0.122997 0.878582
0.120406 -0.123020 0.878746
0.121916 -0.123044 0.878919
-0.017516 -0.130871 0.946282
-0.015899 -0.130728 0.945251
-0.014285 -0.130588 0.944235
-0.012662 -0.130306 0.942197
-0.011046 -0.130041 0.940286
-0.009443 -0.129853 0.938921
-0.007843 -0.129639 0.937379
-0.006248 -0.129431 0.935869
-0.004658 -0.129222 0.934357
-0.003075 -0.129061 0.933198
-0.001495 -0.128881 0.931893
0.000080 -0.128691 0.930525
0.001650 -0.128448 0.928764
0.003215 -0.128246 0.927306
0.004775 -0.128035 0.925776
0.006333 -0.127897 0.924778
0.007893 -0.127836 0.924337
0.009466 -0.127980 0.925384
0.011045 -0.128151 0.926614
0.012626 -0.128297 0.927671
0.014204 -0.128384 0.928298
0.015771 -0.128363 0.928148
0.017310 -0.128143 0.926559
0.018837 -0.127877 0.924635
0.020356 -0.127600 0.922632
0.021865 -0.127303 0.920486
0.023372 -0.127036 0.918554
0.024882 -0.126817 0.916970
0.026379 -0.126563 0.915135
0.027870 -0.126310 0.913305
0.029355 -0.126054 0.911451
0.030842 -0.125836 0.909877
0.032322 -0.125610 0.908246
0.033802 -0.125403 0.906745
0.035282 -0.125217 0.905404
0.036755 -0.125019 0.903970
0.038226 -0.124833 0.902625
0.039701 -0.124675 0.901480
0.041179 -0.124535 0.900470
0.042663 -0.124421 0.899646
0.044155 -0.124341 0.899070
0.045642 -0.124252 0.898424
0.047123 -0.124151 0.897695
0.048596 -0.124037 0.896872
0.050064 -0.123919 0.896017
0.051520 -0.123778 0.895000
0.052973 -0.123638 0.893981
0.054428 -0.123509 0.893053
0.055896 -0.123417 0.892385
0.057358 -0.123316 0.891658
0.058839 -0.123262 0.891269
0.060327 -0.123223 0.890988
0.061821 -0.123199 0.890810
0.063315 -0.123175 0.890638
0.064819 -0.123173 0.890626
0.066324 -0.123172 0.890612
0.067831 -0.123173 0.890626
0.069358 -0.123211 0.890898
0.070894 -0.123263 0.891276
0.072439 -0.123330 0.891755
0.073994 -0.123407 0.892317
0.075549 -0.123484 0.892868
0.077075 -0.123511 0.893069
0.078615 -0.123558 0.893410
0.080133 -0.123570 0.893494
0.081652 -0.123582 0.893581
0.083163 -0.123583 0.893587
0.084681 -0.123594 0.893665
0.086183 -0.123581 0.893572
0.087650 -0.123520 0.893132
0.089087 -0.123419 0.892401
0.090482 -0.123265 0.891285
0.091802 -0.123013 0.889467
0.093092 -0.122732 0.887433
0.094383 -0.122461 0.885475
0.095692 -0.122221 0.883738
0.097048 -0.122047 0.882483
0.098462 -0.121951 0.881783
0.099866 -0.121844 0.881014
0.101301 -0.121779 0.880546
0.102733 -0.121713 0.880063
0.104168 -0.121651 0.879617
0.105595 -0.121581 0.879112
0.107027 -0.121520 0.878668
0.108473 -0.121476 0.878352
0.109922 -0.121436 0.878065
0.111355 -0.121380 0.877656
0.112828 -0.121369 0.877577
0.114331 -0.121390 0.877728
0.115816 -0.121390 0.877733
0.117314 -0.121405 0.877839
0.118823 -0.121430 0.878021
0.120331 -0.121455 0.878198
0.121826 -0.121465 0.878274
-0.017542 -0.129460 0.947700
-0.015924 -0.129328 0.946732
-0.014304 -0.129155 0.945466
-0.012679 -0.128890 0.943523
-0.011062 -0.128627 0.941598
-0.009456 -0.128441 0.940241
-0.007854 -0.128235 0.938733
-0.006257 -0.128032 0.937243
-0.004665 -0.127824 0.935724
-0.003079 -0.127651 0.934453
-0.001497 -0.127456 0.933026
0.000080 -0.127255 0.931555
0.001652 -0.127015 0.929803
0.003219 -0.126830 0.928444
0.004781 -0.126634 0.927007
0.006343 -0.126528 0.926231
0.007907 -0.126496 0.926003
0.009480 -0.126593 0.926707
0.011055 -0.126690 0.927422
0.012630 -0.126770 0.928003
0.014201 -0.126780 0.928081
0.015757 -0.126682 0.927360
0.017295 -0.126464 0.925765
0.018821 -0.126199 0.923825
0.020338 -0.125923 0.921804
0.021848 -0.125646 0.919775
0.023359 -0.125410 0.918051
0.024876 -0.125234 0.916762
0.026379 -0.125010 0.915124
0.027873 -0.124774 0.913395
0.029355 -0.124511 0.911466
0.030842 -0.124293 0.909876
0.032316 -0.124046 0.908064
0.033795 -0.123839 0.906553
0.035275 -0.123656 0.905214
0.036747 -0.123462 0.903787
0.038218 -0.123278 0.902444
0.039697 -0.123134 0.901388
0.041171 -0.122984 0.900291
0.042650 -0.122859 0.899375
0.044145 -0.122790 0.898867
0.045627 -0.122689 0.898133
0.047099 -0.122567 0.897238
0.048570 -0.122453 0.896402
0.050037 -0.122334 0.895530
0.051487 -0.122182 0.894417
0.052939 -0.122043 0.893403
0.054398 -0.121929 0.892570
0.055866 -0.121839 0.891906
0.057333 -0.121752 0.891276
0.058821 -0.121714 0.890995
0.060315 -0.121690 0.890816
0.061815 -0.121678 0.890728
0.063315 -0.121666 0.890640
0.064820 -0.121664 0.890631
0.066325 -0.121664 0.890626
0.067831 -0.121664 0.890631
0.069365 -0.121713 0.890988
0.070915 -0.121789 0.891543
0.072477 -0.121881 0.892213
0.074047 -0.121983 0.892966
0.075626 -0.122095 0.893782
0.077171 -0.122148 0.894174
0.078722 -0.122209 0.894621
0.080252 -0.122236 0.894814
0.081781 -0.122261 0.894997
0.083296 -0.122264 0.895017
0.084825 -0.122287 0.895185
0.086339 -0.122287 0.895190
0.087818 -0.122240 0.894844
0.089258 -0.122140 0.894115
0.090646 -0.121973 0.892894
0.091945 -0.121696 0.890860
0.093208 -0.121378 0.888538
0.094470 -0.121072 0.886292
0.095751 -0.120797 0.884283
0.097087 -0.120599 0.882835
0.098491 -0.120491 0.882042
0.099894 -0.120385 0.881269
0.101322 -0.120312 0.880731
0.102755 -0.120246 0.880247
0.104189 -0.120183 0.879789
0.105594 -0.120090 0.879106
0.107015 -0.120017 0.878573
0.108450 -0.119962 0.878167
0.109888 -0.119910 0.877791
0.111319 -0.119854 0.877377
0.112781 -0.119831 0.877213
0.114272 -0.119840 0.877274
0.115744 -0.119828 0.877191
0.117240 -0.119841 0.877284
0.118736 -0.119855 0.877385
0.120255 -0.119890 0.877644
0.121741 -0.119892 0.877656
-0.017566 -0.128031 0.949010
-0.015947 -0.127913 0.948140
-0.014323 -0.127721 0.946716
-0.012699 -0.127485 0.944964
-0.011080 -0.127236 0.943121
-0.009471 -0.127052 0.941753
-0.007867 -0.126859 0.940326
-0.006268 -0.126660 0.938848
-0.004673 -0.126457 0.937343
-0.003084 -0.126284 0.936065
-0.001499 -0.126077 0.934532
0.000080 -0.125863 0.932946
0.001654 -0.125636 0.931261
0.003224 -0.125455 0.929919
0.004789 -0.125263 0.928496
0.006354 -0.125181 0.927887
0.007922 -0.125159 0.927728
0.009493 -0.125195 0.927995
0.011064 -0.125223 0.928202
0.012635 -0.125245 0.928360
0.014196 -0.125165 0.927767
0.015743 -0.124995 0.926507
0.017277 -0.124765 0.924804
0.018803 -0.124514 0.922944
0.020319 -0.124244 0.920941
0.021834 -0.124007 0.919188
0.023347 -0.123789 0.917568
0.024868 -0.123641 0.916474
0.026374 -0.123434 0.914939
0.027871 -0.123215 0.913312
0.029353 -0.122956 0.911393
0.030842 -0.122752 0.909886
0.032313 -0.122496 0.907986
0.033792 -0.122292 0.906472
0.035272 -0.122112 0.905142
0.036748 -0.121933 0.903816
0.038220 -0.121754 0.902484
0.039703 -0.121622 0.901509
0.041172 -0.121461 0.900316
0.042646 -0.121324 0.899296
0.044137 -0.121242 0.898693
0.045614 -0.121130 0.897860
0.047080 -0.120997 0.896874
0.048549 -0.120881 0.896015
0.050015 -0.120762 0.895136
0.051459 -0.120600 0.893936
0.052910 -0.120464 0.892923
0.054374 -0.120361 0.892163
0.055847 -0.120286 0.891603
0.057320 -0.120215 0.891076
0.058815 -0.120191 0.890897
0.060315 -0.120179 0.890810
0.061815 -0.120168 0.890728
0.063315 -0.120157 0.890647
0.064820 -0.120156 0.890640
0.066326 -0.120156 0.890638
0.067832 -0.120156 0.890640
0.069371 -0.120215 0.891076
0.070929 -0.120301 0.891719
0.072493 -0.120395 0.892410
0.074072 -0.120509 0.893260
0.075660 -0.120633 0.894179
0.077220 -0.120710 0.894746
0.078782 -0.120785 0.895307
0.080337 -0.120848 0.895770
0.081886 -0.120899 0.896148
0.083427 -0.120936 0.896424
0.084968 -0.120973 0.896696
0.086502 -0.120998 0.896884
0.088002 -0.120976 0.896721
0.089463 -0.120901 0.896164
0.090853 -0.120736 0.894938
0.092146 -0.120447 0.892801
0.093398 -0.120117 0.890354
0.094634 -0.119776 0.887824
0.095877 -0.119455 0.885443
0.097184 -0.119222 0.883717
0.098567 -0.119088 0.882725
0.099952 -0.118961 0.881782
0.101363 -0.118866 0.881081
0.102786 -0.118790 0.880512
0.104209 -0.118715 0.879963
0.105595 -0.118601 0.879112
0.107005 -0.118516 0.878488
0.108430 -0.118451 0.878000
0.109856 -0.118389 0.877541
0.111277 -0.118322 0.877046
0.112727 -0.118287 0.876788
0.114195 -0.118273 0.876680
0.115652 -0.118247 0.876492
0.117146 -0.118259 0.876581
0.118642 -0.118274 0.876687
0.120172 -0.118321 0.877040
0.121669 -0.118335 0.877141
0.123236 -0.119903 0.877739
0.123175 -0.118357 0.877303
-0.019214 -0.126706 0.951146
-0.017589 -0.126586 0.950244
-0.015970 -0.126483 0.949471
-0.014345 -0.126315 0.948209
-0.012720 -0.126094 0.946548
-0.011099 -0.125858 0.944775
-0.009487 -0.125659 0.943285
-0.007880 -0.125468 0.941850
-0.006279 -0.125281 0.940445
-0.004682 -0.125093 0.939035
-0.003090 -0.124937 0.937862
-0.001502 -0.124745 0.936421
0.000080 -0.124556 0.935004
0.001658 -0.124343 0.933408
0.003232 -0.124163 0.932054
0.004799 -0.123960 0.930529
0.006367 -0.123862 0.929794
0.007935 -0.123788 0.929242
0.009504 -0.123769 0.929097
0.011072 -0.123733 0.928829
0.012638 -0.123701 0.928587
0.014192 -0.123559 0.927523
0.015735 -0.123365 0.926066
0.017266 -0.123116 0.924195
0.018791 -0.122871 0.922354
0.020306 -0.122606 0.920366
0.021825 -0.122398 0.918802
0.023340 -0.122195 0.917280
0.024861 -0.122051 0.916199
0.026368 -0.121858 0.914754
0.027868 -0.121654 0.913217
0.029350 -0.121398 0.911301
0.030839 -0.121199 0.909801
0.032316 -0.120968 0.908071
0.033798 -0.120779 0.906653
0.035283 -0.120615 0.905422
0.036764 -0.120452 0.904197
0.038240 -0.120287 0.902960
0.039720 -0.120145 0.901894
0.041186 -0.119974 0.900608
0.042655 -0.119824 0.899480
0.044141 -0.119730 0.898779
0.045613 -0.119607 0.897854
0.047079 -0.119475 0.896861
0.048548 -0.119360 0.895997
0.050009 -0.119231 0.895031
0.051453 -0.119071 0.893829
0.052904 -0.118936 0.892819
0.054368 -0.118836 0.892063
0.055841 -0.118762 0.891512
0.057320 -0.118703 0.891070
0.058815 -0.118680 0.890897
0.060315 -0.118669 0.890810
0.061815 -0.118658 0.890728
0.063321 -0.118658 0.890728
0.064827 -0.118658 0.890728
0.066327 -0.118647 0.890647
0.067832 -0.118646 0.890640
0.069364 -0.118692 0.890986
0.070909 -0.118756 0.891465
0.072465 -0.118837 0.892074
0.074044 -0.118951 0.892926
0.075638 -0.119083 0.893921
0.077214 -0.119183 0.894673
0.078801 -0.119296 0.895516
0.080381 -0.119394 0.896257
0.081962 -0.119490 0.896978
0.083522 -0.119552 0.897442
0.085082 -0.119613 0.897901
0.086636 -0.119663 0.898276
0.088158 -0.119668 0.898310
0.089641 -0.119620 0.897948
0.091045 -0.119471 0.896830
0.092350 -0.119198 0.894781
0.093595 -0.118858 0.892231
0.094823 -0.118507 0.889595
0.096038 -0.118152 0.886928
0.097316 -0.117884 0.884920
0.098659 -0.117702 0.883551
0.100024 -0.117550 0.882408
0.101404 -0.117421 0.881442
0.102809 -0.117323 0.880712
0.104212 -0.117227 0.879984
0.105595 -0.117111 0.879115
0.106994 -0.117016 0.878400
0.108409 -0.116940 0.877836
0.109826 -0.116869 0.877298
0.111245 -0.116801 0.876788
0.112682 -0.116754 0.876437
0.114137 -0.116728 0.876239
0.115592 -0.116701 0.876039
0.117074 -0.116702 0.876046
0.118580 -0.116726 0.876226
0.120122 -0.116786 0.876675
0.121632 -0.116812 0.876874
0.123140 -0.116836 0.877055
-0.019236 -0.125238 0.952238
-0.017615 -0.125157 0.951625
-0.015994 -0.125064 0.950919
-0.014369 -0.124917 0.949801
-0.012744 -0.124724 0.948330
-0.011121 -0.124503 0.946650
-0.009505 -0.124294 0.945064
-0.007896 -0.124114 0.943696
-0.006292 -0.123952 0.942463
-0.004693 -0.123804 0.941339
-0.003099 -0.123691 0.940481
-0.001507 -0.123555 0.939445
0.000081 -0.123420 0.938421
0.001665 -0.123247 0.937106
0.003244 -0.123046 0.935577
0.004816 -0.122794 0.933658
0.006385 -0.122614 0.932292
0.007948 -0.122422 0.930833
0.009512 -0.122297 0.929878
0.011074 -0.122184 0.929019
0.012637 -0.122113 0.928483
0.014186 -0.121935 0.927125
0.015727 -0.121728 0.925556
0.017256 -0.121478 0.923653
0.018780 -0.121240 0.921841
0.020294 -0.120971 0.919795
0.021814 -0.120779 0.918340
0.023332 -0.120602 0.916988
0.024851 -0.120449 0.915826
0.026357 -0.120259 0.914382
0.027859 -0.120067 0.912923
0.029343 -0.119826 0.911092
0.030833 -0.119631 0.909607
0.032316 -0.119429 0.908070
0.033808 -0.119278 0.906921
0.035298 -0.119130 0.905796
0.036787 -0.118993 0.904754
0.038268 -0.118841 0.903605
0.039745 -0.118691 0.902462
0.041203 -0.118496 0.900981
0.042667 -0.118335 0.899751
0.044145 -0.118218 0.898866
0.045609 -0.118075 0.897777
0.047075 -0.117944 0.896785
0.048549 -0.117843 0.896012
0.050011 -0.117718 0.895063
0.051455 -0.117561 0.893868
0.052916 -0.117449 0.893017
0.054385 -0.117361 0.892349
0.055859 -0.117289 0.891803
0.057339 -0.117231 0.891364
0.058833 -0.117206 0.891173
0.060327 -0.117182 0.890985
0.061821 -0.117159 0.890810
0.063321 -0.117148 0.890728
0.064821 -0.117137 0.890647
0.066314 -0.117114 0.890472
0.067818 -0.117112 0.890454
0.069343 -0.117145 0.890708
0.070880 -0.117197 0.891099
0.072434 -0.117274 0.891685
0.074002 -0.117371 0.892424
0.075587 -0.117489 0.893322
0.077171 -0.117601 0.894171
0.078773 -0.117736 0.895202
0.080372 -0.117862 0.896158
0.081987 -0.118005 0.897247
0.083572 -0.118103 0.897989
0.085161 -0.118200 0.898729
0.086735 -0.118275 0.899300
0.088285 -0.118315 0.899598
0.089798 -0.118305 0.899523
0.091236 -0.118197 0.898704
0.092574 -0.117966 0.896947
0.093824 -0.117632 0.894412
0.095043 -0.117271 0.891666
0.096230 -0.116882 0.888708
0.097471 -0.116569 0.886326
0.098757 -0.116319 0.884423
0.100098 -0.116140 0.883067
0.101447 -0.115975 0.881813
0.102822 -0.115845 0.880821
0.104203 -0.115725 0.879909
0.105574 -0.115598 0.878940
0.106952 -0.115481 0.878052
0.108356 -0.115396 0.877405
0.109771 -0.115324 0.876862
0.111188 -0.115256 0.876344
0.112624 -0.115209 0.875988
0.114077 -0.115181 0.875776
0.115532 -0.115156 0.875584
0.117012 -0.115156 0.875583
0.118519 -0.115181 0.875777
0.120051 -0.115231 0.876151
0.121561 -0.115258 0.876359
0.123068 -0.115282 0.876540
0.124621 -0.116835 0.877046
0.124571 -0.115302 0.876694
-0.017643 -0.123742 0.953151
-0.016020 -0.123653 0.952466
-0.014396 -0.123537 0.951575
-0.012768 -0.123346 0.950104
-0.011143 -0.123142 0.948528
-0.009524 -0.122938 0.946958
-0.007912 -0.122774 0.945692
-0.006307 -0.122651 0.944751
-0.004707 -0.122582 0.944215
-0.003110 -0.122518 0.943723
-0.001513 -0.122454 0.943230
0.000081 -0.122376 0.942629
0.001672 -0.122208 0.941335
0.003257 -0.121960 0.939424
0.004834 -0.121666 0.937157
0.006403 -0.121380 0.934955
0.007964 -0.121077 0.932624
0.009523 -0.120856 0.930919
0.011079 -0.120663 0.929432
0.012636 -0.120530 0.928412
0.014180 -0.120315 0.926754
0.015718 -0.120096 0.925068
0.017245 -0.119835 0.923060
0.018768 -0.119600 0.921246
0.020281 -0.119336 0.919213
0.021802 -0.119159 0.917846
0.023320 -0.118985 0.916510
0.024835 -0.118823 0.915258
0.026338 -0.118623 0.913721
0.027838 -0.118431 0.912239
0.029324 -0.118205 0.910502
0.030817 -0.118028 0.909136
0.032310 -0.117866 0.907893
0.033813 -0.117755 0.907033
0.035313 -0.117645 0.906186
0.036810 -0.117534 0.905331
0.038300 -0.117409 0.904368
0.039774 -0.117249 0.903134
0.041233 -0.117054 0.901633
0.042689 -0.116868 0.900205
0.044158 -0.116728 0.899127
0.045618 -0.116576 0.897952
0.047085 -0.116448 0.896968
0.048560 -0.116351 0.896217
0.050023 -0.116228 0.895273
0.051473 -0.116085 0.894170
0.052934 -0.115974 0.893320
0.054409 -0.115900 0.892749
0.055885 -0.115831 0.892212
0.057365 -0.115773 0.891770
0.058853 -0.115734 0.891469
0.060340 -0.115696 0.891173
0.061827 -0.115660 0.890897
0.063321 -0.115638 0.890728
0.064815 -0.115616 0.890559
0.066300 -0.115580 0.890285
0.067796 -0.115565 0.890168
0.069312 -0.115585 0.890318
0.070842 -0.115624 0.890620
0.072386 -0.115686 0.891100
0.073945 -0.115768 0.891730
0.075526 -0.115881 0.892600
0.077115 -0.116001 0.893524
0.078728 -0.116152 0.894687
0.080344 -0.116302 0.895843
0.081985 -0.116482 0.897227
0.083589 -0.116604 0.898168
0.085196 -0.116725 0.899105
0.086790 -0.116824 0.899867
