1714
0.071484 -0.217172 0.879987
0.073001 -0.217261 0.880351
0.074551 -0.217440 0.881077
0.076112 -0.217645 0.881904
0.077705 -0.217932 0.883069
0.079303 -0.218219 0.884233
0.080906 -0.218513 0.885423
0.082506 -0.218785 0.886525
0.084125 -0.219099 0.887796
0.085723 -0.219349 0.888811
0.087309 -0.219558 0.889659
0.088886 -0.219737 0.890383
0.090480 -0.219954 0.891261
0.092089 -0.220199 0.892255
0.093691 -0.220418 0.893144
0.095349 -0.220761 0.894533
0.096983 -0.221040 0.895662
0.015409 -0.222265 0.906854
0.016935 -0.222177 0.906495
0.018459 -0.222076 0.906085
0.019970 -0.221846 0.905144
0.021474 -0.221568 0.904012
0.022968 -0.221241 0.902678
0.024458 -0.220918 0.901360
0.025939 -0.220554 0.899876
0.027416 -0.220193 0.898403
0.028883 -0.219801 0.896802
0.030344 -0.219406 0.895192
0.031801 -0.219012 0.893583
0.033253 -0.218628 0.892017
0.034713 -0.218327 0.890788
0.036174 -0.218055 0.889680
0.037635 -0.217808 0.888672
0.039097 -0.217586 0.887764
0.040557 -0.217365 0.886862
0.042017 -0.217164 0.886042
0.043475 -0.216962 0.885221
0.044926 -0.216742 0.884322
0.046382 -0.216562 0.883588
0.047850 -0.216444 0.883107
0.049314 -0.216316 0.882581
0.050790 -0.216251 0.882317
0.052281 -0.216247 0.882302
0.053752 -0.216166 0.881971
0.055222 -0.216081 0.881623
0.056699 -0.216033 0.881427
0.058183 -0.216008 0.881325
0.059657 -0.215953 0.881100
0.061136 -0.215913 0.880938
0.062605 -0.215843 0.880652
0.064076 -0.215784 0.880412
0.065550 -0.215738 0.880223
0.067028 -0.215703 0.880081
0.068525 -0.215732 0.880200
0.070026 -0.215772 0.880365
0.071534 -0.215832 0.880610
0.073066 -0.215961 0.881135
0.074619 -0.216143 0.881878
0.076182 -0.216350 0.882721
0.077776 -0.216631 0.883870
0.079366 -0.216893 0.884936
0.080955 -0.217142 0.885955
0.082547 -0.217392 0.886971
0.084158 -0.217680 0.888150
0.085748 -0.217905 0.889066
0.087333 -0.218109 0.889897
0.088901 -0.218265 0.890536
0.090488 -0.218461 0.891336
0.092097 -0.218705 0.892331
0.093716 -0.218962 0.893380
0.095376 -0.219307 0.894787
0.097031 -0.219629 0.896099
0.013872 -0.220671 0.906621
0.015405 -0.220668 0.906609
0.016930 -0.220571 0.906211
0.018453 -0.220471 0.905800
0.019966 -0.220266 0.904959
0.021471 -0.220011 0.903910
0.022963 -0.219667 0.902496
0.024455 -0.219360 0.901235
0.025936 -0.218999 0.899754
0.027414 -0.218660 0.898360
0.028885 -0.218299 0.896875
0.030353 -0.217952 0.895450
0.031813 -0.217587 0.893950
0.033273 -0.217249 0.892564
0.034736 -0.216959 0.891370
0.036202 -0.216714 0.890365
0.037672 -0.216512 0.889536
0.039143 -0.216335 0.888807
0.040605 -0.216118 0.887918
0.042071 -0.215936 0.887169
0.043529 -0.215731 0.886328
0.044977 -0.215489 0.885332
0.046430 -0.215287 0.884503
0.047900 -0.215172 0.884028
0.049365 -0.215043 0.883498
0.050838 -0.214956 0.883144
0.052324 -0.214929 0.883032
0.053796 -0.214846 0.882689
0.055267 -0.214762 0.882346
0.056745 -0.214713 0.882143
0.058224 -0.214667 0.881956
0.059698 -0.214606 0.881703
0.061171 -0.214543 0.881447
0.062641 -0.214473 0.881160
0.064109 -0.214402 0.880866
0.065591 -0.214379 0.880771
0.067064 -0.214327 0.880558
0.068560 -0.214350 0.880652
0.070054 -0.214366 0.880720
0.071569 -0.214445 0.881042
0.073111 -0.214597 0.881669
0.074680 -0.214823 0.882597
0.076253 -0.215052 0.883536
0.077855 -0.215352 0.884767
0.079439 -0.215592 0.885754
0.081013 -0.215797 0.886597
0.082599 -0.216023 0.887524
0.084193 -0.216263 0.888513
0.085766 -0.216443 0.889252
0.087349 -0.216642 0.890068
0.088919 -0.216801 0.890722
0.090499 -0.216977 0.891446
0.092108 -0.217219 0.892441
0.093735 -0.217493 0.893566
0.095388 -0.217817 0.894898
0.097053 -0.218159 0.896301
0.013868 -0.219064 0.906330
0.015399 -0.219050 0.906274
0.016925 -0.218974 0.905960
0.018448 -0.218871 0.905535
0.019962 -0.218690 0.904785
0.021467 -0.218437 0.903739
0.022959 -0.218091 0.902307
0.024447 -0.217761 0.900942
0.025927 -0.217400 0.899445
0.027405 -0.217064 0.898058
0.028882 -0.216751 0.896763
0.030359 -0.216473 0.895613
0.031830 -0.216180 0.894402
0.033298 -0.215895 0.893219
0.034772 -0.215672 0.892298
0.036246 -0.215470 0.891464
0.037722 -0.215294 0.890736
0.039200 -0.215141 0.890103
0.040665 -0.214927 0.889215
0.042128 -0.214723 0.888372
0.043587 -0.214515 0.887511
0.045033 -0.214253 0.886428
0.046484 -0.214035 0.885526
0.047955 -0.213918 0.885041
0.049421 -0.213789 0.884507
0.050887 -0.213665 0.883995
0.052370 -0.213617 0.883798
0.053842 -0.213529 0.883433
0.055312 -0.213441 0.883069
0.056782 -0.213353 0.882703
0.058255 -0.213285 0.882421
0.059723 -0.213198 0.882062
0.061189 -0.213113 0.881710
0.062655 -0.213027 0.881354
0.064131 -0.212981 0.881165
0.065620 -0.212980 0.881159
0.067098 -0.212943 0.881008
0.068594 -0.212962 0.881087
0.070095 -0.212998 0.881234
0.071619 -0.213098 0.881650
0.073176 -0.213295 0.882463
0.074756 -0.213546 0.883503
0.076340 -0.213797 0.884542
0.077944 -0.214097 0.885783
0.079530 -0.214335 0.886765
0.081090 -0.214496 0.887434
0.082667 -0.214696 0.888258
0.084245 -0.214890 0.889062
0.085810 -0.215047 0.889710
0.087394 -0.215243 0.890525
0.088974 -0.215424 0.891271
0.090557 -0.215604 0.892016
0.092175 -0.215864 0.893091
0.093810 -0.216152 0.894284
0.095455 -0.216453 0.895529
0.097114 -0.216777 0.896868
0.013861 -0.217427 0.905912
0.015393 -0.217433 0.905937
0.016920 -0.217377 0.905704
0.018444 -0.217291 0.905346
0.019961 -0.217136 0.904699
0.021465 -0.216885 0.903656
0.022956 -0.216538 0.902208
0.024442 -0.216188 0.900752
0.025919 -0.215805 0.899155
0.027396 -0.215474 0.897774
0.028878 -0.215204 0.896650
0.030359 -0.214958 0.895627
0.031840 -0.214738 0.894707
0.033319 -0.214518 0.893791
0.034801 -0.214340 0.893050
0.036287 -0.214202 0.892476
0.037773 -0.214069 0.891919
0.039253 -0.213919 0.891296
0.040723 -0.213725 0.890488
0.042188 -0.213522 0.889642
0.043642 -0.213275 0.888612
0.045084 -0.212993 0.887440
0.046536 -0.212774 0.886524
0.048005 -0.212639 0.885962
0.049473 -0.212512 0.885433
0.050935 -0.212369 0.884837
0.052414 -0.212298 0.884544
0.053881 -0.212185 0.884074
0.055347 -0.212076 0.883617
0.056807 -0.211950 0.883092
0.058280 -0.211880 0.882800
0.059742 -0.211772 0.882351
0.061208 -0.211683 0.881978
0.062674 -0.211597 0.881623
0.064157 -0.211573 0.881520
0.065647 -0.211573 0.881520
0.067126 -0.211536 0.881367
0.068621 -0.211553 0.881438
0.070123 -0.211588 0.881585
0.071656 -0.211715 0.882112
0.073224 -0.211937 0.883039
0.074821 -0.212231 0.884262
0.076413 -0.212503 0.885397
0.078027 -0.212821 0.886722
0.079614 -0.213058 0.887709
0.081167 -0.213195 0.888280
0.082744 -0.213388 0.889085
0.084314 -0.213559 0.889795
0.085880 -0.213712 0.890435
0.087475 -0.213931 0.891344
0.089074 -0.214154 0.892274
0.090669 -0.214358 0.893125
0.092299 -0.214637 0.894290
0.093945 -0.214943 0.895562
0.095582 -0.215220 0.896716
0.097233 -0.215520 0.897965
0.013856 -0.215808 0.905563
0.015389 -0.215833 0.905669
0.016917 -0.215792 0.905495
0.018442 -0.215729 0.905231
0.019960 -0.215599 0.904687
0.021465 -0.215353 0.903653
0.022956 -0.215009 0.902208
0.024442 -0.214662 0.900752
0.025918 -0.214280 0.899152
0.027396 -0.213951 0.897769
0.028881 -0.213705 0.896740
0.030368 -0.213504 0.895894
0.031860 -0.213350 0.895247
0.033350 -0.213200 0.894620
0.034841 -0.213068 0.894064
0.036335 -0.212970 0.893655
0.037827 -0.212860 0.893192
0.039306 -0.212694 0.892496
0.040774 -0.212482 0.891605
0.042236 -0.212255 0.890653
0.043686 -0.211985 0.889520
0.045122 -0.211665 0.888179
0.046571 -0.211427 0.887181
0.048035 -0.211270 0.886521
0.049508 -0.211161 0.886063
0.050967 -0.210999 0.885382
0.052441 -0.210908 0.885003
0.053903 -0.210773 0.884437
0.055368 -0.210661 0.883966
0.056819 -0.210497 0.883277
0.058293 -0.210429 0.882991
0.059755 -0.210320 0.882534
0.061226 -0.210250 0.882239
0.062692 -0.210164 0.881882
0.064176 -0.210140 0.881780
0.065666 -0.210140 0.881780
0.067152 -0.210123 0.881710
0.068655 -0.210163 0.881874
0.070173 -0.210243 0.882212
0.071728 -0.210431 0.883001
0.073307 -0.210678 0.884037
0.074913 -0.210991 0.885351
0.076514 -0.211279 0.886560
0.078122 -0.211576 0.887805
0.079697 -0.211772 0.888626
0.081251 -0.211908 0.889199
0.082836 -0.212118 0.890080
0.084409 -0.212289 0.890799
0.085986 -0.212465 0.891533
0.087608 -0.212744 0.892706
0.089230 -0.213012 0.893832
0.090831 -0.213223 0.894716
0.092456 -0.213485 0.895814
0.094112 -0.213805 0.897160
0.095742 -0.214059 0.898223
0.097396 -0.214356 0.899468
0.013855 -0.214263 0.905519
0.015388 -0.214292 0.905645
0.016918 -0.214274 0.905566
0.018444 -0.214216 0.905324
0.019964 -0.214106 0.904859
0.021471 -0.213883 0.903913
0.022963 -0.213544 0.902484
0.024449 -0.213201 0.901032
0.025927 -0.212825 0.899444
0.027402 -0.212475 0.897964
0.028887 -0.212228 0.896919
0.030377 -0.212049 0.896164
0.031873 -0.211921 0.895624
0.033374 -0.211838 0.895274
0.034873 -0.211752 0.894907
0.036374 -0.211682 0.894613
0.037871 -0.211592 0.894233
0.039352 -0.211427 0.893534
0.040817 -0.211192 0.892543
0.042276 -0.210943 0.891490
0.043722 -0.210652 0.890261
0.045158 -0.210326 0.888884
0.046603 -0.210069 0.887795
0.048063 -0.209891 0.887044
0.049537 -0.209781 0.886579
0.050991 -0.209598 0.885806
0.052456 -0.209469 0.885259
0.053922 -0.209350 0.884758
0.055394 -0.209258 0.884370
0.056845 -0.209097 0.883689
0.058326 -0.209052 0.883498
0.059794 -0.208962 0.883119
0.061262 -0.208877 0.882757
0.062723 -0.208771 0.882311
0.064207 -0.208747 0.882210
0.065698 -0.208747 0.882210
0.067185 -0.208733 0.882151
0.068697 -0.208797 0.882419
0.070224 -0.208899 0.882853
0.071789 -0.209112 0.883753
0.073376 -0.209377 0.884872
0.074990 -0.209707 0.886266
0.076599 -0.210011 0.887551
0.078209 -0.210305 0.888795
0.079785 -0.210499 0.889614
0.081349 -0.210655 0.890274
0.082938 -0.210867 0.891168
0.084515 -0.211042 0.891910
0.086104 -0.211244 0.892761
0.087739 -0.211547 0.894043
0.089366 -0.211819 0.895192
0.090987 -0.212071 0.896256
0.092625 -0.212353 0.897449
0.094286 -0.212676 0.898814
0.095909 -0.212906 0.899787
0.097564 -0.213198 0.901021
0.013859 -0.212780 0.905743
0.015392 -0.212804 0.905843
0.016923 -0.212798 0.905821
0.018451 -0.212770 0.905698
0.019972 -0.212662 0.905241
0.021481 -0.212441 0.904300
0.022975 -0.212126 0.902959
0.024462 -0.211786 0.901509
0.025941 -0.211413 0.899922
0.027414 -0.211044 0.898351
0.028896 -0.210776 0.897212
0.030389 -0.210612 0.896515
0.031889 -0.210507 0.896067
0.033393 -0.210437 0.895767
0.034901 -0.210398 0.895602
0.036410 -0.210369 0.895481
0.037907 -0.210278 0.895093
0.039385 -0.210092 0.894300
0.040851 -0.209857 0.893299
0.042303 -0.209567 0.892064
0.043745 -0.209251 0.890719
0.045176 -0.208904 0.889245
0.046622 -0.208647 0.888149
0.048078 -0.208452 0.887319
0.049552 -0.208341 0.886846
0.051006 -0.208156 0.886060
0.052466 -0.208007 0.885426
0.053933 -0.207891 0.884932
0.055410 -0.207821 0.884634
0.056862 -0.207663 0.883959
0.058351 -0.207641 0.883866
0.059825 -0.207573 0.883578
0.061294 -0.207490 0.883224
0.062756 -0.207386 0.882781
0.064246 -0.207379 0.882754
0.065733 -0.207361 0.882673
0.067227 -0.207365 0.882694
0.068753 -0.207469 0.883135
0.070302 -0.207633 0.883833
0.071891 -0.207908 0.885005
0.073496 -0.208216 0.886313
0.075119 -0.208562 0.887787
0.076729 -0.208861 0.889059
0.078335 -0.209134 0.890221
0.079907 -0.209310 0.890969
0.081473 -0.209464 0.891628
0.083065 -0.209677 0.892534
0.084646 -0.209857 0.893300
0.086249 -0.210081 0.894254
0.087888 -0.210387 0.895557
0.089517 -0.210658 0.896709
0.091149 -0.210927 0.897855
0.092808 -0.211247 0.899218
0.094473 -0.211572 0.900598
0.096109 -0.211823 0.901668
0.097769 -0.212116 0.902918
0.013864 -0.211318 0.906056
0.015398 -0.211355 0.906215
0.016930 -0.211357 0.906224
0.018462 -0.211352 0.906200
0.019986 -0.211265 0.905828
0.021496 -0.211065 0.904971
0.022995 -0.210774 0.903726
0.024483 -0.210437 0.902278
0.025960 -0.210043 0.900588
0.027431 -0.209652 0.898916
0.028913 -0.209380 0.897749
0.030405 -0.209199 0.896972
0.031905 -0.209097 0.896534
0.033413 -0.209046 0.896313
0.034922 -0.209010 0.896163
0.036426 -0.208944 0.895876
0.037923 -0.208851 0.895477
0.039402 -0.208663 0.894672
0.040868 -0.208429 0.893669
0.042317 -0.208122 0.892352
0.043759 -0.207805 0.890994
0.045189 -0.207459 0.889510
0.046636 -0.207204 0.888419
0.048094 -0.207016 0.887612
0.049573 -0.206924 0.887217
0.051032 -0.206759 0.886509
0.052492 -0.206609 0.885866
0.053960 -0.206495 0.885379
0.055439 -0.206429 0.885095
0.056894 -0.206279 0.884450
0.058383 -0.206256 0.884353
0.059859 -0.206190 0.884069
0.061328 -0.206104 0.883703
0.062791 -0.206003 0.883268
0.064288 -0.206016 0.883324
0.065781 -0.206016 0.883324
0.067283 -0.206040 0.883428
0.068823 -0.206181 0.884032
0.070388 -0.206389 0.884922
0.071982 -0.206670 0.886127
0.073590 -0.206978 0.887450
0.075215 -0.207323 0.888925
0.076828 -0.207621 0.890207
0.078429 -0.207875 0.891295
0.080003 -0.208051 0.892048
0.081579 -0.208223 0.892785
0.083187 -0.208471 0.893851
0.084780 -0.208671 0.894708
0.086393 -0.208914 0.895750
0.088035 -0.209218 0.897052
0.089663 -0.209479 0.898171
0.091296 -0.209742 0.899300
0.092959 -0.210065 0.900685
0.094631 -0.210396 0.902106
0.096282 -0.210672 0.903285
0.097951 -0.210978 0.904601
0.100311 -0.214287 0.912156
0.099632 -0.211300 0.905979
0.015404 -0.209903 0.906579
0.016937 -0.209910 0.906610
0.018469 -0.209903 0.906578
0.019996 -0.209843 0.906320
0.021511 -0.209671 0.905578
0.023015 -0.209423 0.904506
0.024507 -0.209108 0.903144
0.025987 -0.208732 0.901520
0.027459 -0.208341 0.899831
0.028943 -0.208069 0.898660
0.030433 -0.207870 0.897800
0.031935 -0.207767 0.897353
0.033443 -0.207713 0.897120
0.034950 -0.207653 0.896862
0.036446 -0.207541 0.896377
0.037944 -0.207446 0.895967
0.039419 -0.207239 0.895074
0.040880 -0.206972 0.893921
0.042325 -0.206649 0.892525
0.043767 -0.206334 0.891164
0.045198 -0.205990 0.889679
0.046646 -0.205741 0.888605
0.048110 -0.205579 0.887902
0.049595 -0.205511 0.887612
0.051059 -0.205366 0.886985
0.052520 -0.205217 0.886341
0.053990 -0.205107 0.885865
0.055469 -0.205040 0.885575
0.056930 -0.204909 0.885010
0.058420 -0.204886 0.884911
0.059902 -0.204839 0.884706
0.061378 -0.204773 0.884423
0.062847 -0.204690 0.884064
0.064347 -0.204706 0.884133
0.065842 -0.204708 0.884140
0.067351 -0.204751 0.884328
0.068901 -0.204913 0.885027
0.070476 -0.205144 0.886026
0.072081 -0.205449 0.887343
0.073699 -0.205779 0.888769
0.075319 -0.206101 0.890160
0.076934 -0.206395 0.891427
0.078537 -0.206647 0.892517
0.080114 -0.206825 0.893285
0.081700 -0.207016 0.894109
0.083318 -0.207282 0.895258
0.084912 -0.207478 0.896107
0.086528 -0.207720 0.897152
0.088162 -0.207997 0.898349
0.089791 -0.208254 0.899456
0.091425 -0.208512 0.900569
0.093092 -0.208837 0.901974
0.094769 -0.209172 0.903421
0.096434 -0.209470 0.904709
0.098114 -0.209794 0.906107
0.100608 -0.211820 0.914858
0.015416 -0.208530 0.907293
0.016949 -0.208521 0.907253
0.018481 -0.208495 0.907139
0.020010 -0.208452 0.906950
0.021528 -0.208305 0.906314
0.023037 -0.208089 0.905372
0.024533 -0.207799 0.904112
0.026014 -0.207425 0.902484
0.027488 -0.207032 0.900772
0.028968 -0.206725 0.899438
0.030454 -0.206491 0.898418
0.031950 -0.206348 0.897798
0.033455 -0.206264 0.897432
0.034954 -0.206158 0.896972
0.036443 -0.206003 0.896298
0.037940 -0.205906 0.895874
0.039415 -0.205698 0.894969
0.040875 -0.205435 0.893827
0.042321 -0.205117 0.892440
0.043763 -0.204805 0.891083
0.045198 -0.204480 0.889673
0.046646 -0.204236 0.888608
0.048115 -0.204097 0.888003
0.049606 -0.204055 0.887821
0.051086 -0.203972 0.887459
0.052550 -0.203829 0.886836
0.054029 -0.203753 0.886508
0.055509 -0.203686 0.886216
0.056975 -0.203570 0.885710
0.058460 -0.203528 0.885528
0.059949 -0.203498 0.885400
0.061426 -0.203434 0.885121
0.062904 -0.203374 0.884860
0.064406 -0.203393 0.884940
0.065909 -0.203415 0.885035
0.067427 -0.203481 0.885323
0.068986 -0.203665 0.886123
0.070571 -0.203918 0.887224
0.072178 -0.204221 0.888543
0.073798 -0.204546 0.889957
0.075418 -0.204860 0.891323
0.077027 -0.205132 0.892507
0.078632 -0.205384 0.893603
0.080220 -0.205582 0.894464
0.081816 -0.205793 0.895384
0.083431 -0.206043 0.896472
0.085028 -0.206240 0.897327
0.086637 -0.206460 0.898285
0.088256 -0.206694 0.899305
0.089878 -0.206928 0.900320
0.091521 -0.207203 0.901518
0.093201 -0.207550 0.903029
0.094881 -0.207887 0.904494
0.096565 -0.208221 0.905946
0.098248 -0.208542 0.907345
0.016960 -0.207111 0.907813
0.018493 -0.207098 0.907755
0.020026 -0.207078 0.907668
0.021546 -0.206937 0.907049
0.023058 -0.206748 0.906220
0.024557 -0.206465 0.904980
0.026040 -0.206096 0.903363
0.027515 -0.205705 0.901651
0.028996 -0.205399 0.900310
0.030480 -0.205145 0.899196
0.031974 -0.204977 0.898460
0.033472 -0.204849 0.897900
0.034965 -0.204700 0.897247
0.036444 -0.204489 0.896321
0.037933 -0.204351 0.895714
0.039404 -0.204124 0.894719
0.040863 -0.203858 0.893555
0.042308 -0.203543 0.892175
0.043754 -0.203254 0.890907
0.045193 -0.202952 0.889582
0.046649 -0.202744 0.888671
0.048124 -0.202627 0.888159
0.049621 -0.202608 0.888076
0.051112 -0.202568 0.887902
0.052582 -0.202449 0.887378
0.054058 -0.202358 0.886978
0.055538 -0.202287 0.886667
0.057003 -0.202169 0.886149
0.058484 -0.202109 0.885888
0.059974 -0.202085 0.885782
0.061459 -0.202042 0.885596
0.062938 -0.201985 0.885345
0.064441 -0.202003 0.885426
0.065951 -0.202045 0.885609
0.067483 -0.202149 0.886064
0.069051 -0.202355 0.886966
0.070646 -0.202629 0.888166
0.072261 -0.202946 0.889557
0.073872 -0.203243 0.890857
0.075479 -0.203514 0.892047
0.077080 -0.203760 0.893126
0.078687 -0.204010 0.894221
0.080277 -0.204210 0.895099
0.081885 -0.204448 0.896139
0.083511 -0.204718 0.897323
0.085108 -0.204913 0.898177
0.086718 -0.205129 0.899125
0.088338 -0.205362 0.900145
0.089963 -0.205597 0.901179
0.091619 -0.205895 0.902485
0.093311 -0.206261 0.904089
0.094993 -0.206595 0.905553
0.096686 -0.206944 0.907079
0.098373 -0.207266 0.908492
0.016973 -0.205729 0.908506
0.018506 -0.205700 0.908378
0.020041 -0.205691 0.908337
0.021562 -0.205550 0.907716
0.023077 -0.205384 0.906981
0.024578 -0.205106 0.905755
0.026064 -0.204756 0.904210
0.027540 -0.204367 0.902492
0.029023 -0.204061 0.901142
0.030502 -0.203769 0.899852
0.031993 -0.203575 0.898996
0.033488 -0.203425 0.898334
0.034975 -0.203239 0.897508
0.036445 -0.202974 0.896340
0.037933 -0.202832 0.895712
0.039399 -0.202581 0.894606
0.040854 -0.202298 0.893352
0.042299 -0.201986 0.891979
0.043749 -0.201720 0.890801
0.045188 -0.201423 0.889489
0.046648 -0.201234 0.888655
0.048127 -0.201137 0.888229
0.049629 -0.201137 0.888227
0.051127 -0.201122 0.888163
0.052603 -0.201025 0.887734
0.054080 -0.200938 0.887348
0.055560 -0.200865 0.887026
0.057026 -0.200748 0.886508
0.058503 -0.200672 0.886172
0.059994 -0.200650 0.886075
0.061485 -0.200626 0.885973
0.062965 -0.200570 0.885725
0.064475 -0.200607 0.885886
0.066004 -0.200704 0.886317
0.067551 -0.200849 0.886956
0.069123 -0.201060 0.887888
0.070712 -0.201311 0.888995
0.072313 -0.201584 0.890201
0.073904 -0.201817 0.891232
0.075495 -0.202045 0.892237
0.077090 -0.202270 0.893232
0.078704 -0.202539 0.894421
0.080302 -0.202757 0.895380
0.081928 -0.203033 0.896600
0.083555 -0.203305 0.897801
0.085162 -0.203519 0.898746
0.086764 -0.203711 0.899595
0.088384 -0.203940 0.900606
0.090018 -0.204195 0.901730
0.091696 -0.204537 0.903240
0.093392 -0.204907 0.904878
0.095084 -0.205258 0.906427
0.097605 -0.207358 0.915701
0.016998 -0.204494 0.909865
0.018529 -0.204417 0.909520
0.020058 -0.204330 0.909135
0.021580 -0.204186 0.908495
0.023097 -0.204018 0.907746
0.024598 -0.203739 0.906503
0.026088 -0.203409 0.905037
0.027565 -0.203021 0.903310
0.029044 -0.202680 0.901792
0.030518 -0.202347 0.900310
0.032003 -0.202114 0.899274
0.033495 -0.201941 0.898504
0.034978 -0.201738 0.897600
0.036448 -0.201474 0.896425
0.037933 -0.201312 0.895707
0.039394 -0.201039 0.894492
0.040844 -0.200734 0.893135
0.042289 -0.200426 0.891762
0.043740 -0.200168 0.890616
0.045184 -0.199896 0.889403
0.046649 -0.199731 0.888671
0.048128 -0.199634 0.888239
0.049630 -0.199635 0.888244
0.051132 -0.199637 0.888255
0.052614 -0.199561 0.887914
0.054097 -0.199494 0.887617
0.055583 -0.199443 0.887388
0.057055 -0.199345 0.886954
0.058533 -0.199270 0.886622
0.060024 -0.199246 0.886514
0.061515 -0.199222 0.886405
0.062996 -0.199164 0.886148
0.064506 -0.199202 0.886316
0.066037 -0.199302 0.886763
0.067593 -0.199468 0.887501
0.069167 -0.199681 0.888448
0.070751 -0.199912 0.889478
0.072350 -0.200176 0.890650
0.073931 -0.200381 0.891564
0.075517 -0.200589 0.892489
0.077105 -0.200796 0.893410
0.078727 -0.201080 0.894674
0.080326 -0.201298 0.895644
0.081960 -0.201593 0.896955
0.083581 -0.201846 0.898080
0.085188 -0.202057 0.899021
0.086780 -0.202225 0.899770
0.088416 -0.202488 0.900939
0.090062 -0.202764 0.902168
0.091762 -0.203152 0.903892
0.093470 -0.203544 0.905636
0.095182 -0.203932 0.907361
0.100193 -0.209532 0.925299
0.098577 -0.207856 0.924822
0.017019 -0.203204 0.910993
0.018552 -0.203120 0.910618
0.020080 -0.203004 0.910096
0.021601 -0.202839 0.909357
0.023116 -0.202650 0.908510
0.024614 -0.202332 0.907086
0.026102 -0.201984 0.905525
0.027577 -0.201576 0.903697
0.029050 -0.201198 0.902003
0.030522 -0.200847 0.900426
0.032007 -0.200612 0.899376
0.033495 -0.200420 0.898514
0.034979 -0.200218 0.897606
0.036448 -0.199954 0.896425
0.037929 -0.199775 0.895621
0.039386 -0.199483 0.894311
0.040835 -0.199179 0.892949
0.042283 -0.198889 0.891648
0.043736 -0.198639 0.890527
0.045185 -0.198390 0.889415
0.046655 -0.198248 0.888776
0.048133 -0.198151 0.888339
0.049631 -0.198133 0.888262
0.051137 -0.198152 0.888345
0.052624 -0.198096 0.888094
0.054113 -0.198050 0.887890
0.055606 -0.198021 0.887760
0.057084 -0.197943 0.887410
0.058562 -0.197868 0.887074
0.060048 -0.197824 0.886874
0.061533 -0.197778 0.886669
0.063007 -0.197699 0.886316
0.064518 -0.197737 0.886486
0.066051 -0.197840 0.886948
0.067615 -0.198029 0.887796
0.069190 -0.198242 0.888750
0.070773 -0.198467 0.889756
0.072364 -0.198704 0.890821
0.073937 -0.198887 0.891640
0.075516 -0.199075 0.892482
0.077105 -0.199281 0.893409
0.078721 -0.199548 0.894605
0.080319 -0.199761 0.895560
0.081952 -0.200053 0.896866
0.083565 -0.200285 0.897908
0.085172 -0.200495 0.898849
0.086763 -0.200659 0.899585
0.088407 -0.200939 0.900839
0.090062 -0.201234 0.902164
0.091774 -0.201644 0.904003
0.093494 -0.202061 0.905869
0.095216 -0.202465 0.907680
0.015503 -0.201966 0.912379
0.017037 -0.201875 0.911968
0.018570 -0.201775 0.911515
0.020095 -0.201614 0.910786
0.021616 -0.201445 0.910025
0.023131 -0.201237 0.909083
0.024625 -0.200886 0.907497
0.026114 -0.200537 0.905924
0.027586 -0.200112 0.904001
0.029059 -0.199730 0.902277
0.030528 -0.199360 0.900607
0.032013 -0.199127 0.899551
0.033498 -0.198917 0.898603
0.034985 -0.198733 0.897771
0.036452 -0.198456 0.896520
0.037930 -0.198260 0.895637
0.039382 -0.197950 0.894237
0.040831 -0.197643 0.892848
0.042279 -0.197357 0.891558
0.043736 -0.197130 0.890532
0.045190 -0.196907 0.889522
0.046669 -0.196801 0.889044
0.048148 -0.196703 0.888601
0.049640 -0.196665 0.888432
0.051142 -0.196665 0.888432
0.052634 -0.196628 0.888264
0.054125 -0.196588 0.888081
0.055625 -0.196582 0.888058
0.057110 -0.196525 0.887800
0.058593 -0.196467 0.887539
0.060079 -0.196421 0.887329
0.061559 -0.196356 0.887035
0.063027 -0.196257 0.886589
0.064537 -0.196292 0.886747
0.066064 -0.196375 0.887123
0.067629 -0.196564 0.887973
0.069204 -0.196773 0.888920
0.070780 -0.196978 0.889846
0.072357 -0.197175 0.890736
0.073929 -0.197354 0.891543
0.075494 -0.197504 0.892222
0.077082 -0.197710 0.893151
0.078698 -0.197974 0.894344
0.080302 -0.198202 0.895374
0.081927 -0.198471 0.896591
0.083546 -0.198718 0.897705
0.085153 -0.198926 0.898647
0.086743 -0.199090 0.899384
0.088388 -0.199369 0.900647
0.090061 -0.199703 0.902154
0.091776 -0.200117 0.904026
0.093496 -0.200529 0.905886
0.096040 -0.202666 0.915542
0.015516 -0.200595 0.913179
0.017052 -0.200497 0.912731
0.018584 -0.200386 0.912226
0.020108 -0.200195 0.911357
0.021630 -0.200028 0.910595
0.023143 -0.199800 0.909558
0.024635 -0.199431 0.907881
0.026120 -0.199046 0.906127
0.027589 -0.198598 0.904088
0.029059 -0.198199 0.902270
0.030525 -0.197813 0.900515
0.032010 -0.197583 0.899468
0.033495 -0.197375 0.898521
0.034985 -0.197211 0.897771
0.036452 -0.196938 0.896530
0.037931 -0.196745 0.895651
0.039383 -0.196439 0.894257
0.040835 -0.196147 0.892930
0.042283 -0.195864 0.891641
0.043745 -0.195659 0.890709
0.045200 -0.195443 0.889725
0.046679 -0.195336 0.889236
0.048157 -0.195235 0.888778
0.049645 -0.195177 0.888513
0.051142 -0.195159 0.888432
0.052639 -0.195141 0.888351
0.054136 -0.195122 0.888264
0.055637 -0.195120 0.888255
0.057128 -0.195084 0.888088
0.058618 -0.195045 0.887913
0.060106 -0.195003 0.887719
0.061581 -0.194921 0.887348
0.063048 -0.194819 0.886881
0.064557 -0.194848 0.887014
0.066077 -0.194908 0.887290
0.067635 -0.195076 0.888053
0.069209 -0.195283 0.888995
0.070786 -0.195486 0.889917
0.072356 -0.195663 0.890723
0.073928 -0.195840 0.891533
0.075492 -0.195987 0.892201
0.077081 -0.196190 0.893127
0.078694 -0.196449 0.894303
0.080299 -0.196678 0.895344
0.081915 -0.196924 0.896464
0.083535 -0.197169 0.897583
0.085140 -0.197374 0.898515
0.086724 -0.197521 0.899183
0.088361 -0.197782 0.900373
0.090042 -0.198132 0.901964
0.091746 -0.198521 0.903735
0.093457 -0.198911 0.905510
0.015532 -0.199247 0.914096
0.017067 -0.199127 0.913543
0.018598 -0.198982 0.912878
0.020118 -0.198755 0.911837
0.021639 -0.198565 0.910966
0.023150 -0.198319 0.909836
0.024640 -0.197932 0.908064
0.026120 -0.197510 0.906128
0.027588 -0.197061 0.904067
0.029058 -0.196663 0.902240
0.030521 -0.196264 0.900409
0.032007 -0.196039 0.899378
0.033492 -0.195833 0.898432
0.034978 -0.195651 0.897600
0.036445 -0.195379 0.896350
0.037917 -0.195154 0.895319
0.039368 -0.194846 0.893905
0.040823 -0.194577 0.892670
0.042279 -0.194333 0.891550
0.043745 -0.194154 0.890730
0.045215 -0.193996 0.890005
0.046694 -0.193891 0.889522
0.048172 -0.193788 0.889053
0.049655 -0.193709 0.888688
0.051147 -0.193671 0.888513
0.052644 -0.193653 0.888432
0.054146 -0.193653 0.888432
0.055648 -0.193653 0.888432
0.057145 -0.193636 0.888351
0.058641 -0.193617 0.888264
0.060131 -0.193578 0.888088
0.061607 -0.193500 0.887728
0.063081 -0.193417 0.887348
0.064589 -0.193441 0.887460
0.066103 -0.193481 0.887644
0.067654 -0.193627 0.888311
0.069223 -0.193813 0.889163
0.070792 -0.193995 0.889999
0.072355 -0.194152 0.890721
0.073928 -0.194328 0.891528
0.075490 -0.194470 0.892181
0.077079 -0.194673 0.893112
0.078693 -0.194930 0.894288
0.080298 -0.195158 0.895334
0.081914 -0.195401 0.896452
0.083534 -0.195646 0.897576
0.085140 -0.195849 0.898508
0.086724 -0.195998 0.899187
0.088359 -0.196252 0.900357
0.090030 -0.196578 0.901851
0.091714 -0.196920 0.903421
0.094224 -0.198996 0.912944
0.015538 -0.197777 0.914462
0.017072 -0.197640 0.913831
0.018604 -0.197502 0.913189
0.020123 -0.197253 0.912040
0.021640 -0.197028 0.910998
0.023153 -0.196797 0.909931
0.024640 -0.196392 0.908058
0.026116 -0.195952 0.906024
0.027585 -0.195505 0.903959
0.029057 -0.195127 0.902208
0.030518 -0.194716 0.900311
0.032003 -0.194495 0.899287
0.033485 -0.194271 0.898252
0.034967 -0.194069 0.897316
0.036432 -0.193792 0.896039
0.037904 -0.193571 0.895014
0.039362 -0.193303 0.893776
0.040822 -0.193059 0.892648
0.042286 -0.192855 0.891706
0.043758 -0.192700 0.890989
0.045233 -0.192566 0.890367
0.046714 -0.192465 0.889903
0.048197 -0.192380 0.889507
0.049675 -0.192281 0.889053
0.051162 -0.192222 0.888778
0.052654 -0.192184 0.888601
0.054151 -0.192165 0.888513
0.055648 -0.192147 0.888432
0.057155 -0.192165 0.888513
0.058663 -0.192184 0.888601
0.060160 -0.192168 0.888529
0.061644 -0.192111 0.888265
0.063125 -0.192047 0.887969
0.064629 -0.192055 0.888004
0.066138 -0.192078 0.888113
0.067684 -0.192204 0.888694
0.069245 -0.192367 0.889449
0.070807 -0.192526 0.890183
0.072363 -0.192662 0.890811
0.073935 -0.192836 0.891615
0.075500 -0.192981 0.892289
0.077095 -0.193200 0.893300
0.078710 -0.193457 0.894489
0.080323 -0.193701 0.895615
0.081934 -0.193928 0.896668
0.083553 -0.194169 0.897781
0.085151 -0.194352 0.898628
0.086742 -0.194514 0.899375
0.088352 -0.194711 0.900288
0.090012 -0.195009 0.901666
0.091675 -0.195305 0.903031
0.014012 -0.196503 0.915751
0.015546 -0.196324 0.914918
0.017079 -0.196166 0.914178
0.018610 -0.196014 0.913470
0.020125 -0.195728 0.912140
0.021637 -0.195465 0.910912
0.023148 -0.195214 0.909742
0.024635 -0.194810 0.907858
0.026111 -0.194375 0.905834
0.027580 -0.193936 0.903785
0.029055 -0.193581 0.902130
0.030518 -0.193190 0.900311
0.032003 -0.192969 0.899281
0.033482 -0.192727 0.898153
0.034959 -0.192502 0.897106
0.036419 -0.192206 0.895726
0.037889 -0.191981 0.894675
0.039353 -0.191742 0.893561
0.040821 -0.191541 0.892625
0.042295 -0.191383 0.891890
0.043780 -0.191285 0.891431
0.045260 -0.191172 0.890908
0.046743 -0.191075 0.890455
0.048227 -0.190993 0.890073
0.049706 -0.190893 0.889604
0.051189 -0.190814 0.889236
0.052676 -0.190755 0.888963
0.054167 -0.190715 0.888778
0.055659 -0.190677 0.888601
0.057161 -0.190677 0.888601
0.058664 -0.190681 0.888616
0.060167 -0.190684 0.888631
0.061658 -0.190648 0.888463
0.063146 -0.190605 0.888265
0.064658 -0.190635 0.888404
0.066174 -0.190678 0.888603
0.067715 -0.190785 0.889102
0.069269 -0.190925 0.889756
0.070829 -0.191076 0.890457
0.072384 -0.191209 0.891077
0.073958 -0.191384 0.891892
0.075539 -0.191568 0.892751
0.077144 -0.191807 0.893863
0.078769 -0.192083 0.895153
0.080383 -0.192324 0.896276
0.081994 -0.192550 0.897326
0.083614 -0.192787 0.898432
0.085213 -0.192969 0.899279
0.086804 -0.193127 0.900016
0.088407 -0.193304 0.900841
0.090048 -0.193559 0.902028
0.091691 -0.193809 0.903194
0.015555 -0.194889 0.915459
0.017089 -0.194730 0.914711
0.018622 -0.194597 0.914090
0.020140 -0.194332 0.912844
0.021650 -0.194031 0.911430
0.023156 -0.193744 0.910080
0.024643 -0.193338 0.908177
0.026118 -0.192894 0.906088
0.027588 -0.192461 0.904055
0.029064 -0.192114 0.902426
0.030527 -0.191724 0.900592
0.032007 -0.191465 0.899378
0.033478 -0.191185 0.898060
0.034945 -0.190903 0.896735
0.036404 -0.190607 0.895344
0.037873 -0.190384 0.894297
0.039345 -0.190188 0.893377
0.040822 -0.190033 0.892652
0.042309 -0.189937 0.892197
0.043803 -0.189875 0.891905
0.045293 -0.189799 0.891552
0.046781 -0.189722 0.891189
0.048272 -0.189660 0.890900
0.049753 -0.189563 0.890441
0.051232 -0.189466 0.889985
0.052714 -0.189385 0.889604
0.054200 -0.189324 0.889317
0.055686 -0.189265 0.889044
0.057189 -0.189264 0.889037
0.058693 -0.189267 0.889051
0.060198 -0.189272 0.889077
0.061689 -0.189238 0.888915
0.063184 -0.189213 0.888796
0.064697 -0.189245 0.888948
0.066216 -0.189289 0.889156
0.067750 -0.189378 0.889572
0.069304 -0.189513 0.890205
0.070857 -0.189643 0.890817
0.072421 -0.189793 0.891522
0.074004 -0.189989 0.892442
0.075602 -0.190213 0.893493
0.077218 -0.190473 0.894716
0.078851 -0.190765 0.896087
0.080467 -0.191005 0.897218
0.082079 -0.191227 0.898258
0.083701 -0.191463 0.899366
0.085300 -0.191641 0.900203
0.086902 -0.191818 0.901034
0.088508 -0.191996 0.901870
0.090135 -0.192215 0.902899
0.091759 -0.192420 0.903861
0.015558 -0.193372 0.915623
0.017092 -0.193221 0.914908
0.018627 -0.193096 0.914320
0.020147 -0.192845 0.913129
0.021657 -0.192553 0.911748
0.023162 -0.192245 0.910291
0.024649 -0.191840 0.908371
0.026124 -0.191397 0.906272
0.027597 -0.190992 0.904355
0.029074 -0.190650 0.902737
0.030538 -0.190261 0.900896
0.032013 -0.189981 0.899570
0.033481 -0.189680 0.898145
0.034938 -0.189348 0.896572
0.036397 -0.189051 0.895163
0.037866 -0.188830 0.894118
0.039341 -0.188657 0.893298
0.040823 -0.188528 0.892687
0.042328 -0.188506 0.892584
0.043832 -0.188486 0.892488
0.045336 -0.188465 0.892392
0.046835 -0.188427 0.892208
0.048336 -0.188401 0.892087
0.049819 -0.188306 0.891637
0.051300 -0.188209 0.891176
0.052774 -0.188093 0.890628
0.054256 -0.188010 0.890237
0.055738 -0.187931 0.889861
0.057241 -0.187928 0.889849
0.058747 -0.187931 0.889862
0.060252 -0.187934 0.889877
0.061744 -0.187897 0.889702
0.063240 -0.187873 0.889587
0.064749 -0.187888 0.889656
0.066262 -0.187913 0.889778
0.067790 -0.187980 0.890095
0.069337 -0.188095 0.890639
0.070886 -0.188208 0.891173
0.072458 -0.188379 0.891982
0.074052 -0.188599 0.893024
0.075667 -0.188860 0.894261
0.077292 -0.189138 0.895575
0.078927 -0.189429 0.896954
0.080544 -0.189666 0.898078
0.082165 -0.189904 0.899202
0.083789 -0.190139 0.900319
0.085400 -0.190337 0.901254
0.087023 -0.190554 0.902284
0.088632 -0.190735 0.903136
0.090245 -0.190917 0.904003
0.091851 -0.191079 0.904768
0.015560 -0.191849 0.915766
0.017095 -0.191701 0.915060
0.018633 -0.191610 0.914623
0.020156 -0.191388 0.913561
0.021670 -0.191120 0.912283
0.023172 -0.190792 0.910716
0.024660 -0.190386 0.908781
0.026137 -0.189960 0.906749
0.027612 -0.189561 0.904841
0.029087 -0.189205 0.903142
0.030554 -0.188835 0.901375
0.032027 -0.188533 0.899937
0.033491 -0.188215 0.898416
0.034952 -0.187900 0.896913
0.036411 -0.187608 0.895519
0.037884 -0.187406 0.894556
0.039368 -0.187268 0.893897
0.040855 -0.187160 0.893380
0.042366 -0.187161 0.893386
0.043885 -0.187198 0.893565
0.045396 -0.187202 0.893583
0.046907 -0.187204 0.893591
0.048422 -0.187218 0.893659
0.049908 -0.187126 0.893220
0.051391 -0.187029 0.892755
0.052866 -0.186908 0.892179
0.054340 -0.186790 0.891614
0.055814 -0.186677 0.891076
0.057314 -0.186656 0.890974
0.058815 -0.186639 0.890895
0.060310 -0.186607 0.890740
0.061797 -0.186549 0.890465
0.063287 -0.186504 0.890251
0.064784 -0.186480 0.890134
0.066285 -0.186468 0.890081
0.067811 -0.186528 0.890367
0.069358 -0.186642 0.890907
0.070914 -0.186773 0.891536
0.072504 -0.186986 0.892549
0.074121 -0.187259 0.893855
0.075746 -0.187540 0.895197
0.077381 -0.187835 0.896603
0.079017 -0.188122 0.897973
0.080643 -0.188374 0.899179
0.082259 -0.188595 0.900229
0.083895 -0.188852 0.901456
0.085526 -0.189089 0.902588
0.087170 -0.189345 0.903812
0.088785 -0.189529 0.904692
0.090400 -0.189710 0.905551
0.092023 -0.189900 0.906459
0.018647 -0.190199 0.915293
0.020174 -0.190012 0.914394
0.021691 -0.189751 0.913140
0.023187 -0.189370 0.911305
0.024673 -0.188948 0.909273
0.026151 -0.188523 0.907227
0.027624 -0.188108 0.905231
0.029099 -0.187753 0.903522
0.030570 -0.187404 0.901844
0.032046 -0.187121 0.900483
0.033515 -0.186824 0.899055
0.034980 -0.186534 0.897657
0.036442 -0.186245 0.896265
0.037916 -0.186043 0.895295
0.039400 -0.185904 0.894625
0.040892 -0.185813 0.894187
0.042409 -0.185836 0.894297
0.043939 -0.185914 0.894676
0.045463 -0.185960 0.894897
0.046982 -0.185984 0.895010
0.048500 -0.186003 0.895100
0.049993 -0.185929 0.894744
0.051484 -0.185850 0.894364
0.052962 -0.185730 0.893787
0.054437 -0.185610 0.893211
0.055912 -0.185494 0.892650
0.057399 -0.185421 0.892303
0.058885 -0.185351 0.891965
0.060375 -0.185296 0.891698
0.061857 -0.185218 0.891322
0.063335 -0.185136 0.890930
0.064832 -0.185109 0.890800
0.066331 -0.185091 0.890711
0.067858 -0.185147 0.890983
0.069407 -0.185261 0.891529
0.070978 -0.185429 0.892337
0.072585 -0.185679 0.893541
0.074212 -0.185972 0.894955
0.075847 -0.186272 0.896394
0.077483 -0.186563 0.897795
0.079121 -0.186846 0.899160
0.080743 -0.187081 0.900289
0.082361 -0.187300 0.901344
0.084000 -0.187558 0.902586
0.085652 -0.187834 0.903915
0.087300 -0.188093 0.905161
0.088936 -0.188316 0.906230
0.090570 -0.188528 0.907252
0.092214 -0.188755 0.908344
0.018660 -0.188783 0.915952
0.020192 -0.188624 0.915181
0.021713 -0.188394 0.914066
0.023211 -0.188015 0.912228
0.024698 -0.187595 0.910185
0.026177 -0.187172 0.908137
0.027651 -0.186759 0.906132
0.029129 -0.186409 0.904432
0.030600 -0.186062 0.902747
0.032079 -0.185785 0.901404
0.033550 -0.185495 0.900001
0.035021 -0.185227 0.898700
0.036488 -0.184961 0.897410
0.037968 -0.184781 0.896535
0.039457 -0.184657 0.895932
0.040956 -0.184585 0.895582
0.042475 -0.184608 0.895697
0.044009 -0.184689 0.896088
0.045539 -0.184753 0.896398
0.047061 -0.184777 0.896516
0.048586 -0.184813 0.896690
0.050082 -0.184741 0.896343
0.051576 -0.184664 0.895967
0.053057 -0.184546 0.895394
0.054540 -0.184444 0.894899
0.056013 -0.184312 0.894260
0.057500 -0.184232 0.893873
0.058987 -0.184156 0.893501
0.060472 -0.184079 0.893128
0.061944 -0.183967 0.892585
0.063418 -0.183866 0.892095
0.064910 -0.183820 0.891874
0.066405 -0.183783 0.891693
0.067933 -0.183841 0.891975
0.069491 -0.183973 0.892612
0.071074 -0.184164 0.893541
0.072683 -0.184414 0.894754
0.074320 -0.184724 0.896258
0.075950 -0.185003 0.897609
0.077582 -0.185275 0.898932
0.079214 -0.185539 0.900214
0.080836 -0.185769 0.901328
0.082457 -0.185988 0.902391
0.084098 -0.186244 0.903632
0.085759 -0.186536 0.905047
0.087411 -0.186795 0.906305
0.089057 -0.187035 0.907469
0.090704 -0.187268 0.908600
0.092373 -0.187537 0.909909
0.018675 -0.187375 0.916658
0.020209 -0.187233 0.915963
0.021733 -0.187023 0.914937
0.023236 -0.186667 0.913194
0.024724 -0.186247 0.911139
0.026203 -0.185812 0.909015
0.027678 -0.185399 0.906991
0.029156 -0.185052 0.905293
0.030633 -0.184726 0.903699
0.032120 -0.184491 0.902551
0.033600 -0.184241 0.901328
0.035080 -0.184015 0.900220
0.036557 -0.183787 0.899106
0.038040 -0.183609 0.898234
0.039529 -0.183471 0.897562
0.041034 -0.183415 0.897285
0.042556 -0.183439 0.897403
0.044088 -0.183501 0.897708
0.045620 -0.183559 0.897994
0.047143 -0.183578 0.898082
0.048665 -0.183592 0.898153
0.050164 -0.183521 0.897805
0.051666 -0.183464 0.897525
0.053151 -0.183352 0.896980
0.054638 -0.183253 0.896496
0.056112 -0.183119 0.895837
0.057595 -0.183020 0.895354
0.059072 -0.182906 0.894799
0.060553 -0.182808 0.894319
0.062026 -0.182694 0.893762
0.063497 -0.182580 0.893201
0.064991 -0.182536 0.892989
0.066494 -0.182517 0.892894
0.068039 -0.182613 0.893365
0.069608 -0.182767 0.894116
0.071209 -0.182996 0.895239
0.072828 -0.183262 0.896540
0.074468 -0.183569 0.898041
0.076092 -0.183825 0.899294
0.077711 -0.184057 0.900429
0.079330 -0.184284 0.901537
0.080939 -0.184475 0.902474
0.082552 -0.184673 0.903440
0.084186 -0.184905 0.904577
0.085848 -0.185193 0.905986
0.087501 -0.185449 0.907237
0.089150 -0.185689 0.908413
0.090810 -0.185943 0.909655
0.092503 -0.186256 0.911186
0.018699 -0.186064 0.917856
0.020235 -0.185920 0.917147
0.021757 -0.185676 0.915941
0.023261 -0.185322 0.914198
0.024751 -0.184906 0.912147
0.026231 -0.184472 0.910005
0.027708 -0.184063 0.907985
0.029188 -0.183718 0.906283
0.030669 -0.183412 0.904774
0.032158 -0.183182 0.903640
0.033644 -0.182952 0.902506
0.035133 -0.182761 0.901565
0.036615 -0.182554 0.900544
0.038102 -0.182382 0.899695
0.039597 -0.182264 0.899113
0.041108 -0.182224 0.898917
0.042629 -0.182230 0.898944
0.044159 -0.182271 0.899148
0.045688 -0.182308 0.899328
0.047207 -0.182302 0.899301
0.048721 -0.182278 0.899182
0.050221 -0.182205 0.898821
0.051730 -0.182169 0.898642
0.053227 -0.182093 0.898266
0.054722 -0.182015 0.897886
0.056200 -0.181885 0.897241
0.057680 -0.181769 0.896672
0.059152 -0.181635 0.896010
0.060629 -0.181522 0.895452
0.062105 -0.181409 0.894897
0.063584 -0.181315 0.894429
0.065087 -0.181290 0.894305
0.066606 -0.181309 0.894400
0.068162 -0.181425 0.894974
0.069742 -0.181600 0.895838
0.071361 -0.181865 0.897146
0.072984 -0.182131 0.898457
0.074626 -0.182434 0.899949
0.076252 -0.182683 0.901178
0.077865 -0.182893 0.902216
0.079471 -0.183079 0.903133
0.081072 -0.183247 0.903961
0.082671 -0.183404 0.904736
0.084289 -0.183598 0.905692
0.085937 -0.183848 0.906924
0.087582 -0.184081 0.908075
0.089240 -0.184335 0.909330
0.090920 -0.184625 0.910761
0.092635 -0.184975 0.912487
0.018730 -0.184809 0.919355
0.020262 -0.184608 0.918355
0.021781 -0.184324 0.916943
0.023286 -0.183973 0.915196
0.024778 -0.183561 0.913147
0.026257 -0.183111 0.910907
0.027735 -0.182703 0.908880
0.029219 -0.182373 0.907238
0.030702 -0.182074 0.905747
0.032196 -0.181861 0.904691
0.033687 -0.181653 0.903653
0.035177 -0.181462 0.902706
0.036665 -0.181274 0.901770
0.038158 -0.181122 0.901013
0.039656 -0.181007 0.900439
0.041173 -0.180983 0.900320
0.042695 -0.180986 0.900339
0.044219 -0.180994 0.900377
0.045746 -0.181011 0.900459
0.047261 -0.180984 0.900329
0.048767 -0.180925 0.900032
0.050273 -0.180868 0.899749
0.051783 -0.180832 0.899569
0.053283 -0.180760 0.899213
0.054786 -0.180702 0.898925
0.056275 -0.180605 0.898442
0.057758 -0.180493 0.897886
0.059234 -0.180364 0.897241
0.060718 -0.180267 0.896760
0.062195 -0.180154 0.896196
0.063677 -0.180062 0.895742
0.065190 -0.180058 0.895721
0.066725 -0.180114 0.896000
0.068291 -0.180249 0.896672
0.069889 -0.180460 0.897719
0.071525 -0.180759 0.899208
0.073154 -0.181028 0.900548
0.074793 -0.181312 0.901957
0.076414 -0.181540 0.903095
0.078013 -0.181709 0.903935
0.079598 -0.181838 0.904577
0.081184 -0.181967 0.905215
0.082775 -0.182099 0.905875
0.084379 -0.182257 0.906658
0.086011 -0.182466 0.907698
0.087656 -0.182697 0.908847
0.089314 -0.182946 0.910089
0.091005 -0.183254 0.911619
0.092722 -0.183601 0.913345
0.017217 -0.183690 0.921558
0.018755 -0.183495 0.920580
0.020282 -0.183231 0.919257
0.021799 -0.182926 0.917725
0.023306 -0.182575 0.915964
0.024799 -0.182165 0.913907
0.026277 -0.181700 0.911576
0.027758 -0.181311 0.909623
0.029243 -0.180983 0.907979
0.030730 -0.180703 0.906575
0.032225 -0.180494 0.905524
0.033721 -0.180304 0.904573
0.035216 -0.180130 0.903699
0.036713 -0.179979 0.902940
0.038211 -0.179847 0.902280
0.039712 -0.179733 0.901708
0.041230 -0.179709 0.901588
0.042751 -0.179694 0.901510
0.044268 -0.179667 0.901378
0.045792 -0.179667 0.901378
0.047305 -0.179626 0.901171
0.048808 -0.179548 0.900781
0.050310 -0.179475 0.900411
0.051816 -0.179421 0.900140
0.053317 -0.179350 0.899788
0.054826 -0.179310 0.899588
0.056324 -0.179237 0.899217
0.057819 -0.179160 0.898835
0.059307 -0.179065 0.898358
0.060800 -0.178988 0.897968
0.062286 -0.178895 0.897504
0.063782 -0.178838 0.897218
0.065299 -0.178836 0.897209
0.066837 -0.178894 0.897499
0.068405 -0.179027 0.898164
0.070012 -0.179253 0.899300
0.071652 -0.179553 0.900802
0.073285 -0.179825 0.902167
0.074929 -0.180109 0.903593
0.076544 -0.180317 0.904635
0.078131 -0.180449 0.905298
0.079701 -0.180539 0.905752
0.081281 -0.180647 0.906291
0.082865 -0.180760 0.906857
0.084469 -0.180912 0.907623
0.086094 -0.181102 0.908576
0.087739 -0.181328 0.909711
0.089399 -0.181575 0.910950
0.091084 -0.181866 0.912406
0.092794 -0.182195 0.914058
0.015701 -0.182615 0.924026
0.017237 -0.182341 0.922640
0.018773 -0.182109 0.921463
0.020297 -0.181811 0.919954
0.021817 -0.181514 0.918454
0.023325 -0.181166 0.916693
0.024821 -0.180777 0.914725
0.026300 -0.180317 0.912396
0.027785 -0.179945 0.910512
0.029266 -0.179587 0.908702
0.030755 -0.179309 0.907297
0.032252 -0.179105 0.906262
0.033755 -0.178950 0.905478
0.035252 -0.178782 0.904627
0.036754 -0.178648 0.903951
0.038251 -0.178503 0.903216
0.039749 -0.178374 0.902564
0.041261 -0.178314 0.902263
0.042778 -0.178279 0.902083
0.044287 -0.178216 0.901766
0.045812 -0.178215 0.901760
0.047326 -0.178175 0.901560
0.048825 -0.178083 0.901092
0.050327 -0.178009 0.900716
0.051837 -0.177967 0.900504
0.053339 -0.177898 0.900158
0.054849 -0.177860 0.899962
0.056358 -0.177821 0.899769
0.057861 -0.177766 0.899488
0.059358 -0.177694 0.899127
0.060858 -0.177637 0.898835
0.062357 -0.177578 0.898536
0.063862 -0.177540 0.898343
0.065381 -0.177540 0.898343
0.066927 -0.177612 0.898709
0.068503 -0.177759 0.899456
0.070112 -0.177983 0.900584
0.071755 -0.178284 0.902108
0.073399 -0.178572 0.903566
0.075038 -0.178838 0.904913
0.076648 -0.179025 0.905859
0.078235 -0.179151 0.906498
0.079799 -0.179224 0.906864
0.081374 -0.179315 0.907328
0.082960 -0.179428 0.907898
0.084566 -0.179580 0.908666
0.086176 -0.179733 0.909442
0.087822 -0.179956 0.910569
0.089484 -0.180204 0.911824
0.091164 -0.180476 0.913202
0.092866 -0.180785 0.914765
0.095355 -0.184155 0.923894
0.094583 -0.181111 0.916413
0.014162 -0.181348 0.925552
0.015709 -0.181139 0.924488
0.017245 -0.180866 0.923094
0.018779 -0.180613 0.921800
0.020303 -0.180303 0.920217
0.021821 -0.179995 0.918646
0.023330 -0.179653 0.916901
0.024829 -0.179288 0.915039
0.026312 -0.178851 0.912808
0.027800 -0.178499 0.911012
0.029282 -0.178143 0.909193
0.030771 -0.177867 0.907786
0.032269 -0.177665 0.906757
0.033773 -0.177514 0.905984
0.035272 -0.177349 0.905144
0.036776 -0.177221 0.904488
0.038274 -0.177076 0.903751
0.039772 -0.176947 0.903089
0.041280 -0.176866 0.902675
0.042792 -0.176809 0.902386
0.044297 -0.176725 0.901955
0.045821 -0.176721 0.901939
0.047331 -0.176666 0.901657
0.048830 -0.176575 0.901192
0.050336 -0.176514 0.900882
0.051847 -0.176473 0.900673
0.053349 -0.176403 0.900316
0.054865 -0.176384 0.900219
0.056380 -0.176365 0.900120
0.057885 -0.176314 0.899857
0.059394 -0.176278 0.899676
0.060903 -0.176241 0.899488
0.062410 -0.176205 0.899301
0.063924 -0.176185 0.899202
0.065444 -0.176185 0.899202
0.066990 -0.176255 0.899557
0.068567 -0.176399 0.900295
0.070171 -0.176605 0.901344
0.071816 -0.176904 0.902870
0.073460 -0.177189 0.904324
0.075093 -0.177434 0.905576
0.076703 -0.177616 0.906505
0.078297 -0.177757 0.907223
0.079864 -0.177831 0.907602
0.081449 -0.177942 0.908166
0.083054 -0.178090 0.908926
0.084671 -0.178260 0.909789
0.086283 -0.178414 0.910576
0.087932 -0.178636 0.911712
0.089595 -0.178880 0.912954
0.091258 -0.179114 0.914150
0.092945 -0.179386 0.915540
0.094642 -0.179670 0.916989
0.096257 -0.181346 0.917605
0.096306 -0.179883 0.918073
0.098745 -0.183083 0.926391
0.097951 -0.180053 0.918942
0.012608 -0.179938 0.926369
0.014163 -0.179799 0.925653
0.015712 -0.179608 0.924671
0.017249 -0.179338 0.923281
0.018783 -0.179083 0.921971
0.020304 -0.178757 0.920290
0.021823 -0.178456 0.918738
0.023335 -0.178139 0.917106
0.024839 -0.177803 0.915377
0.026325 -0.177388 0.913244
0.027817 -0.177057 0.911539
0.029301 -0.176717 0.909790
0.030792 -0.176444 0.908383
0.032293 -0.176258 0.907427
0.033799 -0.176111 0.906668
0.035299 -0.175948 0.905827
0.036803 -0.175820 0.905170
0.038302 -0.175673 0.904412
0.039797 -0.175525 0.903652
0.041301 -0.175425 0.903137
0.042809 -0.175348 0.902741
0.044309 -0.175244 0.902202
0.045833 -0.175239 0.902180
0.047343 -0.175183 0.901890
0.048848 -0.175111 0.901522
0.050359 -0.175068 0.901299
0.051872 -0.175030 0.901102
0.053374 -0.174961 0.900748
0.054891 -0.174943 0.900657
0.056408 -0.174924 0.900558
0.057913 -0.174873 0.900295
0.059424 -0.174839 0.900120
0.060933 -0.174804 0.899941
0.062442 -0.174770 0.899765
0.063957 -0.174753 0.899676
0.065478 -0.174753 0.899676
0.067025 -0.174822 0.900031
0.068604 -0.174966 0.900773
0.070209 -0.175171 0.901829
0.071854 -0.175467 0.903350
0.073498 -0.175746 0.904789
0.075123 -0.175970 0.905943
0.076733 -0.176149 0.906864
0.078329 -0.176291 0.907593
0.079906 -0.176384 0.908075
0.081502 -0.176517 0.908756
0.083125 -0.176701 0.909703
0.084761 -0.176906 0.910761
0.086394 -0.177097 0.911743
0.088045 -0.177318 0.912884
0.089701 -0.177541 0.914030
0.091353 -0.177750 0.915104
0.093020 -0.177979 0.916285
0.094691 -0.178207 0.917459
0.096345 -0.178399 0.918448
0.097999 -0.178584 0.919399
0.100457 -0.181777 0.927741
0.099657 -0.178769 0.920350
0.011047 -0.178451 0.926802
0.012605 -0.178323 0.926137
0.014160 -0.178187 0.925431
0.015707 -0.177989 0.924406
0.017245 -0.177736 0.923091
0.018777 -0.177464 0.921675
0.020298 -0.177142 0.920003
0.021819 -0.176862 0.918550
0.023335 -0.176583 0.917103
0.024842 -0.176271 0.915483
0.026333 -0.175899 0.913549
0.027829 -0.175590 0.911944
0.029317 -0.175270 0.910282
0.030808 -0.174999 0.908873
0.032311 -0.174814 0.907916
0.033817 -0.174666 0.907148
0.035317 -0.174502 0.906293
0.036822 -0.174371 0.905613
0.038317 -0.174209 0.904770
0.039809 -0.174044 0.903916
0.041309 -0.173928 0.903310
0.042817 -0.173850 0.902909
0.044313 -0.173732 0.902293
0.045838 -0.173728 0.902273
0.047348 -0.173673 0.901986
0.048858 -0.173618 0.901705
0.050366 -0.173564 0.901420
0.051884 -0.173544 0.901321
0.053393 -0.173496 0.901069
0.054916 -0.173493 0.901055
0.056433 -0.173474 0.900953
0.057938 -0.173421 0.900678
0.059453 -0.173399 0.900567
0.060963 -0.173364 0.900382
0.062473 -0.173330 0.900205
0.063989 -0.173313 0.900119
0.065510 -0.173312 0.900113
0.067052 -0.173364 0.900385
0.068631 -0.173507 0.901128
0.070230 -0.173696 0.902107
0.071869 -0.173972 0.903543
0.073513 -0.174247 0.904969
0.075130 -0.174451 0.906027
0.076741 -0.174630 0.906958
0.078346 -0.174790 0.907790
0.079941 -0.174922 0.908473
0.081547 -0.175072 0.909256
0.083188 -0.175291 0.910392
