1714
0.044691 -0.190260 0.879707
0.046160 -0.190183 0.879350
0.047636 -0.190143 0.879166
0.049113 -0.190105 0.878992
0.050589 -0.190070 0.878827
0.052050 -0.189978 0.878405
0.053502 -0.189862 0.877864
0.054935 -0.189684 0.877044
0.056355 -0.189472 0.876063
0.057765 -0.189242 0.875000
0.059184 -0.189049 0.874107
0.060594 -0.188837 0.873128
0.062007 -0.188645 0.872241
0.063440 -0.188523 0.871676
0.064887 -0.188446 0.871318
0.066348 -0.188412 0.871161
0.067822 -0.188415 0.871176
0.069308 -0.188450 0.871337
0.070774 -0.188431 0.871251
0.072246 -0.188429 0.871240
0.073724 -0.188443 0.871305
0.075227 -0.188518 0.871651
0.076741 -0.188617 0.872109
0.078265 -0.188738 0.872669
0.079805 -0.188890 0.873370
0.081339 -0.189023 0.873989
0.082899 -0.189213 0.874864
0.084474 -0.189427 0.875856
0.086078 -0.189700 0.877117
0.087680 -0.189958 0.878310
0.089325 -0.190298 0.879880
0.090960 -0.190608 0.881316
0.092637 -0.190994 0.883101
0.094354 -0.191447 0.885196
0.096135 -0.192016 0.887826
0.097914 -0.192563 0.890354
0.099652 -0.193014 0.892439
0.101310 -0.193299 0.893758
0.033326 -0.191832 0.893982
0.034751 -0.191357 0.891770
0.036157 -0.190823 0.889282
0.037551 -0.190269 0.886699
0.038973 -0.189893 0.884944
0.040382 -0.189484 0.883040
0.041823 -0.189247 0.881936
0.043277 -0.189089 0.881199
0.044745 -0.188995 0.880760
0.046220 -0.188939 0.880500
0.047704 -0.188920 0.880413
0.049183 -0.188885 0.880247
0.050657 -0.188831 0.879996
0.052114 -0.188720 0.879481
0.053557 -0.188567 0.878766
0.054986 -0.188373 0.877860
0.056401 -0.188144 0.876793
0.057814 -0.187916 0.875733
0.059228 -0.187706 0.874755
0.060639 -0.187497 0.873780
0.062052 -0.187303 0.872877
0.063487 -0.187183 0.872318
0.064929 -0.187088 0.871875
0.066391 -0.187055 0.871719
0.067865 -0.187057 0.871731
0.069352 -0.187093 0.871896
0.070826 -0.187093 0.871897
0.072307 -0.187110 0.871975
0.073795 -0.187145 0.872139
0.075305 -0.187234 0.872556
0.076813 -0.187315 0.872934
0.078331 -0.187415 0.873397
0.079863 -0.187546 0.874009
0.081389 -0.187657 0.874526
0.082926 -0.187790 0.875143
0.084490 -0.187978 0.876021
0.086077 -0.188209 0.877099
0.087668 -0.188442 0.878185
0.089321 -0.188799 0.879845
0.090975 -0.189144 0.881457
0.092666 -0.189555 0.883372
0.094393 -0.190027 0.885570
0.096159 -0.190559 0.888051
0.097917 -0.191061 0.890388
0.099634 -0.191467 0.892281
0.102233 -0.193531 0.901899
0.036160 -0.189332 0.889356
0.037572 -0.188867 0.887173
0.039009 -0.188565 0.885754
0.040435 -0.188235 0.884204
0.041882 -0.188019 0.883187
0.043340 -0.187867 0.882476
0.044818 -0.187810 0.882207
0.046301 -0.187775 0.882041
0.047792 -0.187775 0.882041
0.049274 -0.187739 0.881875
0.050745 -0.187665 0.881525
0.052193 -0.187514 0.880819
0.053622 -0.187302 0.879822
0.055041 -0.187071 0.878736
0.056451 -0.186822 0.877565
0.057859 -0.186579 0.876424
0.059274 -0.186369 0.875439
0.060687 -0.186162 0.874468
0.062096 -0.185955 0.873494
0.063526 -0.185819 0.872856
0.064969 -0.185725 0.872415
0.066432 -0.185691 0.872255
0.067914 -0.185711 0.872348
0.069408 -0.185766 0.872604
0.070892 -0.185787 0.872704
0.072388 -0.185840 0.872954
0.073879 -0.185879 0.873138
0.075392 -0.185971 0.873568
0.076895 -0.186034 0.873866
0.078405 -0.186110 0.874224
0.079915 -0.186184 0.874570
0.081432 -0.186272 0.874984
0.082953 -0.186366 0.875426
0.084509 -0.186534 0.876214
0.086086 -0.186744 0.877199
0.087684 -0.186989 0.878349
0.089348 -0.187364 0.880114
0.091023 -0.187751 0.881929
0.092729 -0.188187 0.883977
0.094467 -0.188673 0.886260
0.096213 -0.189159 0.888547
0.097939 -0.189594 0.890586
0.099624 -0.189936 0.892194
0.036145 -0.187743 0.888973
0.037575 -0.187383 0.887265
0.039031 -0.187171 0.886262
0.040479 -0.186937 0.885156
0.041945 -0.186804 0.884526
0.043422 -0.186722 0.884137
0.044908 -0.186686 0.883966
0.046398 -0.186669 0.883886
0.047888 -0.186652 0.883805
0.049367 -0.186597 0.883543
0.050825 -0.186466 0.882925
0.052259 -0.186255 0.881927
0.053667 -0.185968 0.880568
0.055074 -0.185693 0.879266
0.056474 -0.185409 0.877918
0.057882 -0.185166 0.876769
0.059298 -0.184959 0.875789
0.060722 -0.184787 0.874973
0.062137 -0.184598 0.874080
0.063570 -0.184465 0.873452
0.065019 -0.184389 0.873091
0.066489 -0.184371 0.873006
0.067973 -0.184393 0.873108
0.069470 -0.184450 0.873378
0.070975 -0.184524 0.873727
0.072482 -0.184601 0.874093
0.073977 -0.184643 0.874293
0.075486 -0.184719 0.874651
0.076981 -0.184758 0.874835
0.078469 -0.184779 0.874937
0.079955 -0.184795 0.875014
0.081457 -0.184848 0.875262
0.082971 -0.184923 0.875617
0.084520 -0.185073 0.876331
0.086089 -0.185263 0.877230
0.087697 -0.185527 0.878478
0.089380 -0.185937 0.880422
0.091077 -0.186366 0.882450
0.092795 -0.186821 0.884608
0.094532 -0.187300 0.886874
0.096255 -0.187736 0.888938
0.097947 -0.188099 0.890658
0.099598 -0.188374 0.891961
0.037596 -0.185979 0.887743
0.039081 -0.185905 0.887392
0.040554 -0.185780 0.886793
0.042041 -0.185727 0.886540
0.043533 -0.185699 0.886408
0.045023 -0.185664 0.886240
0.046513 -0.185630 0.886078
0.048001 -0.185593 0.885903
0.049474 -0.185501 0.885461
0.050920 -0.185313 0.884567
0.052334 -0.185027 0.883201
0.053726 -0.184679 0.881539
0.055112 -0.184330 0.879875
0.056501 -0.184010 0.878344
0.057900 -0.183735 0.877033
0.059316 -0.183531 0.876061
0.060741 -0.183361 0.875246
0.062169 -0.183209 0.874523
0.063602 -0.183078 0.873895
0.065059 -0.183020 0.873619
0.066529 -0.183002 0.873536
0.068014 -0.183024 0.873639
0.069507 -0.183067 0.873844
0.071014 -0.183143 0.874206
0.072529 -0.183236 0.874651
0.074031 -0.183295 0.874934
0.075548 -0.183388 0.875375
0.077036 -0.183406 0.875462
0.078522 -0.183420 0.875531
0.080000 -0.183414 0.875502
0.081495 -0.183448 0.875665
0.083001 -0.183506 0.875940
0.084568 -0.183692 0.876827
0.086147 -0.183900 0.877818
0.087775 -0.184201 0.879256
0.089478 -0.184647 0.881387
0.091188 -0.185095 0.883526
0.092890 -0.185511 0.885509
0.094608 -0.185945 0.887583
0.096290 -0.186297 0.889261
0.097943 -0.186582 0.890622
0.100541 -0.188630 0.900400
0.040656 -0.184742 0.889034
0.042154 -0.184721 0.888933
0.043638 -0.184640 0.888541
0.045126 -0.184584 0.888271
0.046610 -0.184512 0.887927
0.048092 -0.184438 0.887571
0.049557 -0.184308 0.886943
0.050994 -0.184080 0.885847
0.052389 -0.183724 0.884132
0.053770 -0.183335 0.882263
0.055140 -0.182933 0.880326
0.056524 -0.182593 0.878694
0.057912 -0.182287 0.877222
0.059329 -0.182086 0.876252
0.060754 -0.181916 0.875436
0.062189 -0.181785 0.874805
0.063624 -0.181659 0.874199
0.065088 -0.181621 0.874016
0.066565 -0.181619 0.874003
0.068050 -0.181641 0.874109
0.069543 -0.181680 0.874298
0.071050 -0.181753 0.874650
0.072572 -0.181861 0.875169
0.074076 -0.181923 0.875466
0.075594 -0.182013 0.875899
0.077081 -0.182029 0.875979
0.078574 -0.182057 0.876112
0.080053 -0.182053 0.876091
0.081565 -0.182121 0.876418
0.083082 -0.182198 0.876789
0.084665 -0.182415 0.877836
0.086257 -0.182643 0.878933
0.087905 -0.182981 0.880558
0.089604 -0.183412 0.882631
0.091316 -0.183854 0.884758
0.092998 -0.184224 0.886540
0.094689 -0.184598 0.888342
0.096326 -0.184858 0.889590
0.097950 -0.185085 0.890685
0.040808 -0.183921 0.892362
0.042274 -0.183734 0.891453
0.043738 -0.183554 0.890583
0.045220 -0.183457 0.890111
0.046692 -0.183328 0.889485
0.048157 -0.183181 0.888774
0.049609 -0.182994 0.887863
0.051032 -0.182714 0.886507
0.052412 -0.182304 0.884516
0.053784 -0.181885 0.882481
0.055148 -0.181464 0.880441
0.056531 -0.181127 0.878806
0.057919 -0.180821 0.877321
0.059341 -0.180637 0.876426
0.060772 -0.180485 0.875690
0.062213 -0.180373 0.875149
0.063650 -0.180252 0.874563
0.065122 -0.180233 0.874469
0.066600 -0.180232 0.874464
0.068085 -0.180251 0.874553
0.069571 -0.180270 0.874649
0.071070 -0.180323 0.874903
0.072591 -0.180426 0.875405
0.074096 -0.180488 0.875703
0.075610 -0.180566 0.876083
0.077106 -0.180603 0.876263
0.078615 -0.180666 0.876569
0.080097 -0.180666 0.876570
0.081620 -0.180757 0.877008
0.083162 -0.180887 0.877639
0.084764 -0.181139 0.878866
0.086376 -0.181404 0.880150
0.088044 -0.181776 0.881955
0.089730 -0.182171 0.883870
0.091422 -0.182567 0.885793
0.093076 -0.182874 0.887284
0.094729 -0.183169 0.888715
0.096339 -0.183374 0.889707
0.098900 -0.185355 0.899319
0.039505 -0.183360 0.897017
0.040945 -0.183020 0.895353
0.042383 -0.182691 0.893746
0.043833 -0.182439 0.892511
0.045303 -0.182283 0.891747
0.046758 -0.182079 0.890749
0.048205 -0.181856 0.889662
0.049638 -0.181594 0.888381
0.051046 -0.181262 0.886752
0.052416 -0.180819 0.884584
0.053788 -0.180403 0.882551
0.055153 -0.179988 0.880520
0.056537 -0.179655 0.878894
0.057929 -0.179367 0.877485
0.059352 -0.179184 0.876590
0.060783 -0.179034 0.875855
0.062231 -0.178940 0.875396
0.063675 -0.178838 0.874897
0.065147 -0.178821 0.874812
0.066626 -0.178820 0.874810
0.068105 -0.178821 0.874812
0.069585 -0.178822 0.874818
0.071083 -0.178870 0.875054
0.072598 -0.178958 0.875481
0.074110 -0.179036 0.875864
0.075625 -0.179117 0.876259
0.077137 -0.179189 0.876611
0.078657 -0.179275 0.877032
0.080165 -0.179331 0.877310
0.081708 -0.179463 0.877952
0.083285 -0.179664 0.878934
0.084901 -0.179939 0.880282
0.086532 -0.180237 0.881738
0.088204 -0.180608 0.883553
0.089874 -0.180963 0.885291
0.091540 -0.181299 0.886935
0.093173 -0.181560 0.888211
0.094798 -0.181796 0.889369
0.096381 -0.181947 0.890103
0.038169 -0.182701 0.901269
0.039607 -0.182307 0.899326
0.041041 -0.181926 0.897446
0.042472 -0.181559 0.895637
0.043914 -0.181262 0.894169
0.045365 -0.181017 0.892961
0.046797 -0.180719 0.891491
0.048220 -0.180403 0.889931
0.049627 -0.180050 0.888190
0.051023 -0.179678 0.886355
0.052393 -0.179238 0.884185
0.053774 -0.178861 0.882326
0.055146 -0.178474 0.880417
0.056541 -0.178179 0.878960
0.057940 -0.177913 0.877650
0.059369 -0.177749 0.876840
0.060801 -0.177603 0.876118
0.062256 -0.177526 0.875741
0.063705 -0.177440 0.875317
0.065178 -0.177422 0.875226
0.066658 -0.177421 0.875224
0.068138 -0.177422 0.875226
0.069611 -0.177407 0.875154
0.071104 -0.177439 0.875311
0.072612 -0.177509 0.875654
0.074124 -0.177586 0.876033
0.075646 -0.177682 0.876511
0.077175 -0.177790 0.877044
0.078719 -0.177928 0.877724
0.080260 -0.178056 0.878352
0.081838 -0.178258 0.879350
0.083437 -0.178499 0.880542
0.085074 -0.178810 0.882074
0.086718 -0.179126 0.883632
0.088384 -0.179477 0.885363
0.090031 -0.179776 0.886841
0.091679 -0.180069 0.888285
0.093295 -0.180290 0.889372
0.094903 -0.180489 0.890355
0.096469 -0.180602 0.890913
0.036767 -0.181775 0.904260
0.038222 -0.181426 0.902524
0.039664 -0.181043 0.900620
0.041101 -0.180667 0.898750
0.042530 -0.180288 0.896863
0.043962 -0.179941 0.895140
0.045392 -0.179610 0.893491
0.046804 -0.179235 0.891625
0.048200 -0.178823 0.889576
0.049586 -0.178397 0.887459
0.050975 -0.178008 0.885524
0.052354 -0.177607 0.883528
0.053746 -0.177273 0.881864
0.055130 -0.176929 0.880154
0.056536 -0.176674 0.878887
0.057946 -0.176444 0.877742
0.059382 -0.176300 0.877026
0.060822 -0.176176 0.876409
0.062282 -0.176118 0.876118
0.063738 -0.176048 0.875771
0.065212 -0.176028 0.875674
0.066692 -0.176027 0.875669
0.068172 -0.176028 0.875674
0.069647 -0.176013 0.875598
0.071140 -0.176046 0.875761
0.072642 -0.176098 0.876019
0.074155 -0.176173 0.876394
0.075677 -0.176267 0.876859
0.077221 -0.176407 0.877560
0.078774 -0.176565 0.878344
0.080342 -0.176747 0.879248
0.081946 -0.177000 0.880508
0.083573 -0.177294 0.881973
0.085215 -0.177608 0.883534
0.086869 -0.177938 0.885173
0.088528 -0.178265 0.886799
0.090159 -0.178525 0.888096
0.091800 -0.178799 0.889456
0.093418 -0.179017 0.890540
0.095020 -0.179200 0.891451
0.096588 -0.179311 0.892006
0.035317 -0.180646 0.906289
0.036797 -0.180390 0.905003
0.038257 -0.180063 0.903364
0.039705 -0.179703 0.901558
0.041142 -0.179324 0.899656
0.042567 -0.178920 0.897626
0.043987 -0.178524 0.895640
0.045393 -0.178102 0.893523
0.046781 -0.177635 0.891182
0.048155 -0.177148 0.888737
0.049519 -0.176655 0.886266
0.050902 -0.176255 0.884258
0.052295 -0.175912 0.882535
0.053704 -0.175639 0.881170
0.055104 -0.175355 0.879743
0.056527 -0.175155 0.878739
0.057953 -0.174975 0.877836
0.059394 -0.174851 0.877213
0.060841 -0.174747 0.876694
0.062310 -0.174711 0.876511
0.063773 -0.174659 0.876250
0.065247 -0.174640 0.876154
0.066727 -0.174637 0.876141
0.068210 -0.174640 0.876154
0.069685 -0.174625 0.876078
0.071179 -0.174657 0.876239
0.072673 -0.174688 0.876398
0.074186 -0.174760 0.876760
0.075708 -0.174852 0.877221
0.077261 -0.175011 0.878015
0.078818 -0.175173 0.878829
0.080402 -0.175388 0.879907
0.082016 -0.175659 0.881270
0.083661 -0.175986 0.882908
0.085306 -0.176299 0.884481
0.086969 -0.176640 0.886191
0.088629 -0.176963 0.887809
0.090268 -0.177234 0.889172
0.091913 -0.177508 0.890546
0.093544 -0.177746 0.891739
0.095160 -0.177950 0.892764
0.096731 -0.178064 0.893332
0.035318 -0.179114 0.906311
0.036808 -0.178913 0.905291
0.038277 -0.178626 0.903838
0.039726 -0.178270 0.902040
0.041160 -0.177875 0.900040
0.042580 -0.177453 0.897907
0.043986 -0.177003 0.895626
0.045369 -0.176492 0.893040
0.046735 -0.175952 0.890311
0.048097 -0.175430 0.887667
0.049455 -0.174925 0.885114
0.050843 -0.174552 0.883224
0.052251 -0.174267 0.881786
0.053680 -0.174070 0.880786
0.055092 -0.173828 0.879561
0.056527 -0.173666 0.878741
0.057963 -0.173519 0.878000
0.059411 -0.173413 0.877462
0.060860 -0.173314 0.876961
0.062336 -0.173297 0.876873
0.063806 -0.173263 0.876704
0.065282 -0.173246 0.876616
0.066763 -0.173245 0.876611
0.068246 -0.173246 0.876616
0.069722 -0.173231 0.876540
0.071216 -0.173261 0.876694
0.072705 -0.173277 0.876774
0.074216 -0.173345 0.877119
0.075738 -0.173436 0.877578
0.077300 -0.173612 0.878469
0.078860 -0.173776 0.879299
0.080461 -0.174023 0.880551
0.082083 -0.174307 0.881988
0.083738 -0.174648 0.883711
0.085376 -0.174945 0.885212
0.087041 -0.175284 0.886930
0.088701 -0.175602 0.888537
0.090352 -0.175891 0.889999
0.092010 -0.176184 0.891483
0.093664 -0.176462 0.892890
0.095303 -0.176701 0.894102
0.096886 -0.176833 0.894766
0.033806 -0.177684 0.906850
0.035316 -0.177570 0.906268
0.036813 -0.177401 0.905408
0.038282 -0.177113 0.903939
0.039722 -0.176725 0.901956
0.041148 -0.176300 0.899787
0.042546 -0.175793 0.897199
0.043927 -0.175251 0.894433
0.045289 -0.174670 0.891471
0.046643 -0.174100 0.888560
0.048008 -0.173601 0.886016
0.049378 -0.173155 0.883738
0.050779 -0.172839 0.882126
0.052206 -0.172627 0.881041
0.053652 -0.172485 0.880318
0.055076 -0.172284 0.879293
0.056521 -0.172159 0.878653
0.057963 -0.172031 0.878000
0.059417 -0.171941 0.877541
0.060871 -0.171859 0.877124
0.062354 -0.171859 0.877124
0.063831 -0.171844 0.877046
0.065313 -0.171843 0.877039
0.066802 -0.171858 0.877116
0.068292 -0.171875 0.877204
0.069776 -0.171878 0.877219
0.071272 -0.171909 0.877377
0.072761 -0.171924 0.877454
0.074267 -0.171975 0.877715
0.075789 -0.172064 0.878168
0.077346 -0.172225 0.878989
0.078914 -0.172404 0.879904
0.080517 -0.172650 0.881159
0.082139 -0.172929 0.882585
0.083787 -0.173252 0.884230
0.085426 -0.173544 0.885724
0.087085 -0.173867 0.887372
0.088747 -0.174184 0.888991
0.090408 -0.174491 0.890556
0.092088 -0.174821 0.892239
0.093765 -0.175137 0.893850
0.095416 -0.175394 0.895167
0.097020 -0.175557 0.895999
0.033800 -0.176115 0.906688
0.035308 -0.175995 0.906071
0.036804 -0.175823 0.905184
0.038266 -0.175509 0.903566
0.039699 -0.175090 0.901414
0.041107 -0.174600 0.898889
0.042485 -0.174020 0.895905
0.043844 -0.173406 0.892741
0.045193 -0.172791 0.889577
0.046545 -0.172231 0.886695
0.047928 -0.171815 0.884549
0.049318 -0.171448 0.882664
0.050738 -0.171205 0.881409
0.052179 -0.171044 0.880584
0.053635 -0.170938 0.880037
0.055069 -0.170774 0.879192
0.056526 -0.170685 0.878732
0.057980 -0.170592 0.878253
0.059439 -0.170519 0.877879
0.060900 -0.170453 0.877541
0.062384 -0.170453 0.877541
0.063867 -0.170453 0.877541
0.065351 -0.170453 0.877541
0.066841 -0.170470 0.877626
0.068332 -0.170488 0.877721
0.069824 -0.170508 0.877820
0.071315 -0.170526 0.877915
0.072806 -0.170543 0.878000
0.074312 -0.170592 0.878253
0.075835 -0.170678 0.878697
0.077385 -0.170821 0.879432
0.078954 -0.170998 0.880346
0.080549 -0.171226 0.881517
0.082164 -0.171486 0.882857
0.083811 -0.171802 0.884486
0.085450 -0.172092 0.885979
0.087110 -0.172413 0.887630
0.088782 -0.172746 0.889343
0.090453 -0.173068 0.891000
0.092135 -0.173397 0.892696
0.093823 -0.173728 0.894400
0.095477 -0.173986 0.895730
0.097090 -0.174165 0.896648
0.033784 -0.174498 0.906272
0.035292 -0.174380 0.905661
0.036784 -0.174195 0.904697
0.038235 -0.173836 0.902833
0.039655 -0.173370 0.900414
0.041044 -0.172809 0.897503
0.042401 -0.172158 0.894120
0.043745 -0.171504 0.890725
0.045091 -0.170896 0.887567
0.046457 -0.170404 0.885009
0.047864 -0.170086 0.883360
0.049274 -0.169801 0.881879
0.050709 -0.169613 0.880900
0.052159 -0.169486 0.880244
0.053619 -0.169397 0.879783
0.055064 -0.169268 0.879112
0.056533 -0.169214 0.878832
0.057999 -0.169157 0.878532
0.059465 -0.169103 0.878253
0.060932 -0.169054 0.878000
0.062416 -0.169054 0.878000
0.063895 -0.169039 0.877921
0.065379 -0.169038 0.877915
0.066869 -0.169054 0.878000
0.068361 -0.169074 0.878102
0.069855 -0.169097 0.878221
0.071355 -0.169131 0.878400
0.072847 -0.169148 0.878488
0.074346 -0.169180 0.878652
0.075869 -0.169263 0.879086
0.077410 -0.169385 0.879719
0.078980 -0.169562 0.880636
0.080568 -0.169770 0.881717
0.082183 -0.170028 0.883059
0.083821 -0.170322 0.884587
0.085467 -0.170624 0.886155
0.087120 -0.170927 0.887727
0.088800 -0.171274 0.889526
0.090471 -0.171592 0.891178
0.092152 -0.171915 0.892858
0.093838 -0.172241 0.894549
0.095501 -0.172513 0.895962
0.097117 -0.172692 0.896895
0.033762 -0.172846 0.905668
0.035262 -0.172693 0.904867
0.036746 -0.172483 0.903766
0.038180 -0.172057 0.901534
0.039577 -0.171510 0.898665
0.040947 -0.170883 0.895383
0.042290 -0.170198 0.891793
0.043631 -0.169551 0.888402
0.044992 -0.169020 0.885622
0.046384 -0.168640 0.883626
0.047816 -0.168420 0.882474
0.049250 -0.168223 0.881442
0.050699 -0.168086 0.880726
0.052154 -0.167978 0.880158
0.053614 -0.167891 0.879703
0.055070 -0.167795 0.879199
0.056545 -0.167760 0.879020
0.058018 -0.167725 0.878832
0.059492 -0.167690 0.878652
0.060966 -0.167659 0.878488
0.062451 -0.167659 0.878488
0.063930 -0.167643 0.878403
0.065414 -0.167641 0.878393
0.066905 -0.167656 0.878474
0.068398 -0.167675 0.878573
0.069892 -0.167696 0.878682
0.071392 -0.167730 0.878862
0.072885 -0.167747 0.878947
0.074377 -0.167762 0.879026
0.075900 -0.167843 0.879451
0.077435 -0.167946 0.879994
0.079004 -0.168121 0.880907
0.080592 -0.168327 0.881988
0.082208 -0.168583 0.883332
0.083838 -0.168858 0.884771
0.085485 -0.169157 0.886336
0.087129 -0.169440 0.887822
0.088794 -0.169755 0.889470
0.090455 -0.170050 0.891014
0.092123 -0.170349 0.892582
0.093815 -0.170681 0.894324
0.095478 -0.170953 0.895749
0.097106 -0.171152 0.896792
0.033728 -0.171139 0.904757
0.035206 -0.170889 0.903439
0.036678 -0.170632 0.902079
0.038093 -0.170140 0.899480
0.039470 -0.169526 0.896231
0.040824 -0.168857 0.892692
0.042171 -0.168210 0.889273
0.043522 -0.167626 0.886188
0.044905 -0.167195 0.883909
0.046324 -0.166926 0.882487
0.047778 -0.166794 0.881790
0.049230 -0.166663 0.881094
0.050688 -0.166559 0.880546
0.052148 -0.166468 0.880063
0.053609 -0.166383 0.879617
0.055070 -0.166306 0.879205
0.056546 -0.166273 0.879035
0.058020 -0.166240 0.878859
0.059494 -0.166208 0.878689
0.060969 -0.166178 0.878530
0.062460 -0.166193 0.878609
0.063939 -0.166177 0.878528
0.065429 -0.166191 0.878598
0.066926 -0.166219 0.878746
0.068426 -0.166253 0.878927
0.069920 -0.166273 0.879032
0.071427 -0.166321 0.879285
0.072920 -0.166335 0.879364
0.074406 -0.166335 0.879364
0.075929 -0.166415 0.879783
0.077457 -0.166502 0.880244
0.079026 -0.166674 0.881155
0.080609 -0.166866 0.882166
0.082217 -0.167104 0.883429
0.083832 -0.167345 0.884702
0.085476 -0.167638 0.886250
0.087112 -0.167903 0.887652
0.088769 -0.168199 0.889215
0.090428 -0.168489 0.890747
0.092093 -0.168781 0.892293
0.093793 -0.169126 0.894114
0.095467 -0.169414 0.895641
0.097107 -0.169633 0.896799
0.099649 -0.172935 0.906134
0.098702 -0.169770 0.897524
0.033674 -0.169337 0.903329
0.035132 -0.169004 0.901552
0.036589 -0.168695 0.899903
0.037995 -0.168181 0.897162
0.039361 -0.167539 0.893736
0.040714 -0.166893 0.890289
0.042080 -0.166342 0.887352
0.043453 -0.165858 0.884771
0.044854 -0.165510 0.882910
0.046292 -0.165316 0.881877
0.047755 -0.165218 0.881352
0.049211 -0.165103 0.880740
0.050672 -0.165014 0.880267
0.052138 -0.164942 0.879884
0.053599 -0.164861 0.879450
0.055064 -0.164798 0.879114
0.056539 -0.164764 0.878932
0.058013 -0.164729 0.878747
0.059487 -0.164697 0.878573
0.060966 -0.164681 0.878488
0.062457 -0.164697 0.878573
0.063937 -0.164682 0.878497
0.065428 -0.164698 0.878578
0.066920 -0.164713 0.878663
0.068412 -0.164731 0.878758
0.069906 -0.164750 0.878856
0.071412 -0.164798 0.879112
0.072906 -0.164814 0.879199
0.074399 -0.164830 0.879285
0.075922 -0.164908 0.879703
0.077449 -0.164994 0.880158
0.079011 -0.165149 0.880986
0.080586 -0.165323 0.881917
0.082186 -0.165544 0.883093
0.083799 -0.165781 0.884358
0.085433 -0.166052 0.885802
0.087067 -0.166313 0.887195
0.088721 -0.166602 0.888739
0.090373 -0.166877 0.890203
0.092028 -0.167150 0.891659
0.093745 -0.167525 0.893663
0.095431 -0.167833 0.895302
0.097083 -0.168073 0.896586
0.098688 -0.168225 0.897396
0.035042 -0.167048 0.899246
0.036492 -0.166724 0.897507
0.037897 -0.166230 0.894847
0.039259 -0.165598 0.891443
0.040623 -0.165014 0.888299
0.042005 -0.164546 0.885778
0.043399 -0.164156 0.883682
0.044818 -0.163882 0.882205
0.046269 -0.163739 0.881434
0.047735 -0.163655 0.880986
0.049190 -0.163541 0.880371
0.050647 -0.163439 0.879822
0.052112 -0.163370 0.879451
0.053573 -0.163290 0.879021
0.055032 -0.163212 0.878601
0.056504 -0.163174 0.878395
0.057976 -0.163135 0.878186
0.059443 -0.163087 0.877925
0.060921 -0.163070 0.877837
0.062416 -0.163101 0.878001
0.063896 -0.163089 0.877936
0.065394 -0.163122 0.878116
0.066897 -0.163168 0.878364
0.068397 -0.163204 0.878555
0.069897 -0.163239 0.878744
0.071410 -0.163302 0.879085
0.072905 -0.163321 0.879184
0.074399 -0.163338 0.879279
0.075915 -0.163401 0.879617
0.077441 -0.163484 0.880063
0.078995 -0.163621 0.880800
0.080560 -0.163777 0.881638
0.082144 -0.163962 0.882638
0.083745 -0.164177 0.883791
0.085361 -0.164410 0.885049
0.086993 -0.164668 0.886434
0.088639 -0.164942 0.887912
0.090297 -0.165231 0.889465
0.091961 -0.165517 0.891009
0.093705 -0.165939 0.893280
0.095411 -0.166281 0.895117
0.097085 -0.166556 0.896599
0.098701 -0.166725 0.897512
0.034939 -0.165036 0.896600
0.036389 -0.164736 0.894972
0.037803 -0.164308 0.892642
0.039174 -0.163731 0.889508
0.040549 -0.163210 0.886679
0.041947 -0.162819 0.884557
0.043358 -0.162504 0.882842
0.044792 -0.162293 0.881696
0.046246 -0.162163 0.880991
0.047710 -0.162078 0.880527
0.049164 -0.161964 0.879907
0.050620 -0.161864 0.879366
0.052081 -0.161782 0.878919
0.053535 -0.161686 0.878401
0.054987 -0.161590 0.877879
0.056452 -0.161535 0.877578
0.057917 -0.161483 0.877295
0.059382 -0.161434 0.877033
0.060859 -0.161419 0.876948
0.062359 -0.161464 0.877192
0.063849 -0.161482 0.877291
0.065352 -0.161532 0.877563
0.066863 -0.161597 0.877917
0.068368 -0.161647 0.878185
0.069868 -0.161682 0.878377
0.071375 -0.161732 0.878647
0.072876 -0.161767 0.878839
0.074377 -0.161801 0.879024
0.075893 -0.161864 0.879365
0.077418 -0.161945 0.879805
0.078969 -0.162075 0.880513
0.080525 -0.162211 0.881254
0.082091 -0.162361 0.882067
0.083674 -0.162540 0.883041
0.085279 -0.162754 0.884200
0.086909 -0.163007 0.885577
0.088555 -0.163281 0.887066
0.090222 -0.163585 0.888719
0.091902 -0.163902 0.890440
0.093671 -0.164365 0.892956
0.095388 -0.164724 0.894903
0.097074 -0.165018 0.896501
0.098709 -0.165218 0.897588
0.034839 -0.163048 0.894031
0.036293 -0.162792 0.892627
0.037734 -0.162495 0.891001
0.039122 -0.162008 0.888330
0.040512 -0.161561 0.885881
0.041926 -0.161241 0.884122
0.043350 -0.160976 0.882670
0.044783 -0.160765 0.881515
0.046231 -0.160619 0.880711
0.047694 -0.160532 0.880237
0.049144 -0.160405 0.879539
0.050595 -0.160292 0.878919
0.052048 -0.160190 0.878363
0.053494 -0.160076 0.877738
0.054930 -0.159935 0.876962
0.056388 -0.159866 0.876587
0.057851 -0.159815 0.876304
0.059316 -0.159771 0.876061
0.060792 -0.159757 0.875988
0.062296 -0.159815 0.876305
0.063785 -0.159836 0.876418
0.065288 -0.159887 0.876698
0.066798 -0.159953 0.877062
0.068302 -0.160004 0.877341
0.069807 -0.160053 0.877611
0.071319 -0.160116 0.877958
0.072825 -0.160166 0.878230
0.074333 -0.160216 0.878504
0.075855 -0.160293 0.878926
0.077379 -0.160373 0.879365
0.078929 -0.160501 0.880067
0.080476 -0.160620 0.880718
0.082032 -0.160751 0.881435
0.083597 -0.160895 0.882227
0.085190 -0.161087 0.883278
0.086818 -0.161337 0.884649
0.088480 -0.161642 0.886324
0.090158 -0.161963 0.888085
0.091862 -0.162323 0.890058
0.093650 -0.162814 0.892751
0.095376 -0.163186 0.894787
0.097063 -0.163480 0.896400
0.098718 -0.163711 0.897669
0.033341 -0.161596 0.894385
0.034808 -0.161386 0.893220
0.036259 -0.161127 0.891787
0.037698 -0.160832 0.890156
0.039101 -0.160416 0.887854
0.040503 -0.160023 0.885678
0.041922 -0.159725 0.884027
0.043345 -0.159463 0.882579
0.044774 -0.159238 0.881335
0.046217 -0.159075 0.880432
0.047680 -0.158991 0.879963
0.049120 -0.158837 0.879113
0.050565 -0.158709 0.878404
0.052010 -0.158588 0.877735
0.053445 -0.158441 0.876921
0.054867 -0.158267 0.875960
0.056329 -0.158213 0.875661
0.057797 -0.158180 0.875478
0.059262 -0.158140 0.875254
0.060748 -0.158156 0.875342
0.062245 -0.158201 0.875591
0.063727 -0.158205 0.875613
0.065216 -0.158227 0.875739
0.066718 -0.158276 0.876011
0.068207 -0.158296 0.876120
0.069715 -0.158357 0.876457
0.071225 -0.158420 0.876806
0.072737 -0.158485 0.877167
0.074258 -0.158565 0.877609
0.075787 -0.158660 0.878135
0.077317 -0.158755 0.878661
0.078874 -0.158898 0.879452
0.080427 -0.159030 0.880182
0.081983 -0.159163 0.880915
0.083546 -0.159303 0.881693
0.085129 -0.159476 0.882648
0.086753 -0.159719 0.883994
0.088425 -0.160039 0.885766
0.090104 -0.160363 0.887560
0.091829 -0.160756 0.889736
0.093625 -0.161258 0.892511
0.095349 -0.161624 0.894539
0.097035 -0.161914 0.896141
0.098699 -0.162158 0.897493
0.101279 -0.165415 0.907008
0.100270 -0.162246 0.897979
0.033324 -0.160000 0.893940
0.034796 -0.159820 0.892933
0.036244 -0.159546 0.891399
0.037678 -0.159238 0.889682
0.039093 -0.158879 0.887672
0.040503 -0.158522 0.885682
0.041922 -0.158227 0.884032
0.043341 -0.157952 0.882496
0.044769 -0.157727 0.881240
0.046207 -0.157551 0.880253
0.047670 -0.157467 0.879783
0.049101 -0.157286 0.878775
0.050540 -0.157143 0.877973
0.051969 -0.156976 0.877043
0.053395 -0.156809 0.876109
0.054806 -0.156608 0.874984
0.056266 -0.156554 0.874687
0.057733 -0.156522 0.874508
0.059202 -0.156499 0.874374
0.060687 -0.156516 0.874470
0.062183 -0.156559 0.874713
0.063662 -0.156561 0.874721
0.065148 -0.156578 0.874816
0.066646 -0.156622 0.875065
0.068132 -0.156638 0.875153
0.069632 -0.156684 0.875410
0.071134 -0.156733 0.875682
0.072645 -0.156800 0.876057
0.074171 -0.156895 0.876592
0.075707 -0.157007 0.877217
0.077253 -0.157134 0.877926
0.078832 -0.157324 0.878986
0.080402 -0.157488 0.879900
0.081959 -0.157623 0.880655
0.083514 -0.157748 0.881355
0.085094 -0.157915 0.882288
0.086716 -0.158153 0.883618
0.088388 -0.158471 0.885395
0.090078 -0.158812 0.887302
0.091822 -0.159236 0.889667
0.093618 -0.159733 0.892446
0.095342 -0.160095 0.894466
0.097025 -0.160377 0.896042
0.098706 -0.160648 0.897559
0.100310 -0.160787 0.898333
0.031896 -0.158898 0.896271
0.033346 -0.158588 0.894522
0.034808 -0.158359 0.893227
0.036249 -0.158058 0.891532
0.037675 -0.157718 0.889611
0.039095 -0.157379 0.887700
0.040504 -0.157026 0.885709
0.041923 -0.156732 0.884050
0.043338 -0.156443 0.882422
0.044765 -0.156218 0.881155
0.046198 -0.156028 0.880079
0.047656 -0.155929 0.879524
0.049081 -0.155734 0.878423
0.050515 -0.155575 0.877528
0.051932 -0.155379 0.876418
0.053352 -0.155198 0.875401
0.054761 -0.154997 0.874265
0.056215 -0.154930 0.873889
0.057681 -0.154901 0.873721
0.059154 -0.154890 0.873664
0.060638 -0.154907 0.873760
0.062126 -0.154934 0.873910
0.063597 -0.154920 0.873831
0.065067 -0.154903 0.873735
0.066543 -0.154901 0.873721
0.068013 -0.154884 0.873629
0.069504 -0.154915 0.873801
0.071003 -0.154964 0.874078
0.072519 -0.155045 0.874538
0.074057 -0.155171 0.875244
0.075613 -0.155326 0.876122
0.077174 -0.155487 0.877031
0.078768 -0.155708 0.878277
0.080354 -0.155904 0.879383
0.081919 -0.156054 0.880228
0.083475 -0.156180 0.880935
0.085053 -0.156344 0.881862
0.086682 -0.156593 0.883268
0.088361 -0.156923 0.885129
0.090060 -0.157277 0.887126
0.091813 -0.157712 0.889581
0.093599 -0.158189 0.892272
0.095312 -0.158529 0.894190
0.096992 -0.158805 0.895743
0.098684 -0.159092 0.897361
0.100319 -0.159279 0.898416
0.024916 -0.162790 0.918223
0.023377 -0.162887 0.918769
0.023369 -0.161272 0.918444
0.024896 -0.161105 0.917488
0.026440 -0.162619 0.917258
0.026410 -0.160882 0.916219
0.031946 -0.157625 0.897671
0.033378 -0.157224 0.895388
0.034827 -0.156932 0.893727
0.036261 -0.156601 0.891838
0.037687 -0.156262 0.889911
0.039104 -0.155911 0.887909
0.040513 -0.155559 0.885903
0.041931 -0.155264 0.884224
0.043341 -0.154961 0.882503
0.044761 -0.154711 0.881075
0.046189 -0.154506 0.879906
0.047641 -0.154390 0.879251
0.049060 -0.154179 0.878046
0.050484 -0.153994 0.876993
0.051900 -0.153797 0.875872
0.053319 -0.153618 0.874852
0.054727 -0.153419 0.873718
0.056180 -0.153356 0.873358
0.057651 -0.153340 0.873268
0.059117 -0.153314 0.873122
0.060594 -0.153315 0.873129
0.062069 -0.153313 0.873116
0.063526 -0.153268 0.872859
0.064983 -0.153222 0.872599
0.066450 -0.153204 0.872492
0.067911 -0.153172 0.872314
0.069405 -0.153215 0.872555
0.070909 -0.153277 0.872911
0.072422 -0.153357 0.873368
0.073965 -0.153496 0.874157
0.075527 -0.153667 0.875129
0.077096 -0.153844 0.876141
0.078698 -0.154081 0.877492
0.080298 -0.154306 0.878771
0.081878 -0.154483 0.879777
0.083455 -0.154650 0.880732
0.085035 -0.154816 0.881675
0.086665 -0.155065 0.883094
0.088343 -0.155390 0.884945
0.090041 -0.155739 0.886933
0.091784 -0.156155 0.889303
0.093561 -0.156612 0.891902
0.095270 -0.156945 0.893797
0.096959 -0.157232 0.895432
0.098661 -0.157533 0.897149
0.100309 -0.157740 0.898327
0.023357 -0.159634 0.917974
0.024879 -0.159443 0.916875
0.026389 -0.159198 0.915465
0.027848 -0.158693 0.912562
0.030568 -0.156821 0.901796
0.031987 -0.156301 0.898809
0.033416 -0.155883 0.896405
0.034859 -0.155559 0.894543
0.036288 -0.155204 0.892500
0.037704 -0.154822 0.890301
0.039112 -0.154439 0.888102
0.040513 -0.154057 0.885902
0.041923 -0.153735 0.884050
0.043329 -0.153422 0.882250
0.044748 -0.153173 0.880822
0.046175 -0.152968 0.879641
0.047621 -0.152837 0.878890
0.049039 -0.152626 0.877674
0.050462 -0.152440 0.876607
0.051878 -0.152248 0.875501
0.053296 -0.152071 0.874483
0.054709 -0.151890 0.873442
0.056163 -0.151828 0.873084
0.057628 -0.151799 0.872921
0.059088 -0.151759 0.872690
0.060557 -0.151742 0.872591
0.062018 -0.151709 0.872404
0.063468 -0.151649 0.872058
0.064917 -0.151590 0.871717
0.066382 -0.151570 0.871600
0.067842 -0.151539 0.871424
0.069328 -0.151567 0.871586
0.070830 -0.151629 0.871940
0.072342 -0.151709 0.872404
0.073884 -0.151847 0.873195
0.075444 -0.152015 0.874163
0.077024 -0.152218 0.875330
0.078634 -0.152469 0.876773
0.080241 -0.152706 0.878138
0.081826 -0.152895 0.879223
0.083419 -0.153091 0.880349
0.085024 -0.153301 0.881556
0.086665 -0.153568 0.883094
0.088343 -0.153891 0.884952
0.090047 -0.154247 0.886999
0.091779 -0.154639 0.889250
0.093521 -0.155034 0.891521
0.095229 -0.155361 0.893405
0.096933 -0.155673 0.895198
0.098649 -0.155992 0.897034
0.100319 -0.156233 0.898418
0.023331 -0.157901 0.916948
0.024849 -0.157694 0.915745
0.026350 -0.157414 0.914117
0.027803 -0.156891 0.911081
0.029220 -0.157771 0.907259
0.029209 -0.156176 0.906933
0.030597 -0.155437 0.902641
0.032016 -0.154922 0.899649
0.033444 -0.154491 0.897144
0.034885 -0.154155 0.895195
0.036315 -0.153803 0.893149
0.037727 -0.153406 0.890847
0.039131 -0.153007 0.888528
0.040524 -0.152594 0.886131
0.041926 -0.152245 0.884104
0.043328 -0.151922 0.882226
0.044747 -0.151675 0.880795
0.046170 -0.151459 0.879538
0.047610 -0.151313 0.878688
0.049028 -0.151104 0.877477
0.050446 -0.150907 0.876335
0.051858 -0.150706 0.875164
0.053280 -0.150544 0.874226
0.054699 -0.150380 0.873271
0.056142 -0.150293 0.872765
0.057601 -0.150250 0.872518
0.059059 -0.150206 0.872261
0.060515 -0.150158 0.871986
0.061968 -0.150109 0.871699
0.063416 -0.150048 0.871346
0.064869 -0.150002 0.871077
0.066334 -0.149985 0.870976
0.067800 -0.149969 0.870886
0.069279 -0.149985 0.870978
0.070780 -0.150046 0.871331
0.072291 -0.150125 0.871789
0.073825 -0.150246 0.872497
0.075376 -0.150399 0.873380
0.076954 -0.150597 0.874533
0.078560 -0.150841 0.875952
0.080166 -0.151077 0.877319
0.081767 -0.151295 0.878587
0.083384 -0.151535 0.879980
0.085016 -0.151794 0.881481
0.086676 -0.152091 0.883209
0.088354 -0.152410 0.885060
0.090055 -0.152757 0.887076
0.091769 -0.153115 0.889154
0.093492 -0.153475 0.891245
0.095199 -0.153799 0.893125
0.096913 -0.154123 0.895007
0.098638 -0.154455 0.896939
0.100322 -0.154714 0.898441
0.102955 -0.157946 0.908266
0.101971 -0.154912 0.899588
0.021773 -0.156289 0.916611
0.023311 -0.156213 0.916163
0.024825 -0.155995 0.914887
0.026320 -0.155688 0.913087
0.027774 -0.155189 0.910160
0.029204 -0.154612 0.906775
0.030620 -0.154024 0.903325
0.032043 -0.153524 0.900392
0.033471 -0.153094 0.897870
0.034906 -0.152731 0.895742
0.036338 -0.152385 0.893712
0.037747 -0.151976 0.891317
0.039147 -0.151563 0.888892
0.040531 -0.151121 0.886298
0.041929 -0.150758 0.884170
0.043327 -0.150424 0.882213
0.044746 -0.150180 0.880780
0.046169 -0.149967 0.879533
0.047606 -0.149809 0.878606
0.049024 -0.149602 0.877392
0.050437 -0.149394 0.876171
0.051848 -0.149194 0.875000
0.053266 -0.149023 0.873995
0.054683 -0.148858 0.873029
0.056121 -0.148757 0.872435
0.057573 -0.148699 0.872093
0.059019 -0.148625 0.871663
0.060467 -0.148562 0.871293
0.061913 -0.148498 0.870916
0.063354 -0.148424 0.870486
0.064806 -0.148380 0.870222
0.066270 -0.148364 0.870131
0.067735 -0.148350 0.870052
0.069219 -0.148380 0.870222
0.070725 -0.148453 0.870653
0.072241 -0.148544 0.871184
0.073774 -0.148665 0.871895
0.075330 -0.148826 0.872839
0.076905 -0.149019 0.873971
0.078510 -0.149261 0.875391
0.080115 -0.149495 0.876765
0.081732 -0.149742 0.878210
0.083366 -0.150012 0.879793
0.085017 -0.150301 0.881490
0.086688 -0.150615 0.883330
0.088369 -0.150934 0.885206
0.090067 -0.151273 0.887192
0.091770 -0.151609 0.889161
0.093474 -0.151936 0.891077
0.095181 -0.152256 0.892958
0.096912 -0.152606 0.895007
0.098640 -0.152939 0.896961
0.100335 -0.153212 0.898561
0.102005 -0.153438 0.899889
0.021769 -0.154707 0.916445
0.023302 -0.154598 0.915799
0.024815 -0.154381 0.914510
0.026307 -0.154064 0.912633
0.027765 -0.153592 0.909838
0.029201 -0.153058 0.906675
0.030624 -0.152511 0.903434
0.032050 -0.152030 0.900584
0.033481 -0.151617 0.898138
0.034917 -0.151258 0.896014
0.036350 -0.150920 0.894007
0.037761 -0.150519 0.891636
0.039161 -0.150109 0.889206
0.040541 -0.149654 0.886509
0.041934 -0.149278 0.884281
0.043328 -0.148931 0.882226
0.044747 -0.148691 0.880804
0.046170 -0.148479 0.879552
0.047603 -0.148311 0.878555
0.049015 -0.148090 0.877243
0.050427 -0.147881 0.876005
0.051833 -0.147668 0.874745
0.053245 -0.147483 0.873651
0.054662 -0.147320 0.872682
0.056093 -0.147203 0.871993
0.057532 -0.147115 0.871472
0.058969 -0.147025 0.870936
0.060410 -0.146948 0.870480
0.061850 -0.146873 0.870039
0.063296 -0.146815 0.869692
0.064753 -0.146786 0.869519
0.066222 -0.146783 0.869506
0.067693 -0.146786 0.869519
0.069177 -0.146815 0.869692
0.070682 -0.146886 0.870116
0.072197 -0.146976 0.870647
0.073729 -0.147096 0.871355
0.075285 -0.147258 0.872318
0.076859 -0.147450 0.873452
0.078462 -0.147688 0.874862
0.080074 -0.147932 0.876312
0.081699 -0.148193 0.877855
0.083343 -0.148479 0.879550
0.085027 -0.148824 0.881592
0.086708 -0.149151 0.883532
0.088396 -0.149480 0.885481
0.090095 -0.149816 0.887471
0.091797 -0.150146 0.889425
0.093484 -0.150441 0.891171
0.095190 -0.150757 0.893046
0.096923 -0.151105 0.895103
0.098652 -0.151436 0.897064
0.100356 -0.151719 0.898743
0.102035 -0.151958 0.900156
0.021756 -0.153059 0.915880
0.023285 -0.152937 0.915148
0.024801 -0.152744 0.913994
0.026290 -0.152418 0.912044
0.027753 -0.151986 0.909456
0.029198 -0.151506 0.906586
0.030627 -0.150997 0.903541
0.032053 -0.150519 0.900679
0.033484 -0.150109 0.898224
0.034917 -0.149741 0.896020
0.036350 -0.149407 0.894023
0.037762 -0.149012 0.891663
0.039163 -0.148608 0.889243
0.040542 -0.148157 0.886546
0.041932 -0.147771 0.884235
0.043325 -0.147425 0.882165
0.044744 -0.147187 0.880740
0.046163 -0.146964 0.879406
0.047591 -0.146783 0.878323
0.049001 -0.146560 0.876986
0.050407 -0.146336 0.875650
0.051807 -0.146110 0.874296
0.053213 -0.145913 0.873117
0.054623 -0.145737 0.872061
0.056046 -0.145604 0.871269
0.057478 -0.145501 0.870654
0.058914 -0.145412 0.870118
0.060359 -0.145348 0.869738
0.061804 -0.145290 0.869386
0.063255 -0.145247 0.869133
0.064718 -0.145233 0.869046
0.066187 -0.145232 0.869041
0.067656 -0.145233 0.869046
0.069133 -0.145249 0.869141
0.070630 -0.145306 0.869484
0.072145 -0.145395 0.870019
0.073676 -0.145515 0.870737
0.075233 -0.145680 0.871722
0.076815 -0.145885 0.872948
0.078418 -0.146122 0.874369
0.080028 -0.146364 0.875815
0.081652 -0.146621 0.877352
0.083303 -0.146916 0.879120
0.085010 -0.147300 0.881418
0.086717 -0.147669 0.883622
0.088423 -0.148025 0.885754
0.090132 -0.148372 0.887832
0.091833 -0.148697 0.889775
0.093511 -0.148974 0.891431
0.095227 -0.149301 0.893387
0.096961 -0.149647 0.895458
0.098701 -0.149989 0.897508
0.100424 -0.150298 0.899358
0.102113 -0.150546 0.900842
0.021743 -0.151420 0.915352
0.023268 -0.151270 0.914448
0.024781 -0.151071 0.913243
0.026269 -0.150749 0.911297
0.027733 -0.150339 0.908821
0.029184 -0.149897 0.906150
0.030621 -0.149437 0.903364
0.032050 -0.148979 0.900599
0.033481 -0.148572 0.898139
0.034913 -0.148204 0.895916
0.036346 -0.147872 0.893904
0.037760 -0.147494 0.891624
0.039165 -0.147110 0.889300
0.040550 -0.146681 0.886705
0.041943 -0.146312 0.884478
0.043337 -0.145970 0.882408
0.044751 -0.145719 0.880890
0.046162 -0.145470 0.879389
0.047584 -0.145274 0.878204
0.048984 -0.145024 0.876692
0.050379 -0.144774 0.875177
0.051769 -0.144523 0.873659
0.053169 -0.144314 0.872397
0.054572 -0.144123 0.871246
0.055989 -0.143980 0.870380
0.057420 -0.143878 0.869765
0.058859 -0.143803 0.869308
0.060304 -0.143744 0.868951
0.061749 -0.143688 0.868612
0.063199 -0.143647 0.868365
0.064661 -0.143632 0.868276
0.066123 -0.143619 0.868196
0.067590 -0.143619 0.868198
0.069065 -0.143634 0.868288
0.070560 -0.143689 0.868621
0.072079 -0.143789 0.869223
0.073623 -0.143936 0.870114
0.075187 -0.144115 0.871193
0.076770 -0.144322 0.872444
0.078372 -0.144555 0.873855
0.079979 -0.144790 0.875273
0.081600 -0.145042 0.876796
0.083259 -0.145350 0.878660
0.084975 -0.145746 0.881055
0.086699 -0.146140 0.883436
0.088425 -0.146526 0.885767
0.090143 -0.146885 0.887940
0.091855 -0.147224 0.889989
0.093550 -0.147524 0.891801
0.095275 -0.147862 0.893844
0.097011 -0.148205 0.895920
0.098753 -0.148546 0.897982
0.100479 -0.148855 0.899847
0.102169 -0.149101 0.901335
0.021734 -0.149808 0.914988
0.023258 -0.149658 0.914070
0.024767 -0.149438 0.912728
0.026254 -0.149122 0.910796
0.027721 -0.148732 0.908414
0.029174 -0.148312 0.905847
0.030615 -0.147874 0.903174
0.032044 -0.147424 0.900422
0.033471 -0.147006 0.897875
0.034895 -0.146611 0.895462
0.036322 -0.146262 0.893329
0.037732 -0.145875 0.890962
0.039140 -0.145510 0.888735
0.040533 -0.145118 0.886342
0.041935 -0.144784 0.884299
0.043333 -0.144460 0.882322
0.044750 -0.144222 0.880868
0.046160 -0.143975 0.879361
0.047577 -0.143765 0.878077
0.048972 -0.143503 0.876474
0.050362 -0.143241 0.874875
0.051741 -0.142965 0.873193
0.053125 -0.142718 0.871681
0.054516 -0.142502 0.870362
0.055926 -0.142344 0.869400
0.057351 -0.142233 0.868719
0.058791 -0.142164 0.868297
0.060240 -0.142121 0.868035
0.061689 -0.142078 0.867776
0.063144 -0.142050 0.867601
0.064604 -0.142035 0.867509
0.066064 -0.142021 0.867426
0.067530 -0.142021 0.867426
0.069003 -0.142034 0.867503
0.070496 -0.142087 0.867831
0.072019 -0.142199 0.868510
0.073570 -0.142358 0.869486
0.075148 -0.142563 0.870738
0.076738 -0.142782 0.872074
0.078337 -0.143010 0.873466
0.079942 -0.143241 0.874875
0.081554 -0.143473 0.876296
0.083205 -0.143766 0.878084
0.084930 -0.144175 0.880583
0.086672 -0.144598 0.883162
0.088417 -0.145011 0.885686
0.090162 -0.145411 0.888131
0.091894 -0.145777 0.890364
0.093599 -0.146089 0.892271
0.095327 -0.146426 0.894327
0.097074 -0.146781 0.896500
0.098828 -0.147135 0.898663
0.100575 -0.147470 0.900704
0.102279 -0.147732 0.902309
0.020203 -0.148369 0.915676
0.021730 -0.148226 0.914794
0.023252 -0.148071 0.913840
0.024758 -0.147837 0.912392
0.026242 -0.147509 0.910372
0.027708 -0.147124 0.907997
0.029164 -0.146724 0.905522
0.030607 -0.146307 0.902953
0.032034 -0.145852 0.900145
0.033458 -0.145426 0.897514
0.034876 -0.145017 0.894988
0.036298 -0.144653 0.892743
0.037704 -0.144256 0.890291
0.039115 -0.143911 0.888167
0.040516 -0.143555 0.885969
0.041926 -0.143255 0.884118
0.043329 -0.142951 0.882241
0.044751 -0.142731 0.880882
0.046161 -0.142485 0.879366
0.047573 -0.142264 0.878001
0.048963 -0.141990 0.876311
0.050347 -0.141716 0.874619
0.051716 -0.141416 0.872764
0.053088 -0.141141 0.871071
0.054471 -0.140910 0.869642
0.055874 -0.140740 0.868594
0.057298 -0.140630 0.867917
0.058743 -0.140577 0.867587
0.060192 -0.140537 0.867341
0.061640 -0.140495 0.867083
0.063092 -0.140464 0.866888
0.064550 -0.140447 0.866785
0.066009 -0.140434 0.866705
0.067475 -0.140435 0.866714
0.068946 -0.140448 0.866791
0.070438 -0.140500 0.867112
0.071954 -0.140598 0.867717
0.073498 -0.140746 0.868631
0.075075 -0.140949 0.869887
0.076656 -0.141153 0.871140
0.078245 -0.141363 0.872439
0.079846 -0.141587 0.873822
0.081449 -0.141805 0.875170
0.083106 -0.142109 0.877042
0.084861 -0.142567 0.879867
0.086635 -0.143040 0.882791
0.088416 -0.143508 0.885675
0.090199 -0.143964 0.888489
0.091959 -0.144369 0.890989
0.093668 -0.144683 0.892930
0.095397 -0.145017 0.894988
0.097137 -0.145355 0.897077
0.098900 -0.145720 0.899326
0.100652 -0.146055 0.901396
0.102370 -0.146333 0.903110
0.104997 -0.149430 0.912674
0.104080 -0.146591 0.904706
0.020206 -0.146842 0.915836
0.021732 -0.146687 0.914870
0.023248 -0.146494 0.913666
0.024750 -0.146244 0.912103
0.026233 -0.145919 0.910081
0.027702 -0.145553 0.907794
0.029160 -0.145170 0.905408
0.030607 -0.144773 0.902930
0.032030 -0.144309 0.900038
0.033447 -0.143859 0.897232
0.034858 -0.143423 0.894509
0.036275 -0.143046 0.892162
0.037675 -0.142640 0.889626
0.039091 -0.142317 0.887613
0.040499 -0.141994 0.885596
0.041918 -0.141728 0.883942
0.043325 -0.141443 0.882161
0.044752 -0.141241 0.880902
0.046162 -0.141000 0.879398
0.047571 -0.140771 0.877968
0.048956 -0.140485 0.876188
0.050330 -0.140185 0.874316
0.051687 -0.139857 0.872273
0.053047 -0.139557 0.870397
0.054418 -0.139299 0.868792
0.055813 -0.139115 0.867640
0.057234 -0.139004 0.866952
0.058677 -0.138951 0.866623
0.060125 -0.138913 0.866380
0.061577 -0.138883 0.866196
0.063027 -0.138852 0.866002
0.064484 -0.138836 0.865901
0.065942 -0.138824 0.865827
0.067407 -0.138826 0.865841
0.068877 -0.138839 0.865924
0.070367 -0.138891 0.866247
0.071888 -0.139001 0.866932
0.073431 -0.139147 0.867844
0.075000 -0.139336 0.869023
0.076577 -0.139533 0.870249
0.078165 -0.139741 0.871544
0.079757 -0.139950 0.872852
0.081359 -0.140167 0.874205
0.083036 -0.140505 0.876309
0.084807 -0.140985 0.879304
0.086608 -0.141499 0.882511
0.088416 -0.142008 0.885683
0.090237 -0.142518 0.888866
0.092017 -0.142949 0.891557
0.093738 -0.143275 0.893590
0.095467 -0.143604 0.895640
0.097205 -0.143937 0.897714
0.098970 -0.144296 0.899957
0.100724 -0.144630 0.902039
0.102465 -0.144936 0.903945
0.104190 -0.145210 0.905657
0.020210 -0.145313 0.915984
0.021736 -0.145168 0.915072
0.023251 -0.144965 0.913792
0.024750 -0.144701 0.912122
0.026234 -0.144380 0.910102
0.027701 -0.144006 0.907746
0.029158 -0.143626 0.905346
0.030604 -0.143231 0.902857
0.032024 -0.142756 0.899866
0.033437 -0.142296 0.896963
0.034847 -0.141861 0.894221
0.036263 -0.141487 0.891864
0.037663 -0.141085 0.889332
0.039082 -0.140782 0.887419
0.040498 -0.140489 0.885576
0.041925 -0.140255 0.884098
0.043333 -0.139974 0.882329
0.044765 -0.139789 0.881162
0.046180 -0.139564 0.879743
0.047582 -0.139312 0.878157
0.048957 -0.139002 0.876204
0.050324 -0.138688 0.874220
0.051665 -0.138322 0.871913
0.053014 -0.137997 0.869863
0.054379 -0.137729 0.868175
0.055767 -0.137532 0.866934
0.057181 -0.137408 0.866156
0.058622 -0.137354 0.865812
0.060059 -0.137291 0.865414
0.061508 -0.137261 0.865228
0.062957 -0.137230 0.865030
0.064412 -0.137215 0.864938
0.065870 -0.137206 0.864878
0.067340 -0.137222 0.864979
0.068809 -0.137235 0.865064
0.070303 -0.137297 0.865457
0.071824 -0.137407 0.866149
0.073357 -0.137537 0.866969
0.074923 -0.137721 0.868126
0.076497 -0.137912 0.869333
0.078083 -0.138118 0.870628
0.079675 -0.138328 0.871952
0.081275 -0.138543 0.873307
0.082929 -0.138839 0.875173
0.084711 -0.139338 0.878317
0.086539 -0.139892 0.881812
0.088387 -0.140459 0.885388
0.090254 -0.141038 0.889038
0.092096 -0.141559 0.892317
0.093825 -0.141892 0.894419
0.095546 -0.142203 0.896380
0.097282 -0.142527 0.898424
0.099047 -0.142882 0.900660
0.100803 -0.143214 0.902753
0.102557 -0.143533 0.904761
0.104285 -0.143807 0.906487
0.018682 -0.143924 0.917027
0.020217 -0.143811 0.916306
0.021743 -0.143662 0.915357
0.023256 -0.143447 0.913986
0.024758 -0.143199 0.912407
0.026240 -0.142871 0.910319
0.027708 -0.142503 0.907969
0.029165 -0.142125 0.905565
0.030608 -0.141717 0.902963
0.032021 -0.141219 0.899793
0.033431 -0.140748 0.896793
0.034837 -0.140304 0.893961
0.036248 -0.139921 0.891517
0.037645 -0.139511 0.888911
0.039067 -0.139225 0.887083
0.040487 -0.138951 0.885337
0.041918 -0.138733 0.883949
0.043330 -0.138469 0.882267
0.044766 -0.138297 0.881171
0.046185 -0.138086 0.879828
0.047582 -0.137823 0.878154
0.048952 -0.137502 0.876106
0.050312 -0.137173 0.874009
0.051647 -0.136794 0.871599
0.052986 -0.136448 0.869394
0.054345 -0.136172 0.867635
0.055728 -0.135966 0.866323
0.057135 -0.135829 0.865449
0.058564 -0.135750 0.864941
0.059992 -0.135672 0.864449
0.061440 -0.135643 0.864264
0.062887 -0.135614 0.864080
0.064342 -0.135602 0.863999
0.065804 -0.135604 0.864017
0.067272 -0.135620 0.864113
0.068746 -0.135645 0.864273
0.070240 -0.135708 0.864678
0.071752 -0.135804 0.865286
0.073277 -0.135919 0.866018
0.074832 -0.136084 0.867070
0.076396 -0.136259 0.868189
0.077980 -0.136462 0.869483
0.079579 -0.136685 0.870902
0.081178 -0.136898 0.872262
0.082850 -0.137224 0.874339
0.084663 -0.137770 0.877813
0.086526 -0.138376 0.881676
0.088405 -0.138988 0.885574
0.090310 -0.139618 0.889588
0.092164 -0.140150 0.892976
0.093886 -0.140467 0.894999
0.095598 -0.140760 0.896869
0.097335 -0.141080 0.898907
0.099100 -0.141431 0.901142
0.100867 -0.141773 0.903322
0.102623 -0.142090 0.905342
0.104352 -0.142361 0.907068
0.018694 -0.142458 0.917595
0.020228 -0.142336 0.916810
0.021751 -0.142164 0.915701
0.023261 -0.141927 0.914174
0.024761 -0.141668 0.912508
0.026241 -0.141332 0.910346
0.027708 -0.140966 0.907984
0.029165 -0.140592 0.905574
0.030608 -0.140186 0.902963
0.032021 -0.139694 0.899793
0.033431 -0.139228 0.896793
0.034837 -0.138789 0.893961
0.036248 -0.138408 0.891511
0.037648 -0.138016 0.888985
0.039071 -0.137733 0.887163
0.040492 -0.137465 0.885433
0.041922 -0.137248 0.884040
0.043335 -0.136988 0.882363
0.044766 -0.136803 0.881170
0.046185 -0.136593 0.879821
0.047576 -0.136320 0.878058
0.048941 -0.135988 0.875919
0.050296 -0.135647 0.873727
0.051625 -0.135260 0.871231
0.052964 -0.134918 0.869026
0.054323 -0.134646 0.867278
0.055705 -0.134443 0.865973
0.057111 -0.134307 0.865095
0.058533 -0.134214 0.864496
0.059949 -0.134111 0.863833
0.061390 -0.134069 0.863558
0.062830 -0.134026 0.863287
0.064278 -0.134003 0.863135
0.065738 -0.134006 0.863152
0.067205 -0.134020 0.863245
0.068677 -0.134045 0.863404
0.070170 -0.134108 0.863814
0.071674 -0.134191 0.864344
0.073190 -0.134291 0.864990
