1714
0.085825 -0.138153 0.889867
0.087405 -0.138272 0.890631
0.088977 -0.138375 0.891298
0.090549 -0.138475 0.891940
0.092122 -0.138573 0.892571
0.093709 -0.138688 0.893311
0.095311 -0.138822 0.894177
0.096943 -0.138995 0.895292
0.098570 -0.139155 0.896318
0.100207 -0.139325 0.897413
0.101880 -0.139538 0.898788
0.103554 -0.139746 0.900127
0.105244 -0.139970 0.901573
0.106989 -0.140259 0.903434
0.108688 -0.140481 0.904862
0.110392 -0.140704 0.906298
0.112088 -0.140910 0.907624
0.113766 -0.141088 0.908771
0.115425 -0.141238 0.909735
0.117121 -0.141429 0.910967
0.118840 -0.141642 0.912338
0.120783 -0.142113 0.915377
0.123039 -0.142937 0.920682
0.125388 -0.143846 0.926537
0.127714 -0.144707 0.932081
0.129961 -0.145458 0.936919
0.131946 -0.145902 0.939777
0.133609 -0.145982 0.940297
0.135213 -0.145998 0.940396
0.136844 -0.146042 0.940681
0.138452 -0.146060 0.940799
0.140074 -0.146093 0.941011
0.141752 -0.146183 0.941590
0.143451 -0.146293 0.942295
0.145160 -0.146410 0.943049
0.146900 -0.146555 0.943989
0.148672 -0.146729 0.945104
0.150385 -0.146842 0.945833
0.152069 -0.146923 0.946359
0.153733 -0.146985 0.946757
0.155398 -0.147046 0.947148
0.158336 -0.149917 0.955210
0.157068 -0.147111 0.947565
0.011900 -0.134254 0.874299
0.013373 -0.134205 0.873980
0.014841 -0.134119 0.873417
0.016297 -0.133955 0.872349
0.017740 -0.133713 0.870774
0.019174 -0.133451 0.869070
0.020597 -0.133150 0.867111
0.022022 -0.132905 0.865514
0.023449 -0.132696 0.864150
0.024880 -0.132541 0.863143
0.026318 -0.132433 0.862442
0.027759 -0.132353 0.861918
0.029194 -0.132251 0.861252
0.030641 -0.132210 0.860990
0.032098 -0.132220 0.861050
0.033564 -0.132260 0.861314
0.035042 -0.132340 0.861837
0.036527 -0.132444 0.862510
0.037996 -0.132481 0.862756
0.039498 -0.132627 0.863706
0.040999 -0.132759 0.864563
0.042567 -0.133091 0.866727
0.044223 -0.133667 0.870477
0.045974 -0.134486 0.875807
0.047684 -0.135135 0.880038
0.049390 -0.135735 0.883941
0.051026 -0.136114 0.886413
0.052568 -0.136227 0.887145
0.054042 -0.136162 0.886724
0.055539 -0.136155 0.886681
0.057025 -0.136126 0.886493
0.058535 -0.136151 0.886655
0.060065 -0.136222 0.887116
0.061592 -0.136283 0.887515
0.063109 -0.136318 0.887739
0.064615 -0.136329 0.887813
0.066082 -0.136259 0.887357
0.067545 -0.136186 0.886879
0.069022 -0.136140 0.886582
0.070466 -0.136035 0.885900
0.071933 -0.135977 0.885520
0.073425 -0.135968 0.885458
0.074937 -0.135994 0.885633
0.076462 -0.136044 0.885959
0.078040 -0.136185 0.886875
0.079613 -0.136311 0.887696
0.081172 -0.136409 0.888334
0.082725 -0.136493 0.888878
0.084295 -0.136603 0.889595
0.085864 -0.136706 0.890267
0.087443 -0.136823 0.891026
0.089017 -0.136926 0.891696
0.090588 -0.137022 0.892324
0.092162 -0.137119 0.892956
0.093748 -0.137231 0.893685
0.095349 -0.137362 0.894538
0.096972 -0.137519 0.895560
0.098589 -0.137663 0.896498
0.100217 -0.137817 0.897502
0.101880 -0.138014 0.898787
0.103543 -0.138206 0.900035
0.105233 -0.138427 0.901475
0.106966 -0.138699 0.903246
0.108666 -0.138920 0.904683
0.110380 -0.139153 0.906202
0.112077 -0.139357 0.907533
0.113755 -0.139534 0.908683
0.115413 -0.139681 0.909642
0.117108 -0.139869 0.910866
0.118802 -0.140051 0.912049
0.120728 -0.140497 0.914958
0.123117 -0.141466 0.921266
0.125499 -0.142401 0.927357
0.127846 -0.143274 0.933040
0.130128 -0.144054 0.938122
0.132135 -0.144515 0.941119
0.133676 -0.144461 0.940772
0.135296 -0.144493 0.940978
0.136943 -0.144552 0.941365
0.138566 -0.144585 0.941579
0.140204 -0.144632 0.941886
0.141884 -0.144722 0.942469
0.143555 -0.144801 0.942983
0.145249 -0.144900 0.943629
0.146975 -0.145029 0.944470
0.148718 -0.145172 0.945398
0.150418 -0.145270 0.946041
0.152101 -0.145350 0.946557
0.153749 -0.145396 0.946855
0.155411 -0.145453 0.947230
0.157081 -0.145516 0.947641
0.160004 -0.148347 0.955529
0.158772 -0.145598 0.948175
0.011887 -0.132634 0.873389
0.013359 -0.132588 0.873084
0.014825 -0.132494 0.872470
0.016278 -0.132323 0.871340
0.017717 -0.132069 0.869668
0.019148 -0.131794 0.867860
0.020568 -0.131496 0.865898
0.021992 -0.131257 0.864320
0.023418 -0.131062 0.863039
0.024853 -0.130933 0.862191
0.026292 -0.130841 0.861585
0.027729 -0.130750 0.860982
0.029159 -0.130636 0.860231
0.030597 -0.130566 0.859771
0.032046 -0.130547 0.859645
0.033497 -0.130538 0.859587
0.034955 -0.130556 0.859706
0.036415 -0.130582 0.859875
0.037854 -0.130530 0.859535
0.039315 -0.130554 0.859697
0.040778 -0.130588 0.859918
0.042307 -0.130819 0.861440
0.043922 -0.131292 0.864554
0.045704 -0.132221 0.870668
0.047476 -0.133061 0.876205
0.049254 -0.133869 0.881520
0.050976 -0.134479 0.885538
0.052601 -0.134807 0.887698
0.054075 -0.134742 0.887269
0.055572 -0.134734 0.887218
0.057064 -0.134716 0.887101
0.058566 -0.134720 0.887125
0.060098 -0.134792 0.887600
0.061627 -0.134855 0.888013
0.063142 -0.134885 0.888211
0.064636 -0.134869 0.888107
0.066101 -0.134795 0.887623
0.067558 -0.134707 0.887044
0.069009 -0.134613 0.886419
0.070431 -0.134467 0.885459
0.071874 -0.134366 0.884798
0.073355 -0.134338 0.884612
0.074857 -0.134351 0.884698
0.076404 -0.134442 0.885293
0.078000 -0.134612 0.886418
0.079596 -0.134778 0.887509
0.081173 -0.134905 0.888342
0.082743 -0.135016 0.889077
0.084317 -0.135130 0.889826
0.085893 -0.135243 0.890574
0.087473 -0.135358 0.891326
0.089036 -0.135443 0.891889
0.090598 -0.135524 0.892421
0.092178 -0.135630 0.893119
0.093757 -0.135729 0.893773
0.095368 -0.135871 0.894709
0.096982 -0.136014 0.895649
0.098597 -0.136154 0.896569
0.100216 -0.136294 0.897494
0.101869 -0.136476 0.898688
0.103521 -0.136652 0.899846
0.105210 -0.136869 0.901277
0.106932 -0.137124 0.902954
0.108621 -0.137329 0.904306
0.110334 -0.137559 0.905824
0.112031 -0.137763 0.907165
0.113710 -0.137938 0.908320
0.115366 -0.138083 0.909273
0.117057 -0.138264 0.910465
0.118733 -0.138424 0.911517
0.120631 -0.138835 0.914226
0.123042 -0.139819 0.920701
0.125454 -0.140778 0.927020
0.127822 -0.141667 0.932870
0.130156 -0.142494 0.938322
0.132215 -0.143006 0.941691
0.133771 -0.142968 0.941439
0.135419 -0.143027 0.941829
0.137069 -0.143088 0.942227
0.138683 -0.143109 0.942370
0.140309 -0.143143 0.942592
0.141976 -0.143217 0.943081
0.143619 -0.143266 0.943402
0.145311 -0.143361 0.944029
0.147035 -0.143487 0.944856
0.148764 -0.143613 0.945689
0.150450 -0.143697 0.946241
0.152131 -0.143774 0.946747
0.153764 -0.143804 0.946947
0.155411 -0.143847 0.947230
0.157080 -0.143909 0.947638
0.158771 -0.143990 0.948170
0.013350 -0.131015 0.872466
0.014813 -0.130914 0.871798
0.016265 -0.130737 0.870620
0.017703 -0.130486 0.868944
0.019130 -0.130201 0.867049
0.020548 -0.129898 0.865027
0.021970 -0.129662 0.863458
0.023395 -0.129471 0.862185
0.024828 -0.129343 0.861336
0.026266 -0.129252 0.860731
0.027699 -0.129150 0.860047
0.029124 -0.129023 0.859201
0.030554 -0.128927 0.858563
0.031995 -0.128882 0.858267
0.033436 -0.128848 0.858035
0.034889 -0.128854 0.858075
0.036343 -0.128868 0.858172
0.037786 -0.128840 0.857984
0.039220 -0.128785 0.857618
0.040652 -0.128731 0.857258
0.042123 -0.128797 0.857699
0.043672 -0.129089 0.859642
0.048947 -0.131548 0.876016
0.050756 -0.132405 0.881723
0.052476 -0.132987 0.885598
0.054039 -0.133149 0.886679
0.055618 -0.133340 0.887948
0.057106 -0.133309 0.887746
0.058603 -0.133301 0.887693
0.060130 -0.133360 0.888083
0.061654 -0.133407 0.888398
0.063163 -0.133423 0.888501
0.064637 -0.133366 0.888126
0.066065 -0.133218 0.887136
0.067481 -0.133053 0.886039
0.068902 -0.132903 0.885044
0.070294 -0.132708 0.883740
0.071727 -0.132595 0.882988
0.073232 -0.132616 0.883131
0.074761 -0.132681 0.883562
0.076339 -0.132826 0.884531
0.077963 -0.133047 0.885999
0.079583 -0.133251 0.887360
0.081174 -0.133401 0.888359
0.082761 -0.133538 0.889271
0.084335 -0.133651 0.890020
0.085919 -0.133774 0.890842
0.087490 -0.133872 0.891496
0.089033 -0.133927 0.891862
0.090586 -0.133994 0.892303
0.092157 -0.134086 0.892916
0.093720 -0.134161 0.893418
0.095331 -0.134303 0.894362
0.096944 -0.134443 0.895298
0.098559 -0.134582 0.896222
0.100186 -0.134733 0.897224
0.101838 -0.134912 0.898418
0.103480 -0.135072 0.899486
0.105164 -0.135283 0.900889
0.106875 -0.135520 0.902471
0.108562 -0.135722 0.903816
0.110275 -0.135951 0.905337
0.111983 -0.136166 0.906771
0.113671 -0.136353 0.908013
0.115327 -0.136495 0.908963
0.117005 -0.136661 0.910067
0.118667 -0.136803 0.911009
0.120508 -0.137145 0.913292
0.122791 -0.137976 0.918825
0.125190 -0.138914 0.925073
0.127602 -0.139844 0.931264
0.129991 -0.140725 0.937133
0.132142 -0.141332 0.941171
0.133836 -0.141440 0.941893
0.135498 -0.141514 0.942384
0.137150 -0.141574 0.942784
0.138765 -0.141596 0.942930
0.140406 -0.141643 0.943244
0.142074 -0.141716 0.943730
0.143702 -0.141749 0.943947
0.145376 -0.141825 0.944454
0.147083 -0.141931 0.945164
0.148783 -0.142028 0.945809
0.150453 -0.142096 0.946257
0.152133 -0.142171 0.946757
0.153764 -0.142199 0.946947
0.155413 -0.142243 0.947240
0.157084 -0.142306 0.947657
0.158777 -0.142388 0.948204
0.161743 -0.145219 0.956262
0.160487 -0.142482 0.948834
0.011873 -0.129521 0.872366
0.013343 -0.129477 0.872069
0.014803 -0.129348 0.871200
0.016253 -0.129166 0.869974
0.017691 -0.128928 0.868372
0.019116 -0.128639 0.866425
0.020531 -0.128328 0.864330
0.021950 -0.128082 0.862678
0.023374 -0.127894 0.861405
0.024804 -0.127755 0.860474
0.026237 -0.127654 0.859791
0.027666 -0.127540 0.859028
0.029089 -0.127414 0.858173
0.030515 -0.127306 0.857451
0.031950 -0.127250 0.857068
0.033390 -0.127214 0.856830
0.034840 -0.127220 0.856868
0.036289 -0.127222 0.856884
0.037733 -0.127208 0.856786
0.039165 -0.127155 0.856430
0.040597 -0.127103 0.856083
0.042020 -0.127031 0.855598
0.043508 -0.127154 0.856424
0.045378 -0.129812 0.864455
0.045143 -0.127682 0.859984
0.047111 -0.130564 0.869466
0.046808 -0.128260 0.863877
0.050460 -0.130147 0.876581
0.052264 -0.130952 0.882008
0.053915 -0.131344 0.884643
0.055576 -0.131735 0.887282
0.057143 -0.131891 0.888327
0.058640 -0.131879 0.888248
0.060161 -0.131922 0.888537
0.061677 -0.131952 0.888738
0.063174 -0.131939 0.888653
0.064636 -0.131857 0.888099
0.066025 -0.131634 0.886600
0.067404 -0.131401 0.885027
0.068785 -0.131181 0.883545
0.070152 -0.130944 0.881953
0.071556 -0.130786 0.880884
0.073077 -0.130841 0.881258
0.074642 -0.130973 0.882150
0.076250 -0.131175 0.883507
0.077905 -0.131447 0.885338
0.079554 -0.131699 0.887040
0.081174 -0.131895 0.888357
0.082761 -0.132031 0.889271
0.084343 -0.132153 0.890096
0.085926 -0.132275 0.890915
0.087487 -0.132357 0.891466
0.089014 -0.132387 0.891668
0.090555 -0.132436 0.891999
0.092117 -0.132514 0.892524
0.093670 -0.132577 0.892948
0.095281 -0.132718 0.893900
0.096894 -0.132857 0.894835
0.098517 -0.133006 0.895841
0.100153 -0.133168 0.896930
0.101807 -0.133348 0.898142
0.103448 -0.133506 0.899205
0.105130 -0.133712 0.900592
0.106817 -0.133919 0.901987
0.108492 -0.134103 0.903230
0.110204 -0.134329 0.904753
0.111910 -0.134542 0.906183
0.113588 -0.134715 0.907351
0.115244 -0.134858 0.908311
0.116921 -0.135022 0.909415
0.118561 -0.135138 0.910197
0.120391 -0.135466 0.912405
0.122587 -0.136191 0.917294
0.125017 -0.137156 0.923793
0.127468 -0.138120 0.930286
0.129922 -0.139063 0.936639
0.132125 -0.139719 0.941052
0.133958 -0.139971 0.942753
0.135623 -0.140045 0.943250
0.137276 -0.140105 0.943652
0.138904 -0.140138 0.943874
0.140559 -0.140197 0.944271
0.142214 -0.140254 0.944660
0.143828 -0.140271 0.944774
0.145487 -0.140331 0.945174
0.147164 -0.140406 0.945681
0.148832 -0.140471 0.946122
0.150485 -0.140521 0.946458
0.152163 -0.140594 0.946948
0.153795 -0.140622 0.947138
0.155462 -0.140682 0.947541
0.157136 -0.140747 0.947975
0.158830 -0.140828 0.948522
0.160540 -0.140921 0.949149
0.011877 -0.128084 0.872650
0.013341 -0.127970 0.871875
0.014795 -0.127803 0.870735
0.016243 -0.127614 0.869450
0.017682 -0.127393 0.867946
0.019107 -0.127107 0.865998
0.020521 -0.126797 0.863886
0.021937 -0.126543 0.862151
0.023357 -0.126341 0.860777
0.024783 -0.126193 0.859769
0.026213 -0.126081 0.859007
0.027638 -0.125956 0.858155
0.029060 -0.125830 0.857295
0.030481 -0.125714 0.856506
0.031910 -0.125638 0.855986
0.033347 -0.125602 0.855741
0.034791 -0.125594 0.855685
0.036238 -0.125595 0.855696
0.037685 -0.125594 0.855685
0.039120 -0.125556 0.855428
0.040553 -0.125518 0.855167
0.041983 -0.125468 0.854831
0.043418 -0.125441 0.854644
0.044985 -0.125783 0.856975
0.046573 -0.126160 0.859540
0.051939 -0.128653 0.876531
0.053674 -0.129264 0.880689
0.055421 -0.129868 0.884808
0.057076 -0.130230 0.887276
0.058636 -0.130365 0.888194
0.060150 -0.130392 0.888376
0.061647 -0.130382 0.888310
0.063119 -0.130319 0.887879
0.064536 -0.130151 0.886734
0.065900 -0.129884 0.884916
0.067246 -0.129594 0.882943
0.068602 -0.129338 0.881197
0.069970 -0.129113 0.879662
0.071393 -0.128997 0.878870
0.072921 -0.129073 0.879389
0.074523 -0.129272 0.880747
0.076176 -0.129550 0.882640
0.077857 -0.129865 0.884788
0.079538 -0.130169 0.886854
0.081196 -0.130424 0.888594
0.082783 -0.130559 0.889511
0.084350 -0.130656 0.890177
0.085925 -0.130763 0.890905
0.087468 -0.130818 0.891279
0.088978 -0.130822 0.891307
0.090509 -0.130857 0.891545
0.092069 -0.130933 0.892060
0.093611 -0.130980 0.892384
0.095228 -0.131129 0.893398
0.096840 -0.131266 0.894333
0.098472 -0.131428 0.895434
0.100112 -0.131593 0.896556
0.101775 -0.131784 0.897862
0.103406 -0.131928 0.898843
0.105086 -0.132130 0.900215
0.106750 -0.132307 0.901422
0.108423 -0.132488 0.902659
0.110134 -0.132711 0.904176
0.111840 -0.132922 0.905615
0.113517 -0.133093 0.906778
0.115192 -0.133258 0.907901
0.116882 -0.133435 0.909111
0.118535 -0.133566 0.910002
0.120253 -0.133765 0.911358
0.122319 -0.134342 0.915288
0.124728 -0.135276 0.921655
0.127183 -0.136237 0.928202
0.129692 -0.137232 0.934979
0.132089 -0.138086 0.940794
0.134104 -0.138524 0.943780
0.135799 -0.138625 0.944470
0.137454 -0.138684 0.944873
0.139082 -0.138715 0.945083
0.140724 -0.138759 0.945381
0.142353 -0.138789 0.945587
0.143956 -0.138793 0.945616
0.145600 -0.138836 0.945908
0.147245 -0.138879 0.946202
0.148881 -0.138913 0.946434
0.150516 -0.138946 0.946655
0.152194 -0.139017 0.947138
0.153829 -0.139047 0.947347
0.155515 -0.139123 0.947858
0.157205 -0.139201 0.948392
0.158899 -0.139280 0.948932
0.160608 -0.139371 0.949552
0.010428 -0.126923 0.874844
0.011889 -0.126735 0.873551
0.013347 -0.126557 0.872324
0.014797 -0.126338 0.870812
0.016239 -0.126106 0.869212
0.017676 -0.125876 0.867630
0.019096 -0.125570 0.865522
0.020507 -0.125251 0.863324
0.021920 -0.124983 0.861473
0.023336 -0.124771 0.860012
0.024759 -0.124613 0.858922
0.026187 -0.124500 0.858148
0.027613 -0.124388 0.857375
0.029033 -0.124264 0.856515
0.030454 -0.124152 0.855743
0.031881 -0.124076 0.855221
0.033314 -0.124028 0.854894
0.034753 -0.124007 0.854746
0.036199 -0.124008 0.854752
0.037643 -0.124007 0.854746
0.039081 -0.123983 0.854580
0.040517 -0.123957 0.854404
0.041952 -0.123930 0.854216
0.043396 -0.123928 0.854202
0.044906 -0.124110 0.855457
0.046426 -0.124309 0.856825
0.048263 -0.126781 0.863773
0.048036 -0.124729 0.859721
0.050063 -0.127649 0.869689
0.049752 -0.125390 0.864277
0.053317 -0.126920 0.874827
0.055096 -0.127616 0.879621
0.056821 -0.128153 0.883321
0.058442 -0.128433 0.885252
0.059993 -0.128548 0.886048
0.061518 -0.128605 0.886440
0.062992 -0.128557 0.886105
0.064385 -0.128347 0.884660
0.065725 -0.128042 0.882562
0.067059 -0.127741 0.880486
0.068411 -0.127487 0.878735
0.069794 -0.127301 0.877451
0.071229 -0.127214 0.876852
0.072762 -0.127303 0.877465
0.074396 -0.127561 0.879243
0.076076 -0.127886 0.881483
0.077783 -0.128244 0.883953
0.079490 -0.128588 0.886324
0.081196 -0.128918 0.888600
0.082786 -0.129054 0.889537
0.084353 -0.129152 0.890207
0.085926 -0.129254 0.890914
0.087459 -0.129294 0.891185
0.088951 -0.129272 0.891037
0.090472 -0.129294 0.891185
0.092030 -0.129366 0.891685
0.093553 -0.129386 0.891824
0.095167 -0.129532 0.892826
0.096777 -0.129667 0.893758
0.098411 -0.129829 0.894876
0.100051 -0.129994 0.896012
0.101734 -0.130209 0.897494
0.103364 -0.130352 0.898478
0.105043 -0.130551 0.899851
0.106706 -0.130724 0.901045
0.108377 -0.130902 0.902274
0.110075 -0.131109 0.903697
0.111781 -0.131318 0.905137
0.113467 -0.131499 0.906386
0.115154 -0.131675 0.907601
0.116855 -0.131864 0.908899
0.118522 -0.132008 0.909896
0.120253 -0.132221 0.911361
0.122182 -0.132642 0.914264
0.124466 -0.133434 0.919724
0.126914 -0.134380 0.926242
0.129453 -0.135397 0.933253
0.131893 -0.136288 0.939398
0.134093 -0.136913 0.943702
0.135919 -0.137145 0.945306
0.137577 -0.137205 0.945718
0.139192 -0.137222 0.945833
0.140821 -0.137251 0.946033
0.142437 -0.137267 0.946142
0.144039 -0.137269 0.946159
0.145668 -0.137297 0.946349
0.147297 -0.137324 0.946540
0.148914 -0.137340 0.946648
0.150532 -0.137356 0.946757
0.152210 -0.137426 0.947240
0.153864 -0.137473 0.947565
0.155555 -0.137552 0.948105
0.157246 -0.137629 0.948639
0.158936 -0.137703 0.949150
0.160642 -0.137791 0.949754
0.008975 -0.125809 0.877419
0.010439 -0.125568 0.875740
0.011899 -0.125353 0.874239
0.013354 -0.125137 0.872735
0.014798 -0.124878 0.870925
0.016237 -0.124622 0.869144
0.017673 -0.124382 0.867468
0.019090 -0.124066 0.865261
0.020497 -0.123727 0.862899
0.021906 -0.123448 0.860956
0.023322 -0.123238 0.859489
0.024741 -0.123069 0.858313
0.026167 -0.122949 0.857471
0.027594 -0.122849 0.856775
0.029016 -0.122737 0.855994
0.030438 -0.122639 0.855309
0.031865 -0.122564 0.854787
0.033297 -0.122515 0.854447
0.034731 -0.122480 0.854200
0.036172 -0.122468 0.854120
0.037612 -0.122457 0.854045
0.039053 -0.122446 0.853964
0.040492 -0.122433 0.853874
0.041935 -0.122431 0.853861
0.043387 -0.122455 0.854025
0.044837 -0.122472 0.854147
0.046292 -0.122502 0.854358
0.047829 -0.122740 0.856016
0.049464 -0.123207 0.859271
0.054765 -0.125366 0.874332
0.056527 -0.125999 0.878744
0.058188 -0.126381 0.881409
0.059767 -0.126569 0.882719
0.061313 -0.126679 0.883486
0.062788 -0.126642 0.883229
0.064177 -0.126437 0.881800
0.065511 -0.126136 0.879699
0.066843 -0.125843 0.877654
0.068218 -0.125643 0.876263
0.069629 -0.125516 0.875376
0.071084 -0.125471 0.875065
0.072619 -0.125569 0.875742
0.074287 -0.125886 0.877959
0.075979 -0.126231 0.880362
0.077711 -0.126628 0.883134
0.079452 -0.127025 0.885898
0.081206 -0.127427 0.888701
0.082806 -0.127577 0.889753
0.084382 -0.127687 0.890513
0.085953 -0.127783 0.891189
0.087467 -0.127795 0.891268
0.088940 -0.127745 0.890924
0.090436 -0.127731 0.890824
0.091975 -0.127778 0.891150
0.093478 -0.127773 0.891114
0.095090 -0.127915 0.892106
0.096708 -0.128060 0.893117
0.098352 -0.128235 0.894341
0.100000 -0.128410 0.895560
0.101701 -0.128646 0.897204
0.103329 -0.128786 0.898178
0.105010 -0.128985 0.899568
0.106673 -0.129157 0.900770
0.108353 -0.129345 0.902078
0.110051 -0.129548 0.903498
0.111757 -0.129755 0.904940
0.113433 -0.129923 0.906110
0.115130 -0.130109 0.907410
0.116820 -0.130284 0.908629
0.118487 -0.130427 0.909629
0.120239 -0.130661 0.911255
0.122036 -0.130936 0.913176
0.124179 -0.131571 0.917603
0.126629 -0.132511 0.924158
0.129174 -0.133527 0.931243
0.131652 -0.134450 0.937682
0.134048 -0.135267 0.943384
0.136039 -0.135663 0.946144
0.137712 -0.135736 0.946650
0.139342 -0.135765 0.946851
0.140971 -0.135792 0.947041
0.142587 -0.135806 0.947140
0.144190 -0.135807 0.947150
0.145805 -0.135821 0.947241
0.147406 -0.135820 0.947238
0.149007 -0.135819 0.947234
0.150609 -0.135820 0.947238
0.152273 -0.135877 0.947633
0.153931 -0.135926 0.947975
0.155623 -0.136004 0.948522
0.157299 -0.136066 0.948957
0.158971 -0.136124 0.949359
0.160675 -0.136208 0.949946
0.007504 -0.124526 0.878864
0.008979 -0.124375 0.877798
0.010445 -0.124160 0.876275
0.011905 -0.123936 0.874694
0.013357 -0.123687 0.872938
0.014797 -0.123393 0.870863
0.016233 -0.123113 0.868888
0.017667 -0.122872 0.867185
0.019082 -0.122547 0.864892
0.020488 -0.122212 0.862529
0.021897 -0.121938 0.860596
0.023312 -0.121729 0.859124
0.024729 -0.121553 0.857881
0.026153 -0.121435 0.857043
0.027582 -0.121347 0.856423
0.029007 -0.121250 0.855739
0.030432 -0.121166 0.855145
0.031862 -0.121103 0.854706
0.033293 -0.121054 0.854358
0.034724 -0.121006 0.854019
0.036160 -0.120982 0.853846
0.037597 -0.120959 0.853685
0.039033 -0.120937 0.853535
0.040476 -0.120937 0.853529
0.041926 -0.120960 0.853691
0.043387 -0.121008 0.854033
0.044851 -0.121061 0.854410
0.046323 -0.121134 0.854921
0.047800 -0.121215 0.855493
0.049361 -0.121496 0.857479
0.051193 -0.123877 0.863942
0.051011 -0.121976 0.860864
0.052956 -0.124588 0.868900
0.052695 -0.122508 0.864619
0.054431 -0.123128 0.868996
0.056212 -0.123816 0.873847
0.057905 -0.124278 0.877113
0.059507 -0.124529 0.878881
0.061068 -0.124682 0.879961
0.062551 -0.124672 0.879890
0.063953 -0.124507 0.878727
0.065323 -0.124286 0.877164
0.066701 -0.124092 0.875797
0.068119 -0.123977 0.874984
0.069566 -0.123920 0.874585
0.071042 -0.123915 0.874548
0.072602 -0.124055 0.875537
0.074285 -0.124394 0.877932
0.075985 -0.124749 0.880433
0.077733 -0.125166 0.883378
0.079495 -0.125591 0.886377
0.081238 -0.125970 0.889051
0.082841 -0.126122 0.890125
0.084426 -0.126242 0.890973
0.085989 -0.126326 0.891564
0.087502 -0.126334 0.891619
0.088964 -0.126270 0.891172
0.090442 -0.126230 0.890887
0.091963 -0.126250 0.891031
0.093455 -0.126231 0.890893
0.095049 -0.126348 0.891720
0.096658 -0.126481 0.892658
0.098302 -0.126655 0.893885
0.099949 -0.126827 0.895100
0.101657 -0.127070 0.896817
0.103296 -0.127222 0.897888
0.104988 -0.127433 0.899378
0.106653 -0.127606 0.900597
0.108332 -0.127791 0.901904
0.110019 -0.127979 0.903231
0.111723 -0.128182 0.904666
0.113389 -0.128337 0.905760
0.115097 -0.128534 0.907149
0.116799 -0.128720 0.908459
0.118474 -0.128872 0.909533
0.120214 -0.129089 0.911062
0.122006 -0.129356 0.912951
0.124011 -0.129839 0.916359
0.126332 -0.130638 0.921996
0.128865 -0.131633 0.929017
0.131400 -0.132606 0.935886
0.133860 -0.133481 0.942063
0.136043 -0.134063 0.946173
0.137863 -0.134277 0.947684
0.139508 -0.134319 0.947976
0.141124 -0.134331 0.948065
0.142725 -0.134330 0.948058
0.144314 -0.134317 0.947965
0.145917 -0.134317 0.947965
0.147504 -0.134303 0.947866
0.149104 -0.134302 0.947855
0.150706 -0.134301 0.947850
0.152356 -0.134343 0.948149
0.154014 -0.134391 0.948484
0.155691 -0.134454 0.948932
0.157349 -0.134500 0.949257
0.159003 -0.134542 0.949551
0.160690 -0.134611 0.950038
0.163703 -0.137402 0.958273
0.162404 -0.134700 0.950667
0.007504 -0.123021 0.878756
0.008979 -0.122884 0.877771
0.010445 -0.122679 0.876308
0.011906 -0.122461 0.874754
0.013354 -0.122181 0.872753
0.014794 -0.121889 0.870664
0.016229 -0.121611 0.868680
0.017661 -0.121360 0.866889
0.019076 -0.121041 0.864608
0.020482 -0.120712 0.862257
0.021891 -0.120442 0.860332
0.023305 -0.120237 0.858865
0.024721 -0.120063 0.857625
0.026146 -0.119946 0.856790
0.027577 -0.119871 0.856253
0.029004 -0.119788 0.855658
0.030430 -0.119708 0.855085
0.031863 -0.119661 0.854749
0.033292 -0.119602 0.854329
0.034719 -0.119541 0.853896
0.036154 -0.119514 0.853699
0.037590 -0.119489 0.853527
0.039029 -0.119479 0.853454
0.040480 -0.119502 0.853616
0.041939 -0.119548 0.853944
0.043400 -0.119597 0.854297
0.044864 -0.119649 0.854668
0.046336 -0.119720 0.855173
0.047819 -0.119812 0.855829
0.049319 -0.119942 0.856757
0.050910 -0.120279 0.859165
0.052532 -0.120668 0.861948
0.054202 -0.121145 0.865351
0.055912 -0.121681 0.869182
0.057617 -0.122182 0.872756
0.059226 -0.122458 0.874730
0.060794 -0.122637 0.876008
0.062285 -0.122658 0.876159
0.063707 -0.122543 0.875340
0.065118 -0.122413 0.874410
0.066542 -0.122313 0.873698
0.068018 -0.122312 0.873689
0.069557 -0.122421 0.874468
0.071115 -0.122559 0.875455
0.072719 -0.122769 0.876950
0.074422 -0.123133 0.879555
0.076124 -0.123481 0.882039
0.077821 -0.123809 0.884383
0.079545 -0.124167 0.886936
0.081262 -0.124500 0.889319
0.082866 -0.124651 0.890393
0.084453 -0.124772 0.891260
0.086019 -0.124858 0.891874
0.087540 -0.124876 0.892006
0.088995 -0.124802 0.891476
0.090461 -0.124745 0.891071
0.091962 -0.124739 0.891023
0.093442 -0.124704 0.890775
0.095017 -0.124794 0.891420
0.096617 -0.124914 0.892276
0.098242 -0.125062 0.893335
0.099878 -0.125221 0.894466
0.101593 -0.125472 0.896258
0.103243 -0.125636 0.897430
0.104947 -0.125860 0.899029
0.106633 -0.126056 0.900432
0.108332 -0.126262 0.901904
0.110008 -0.126435 0.903140
0.111710 -0.126635 0.904566
0.113376 -0.126787 0.905652
0.115083 -0.126982 0.907043
0.116785 -0.127165 0.908352
0.118473 -0.127329 0.909522
0.120200 -0.127529 0.910956
0.121980 -0.127781 0.912752
0.123854 -0.128124 0.915201
0.126039 -0.128775 0.919856
0.128438 -0.129627 0.925941
0.131003 -0.130623 0.933056
0.133520 -0.131549 0.939671
0.135888 -0.132309 0.945095
0.137872 -0.132680 0.947750
0.139665 -0.132861 0.949043
0.141282 -0.132873 0.949130
0.142885 -0.132872 0.949119
0.144474 -0.132858 0.949019
0.146065 -0.132845 0.948927
0.147637 -0.132817 0.948725
0.149223 -0.132800 0.948609
0.150808 -0.132784 0.948494
0.152430 -0.132800 0.948608
0.154070 -0.132832 0.948830
0.155726 -0.132876 0.949150
0.157366 -0.132906 0.949359
0.159003 -0.132932 0.949551
0.160690 -0.133001 0.950038
0.162388 -0.133076 0.950574
0.007504 -0.121543 0.878837
0.008980 -0.121413 0.877899
0.010445 -0.121186 0.876253
0.011903 -0.120955 0.874583
0.013348 -0.120645 0.872347
0.014787 -0.120361 0.870288
0.016225 -0.120109 0.868468
0.017655 -0.119854 0.866621
0.019071 -0.119541 0.864359
0.020478 -0.119228 0.862098
0.021891 -0.118984 0.860332
0.023305 -0.118782 0.858870
0.024724 -0.118621 0.857709
0.026148 -0.118505 0.856872
0.027579 -0.118430 0.856329
0.029007 -0.118349 0.855738
0.030437 -0.118282 0.855255
0.031873 -0.118249 0.855016
0.033306 -0.118202 0.854682
0.034736 -0.118154 0.854329
0.036172 -0.118125 0.854119
0.037608 -0.118100 0.853944
0.039048 -0.118091 0.853874
0.040500 -0.118115 0.854047
0.041960 -0.118160 0.854378
0.043419 -0.118199 0.854655
0.044878 -0.118236 0.854927
0.046350 -0.118304 0.855420
0.047837 -0.118407 0.856164
0.049350 -0.118563 0.857288
0.050892 -0.118781 0.858868
0.052462 -0.119048 0.860797
0.054073 -0.119393 0.863289
0.055715 -0.119785 0.866122
0.057354 -0.120150 0.868766
0.058966 -0.120444 0.870893
0.060552 -0.120670 0.872526
0.062068 -0.120750 0.873106
0.063537 -0.120737 0.873006
0.064993 -0.120699 0.872736
0.066468 -0.120698 0.872726
0.068008 -0.120814 0.873568
0.069618 -0.121046 0.875242
0.071234 -0.121277 0.876917
0.072898 -0.121579 0.879100
0.074615 -0.121958 0.881837
0.076287 -0.122249 0.883938
0.077931 -0.122484 0.885638
0.079597 -0.122743 0.887514
0.081257 -0.122984 0.889258
0.082850 -0.123118 0.890224
0.084437 -0.123238 0.891094
0.086005 -0.123326 0.891732
0.087545 -0.123372 0.892062
0.089017 -0.123322 0.891701
0.090485 -0.123269 0.891314
0.091976 -0.123247 0.891158
0.093453 -0.123208 0.890877
0.094997 -0.123258 0.891234
0.096567 -0.123338 0.891818
0.098169 -0.123457 0.892678
0.099803 -0.123611 0.893792
0.101510 -0.123850 0.895519
0.103180 -0.124038 0.896878
0.104905 -0.124286 0.898668
0.106612 -0.124505 0.900254
0.108312 -0.124710 0.901737
0.109985 -0.124879 0.902957
0.111686 -0.125074 0.904367
0.113348 -0.125222 0.905435
0.115058 -0.125416 0.906844
0.116761 -0.125599 0.908163
0.118460 -0.125774 0.909426
0.120178 -0.125962 0.910790
0.121946 -0.126199 0.912500
0.123713 -0.126428 0.914155
0.125766 -0.126940 0.917861
0.128007 -0.127627 0.922829
0.132997 -0.129448 0.935992
0.135542 -0.130374 0.942689
0.137733 -0.130941 0.946789
0.139723 -0.131307 0.949440
0.141515 -0.131481 0.950696
0.143106 -0.131466 0.950589
0.144682 -0.131438 0.950386
0.146258 -0.131410 0.950183
0.147816 -0.131367 0.949873
0.149387 -0.131337 0.949653
0.150959 -0.131308 0.949444
0.152548 -0.131294 0.949343
0.154154 -0.131295 0.949350
0.155776 -0.131309 0.949452
0.157382 -0.131310 0.949458
0.159003 -0.131323 0.949551
0.160690 -0.131390 0.950038
0.162388 -0.131464 0.950574
0.165415 -0.134228 0.958805
0.164127 -0.131570 0.951340
0.008977 -0.119882 0.877584
0.010439 -0.119638 0.875794
0.011895 -0.119383 0.873932
0.013337 -0.119070 0.871641
0.014779 -0.118817 0.869789
0.016222 -0.118614 0.868303
0.017657 -0.118396 0.866707
0.019075 -0.118101 0.864545
0.020484 -0.117803 0.862361
0.021899 -0.117572 0.860671
0.023315 -0.117372 0.859208
0.024734 -0.117215 0.858058
0.026161 -0.117110 0.857293
0.027593 -0.117035 0.856743
0.029023 -0.116964 0.856219
0.030456 -0.116908 0.855814
0.031895 -0.116877 0.855582
0.033328 -0.116832 0.855256
0.034760 -0.116784 0.854906
0.036193 -0.116746 0.854626
0.037627 -0.116713 0.854386
0.039069 -0.116705 0.854329
0.040522 -0.116729 0.854504
0.041979 -0.116763 0.854752
0.043432 -0.116787 0.854927
0.044891 -0.116821 0.855175
0.046363 -0.116888 0.855663
0.047860 -0.117012 0.856571
0.049383 -0.117189 0.857869
0.050927 -0.117405 0.859454
0.052496 -0.117666 0.861362
0.054091 -0.117969 0.863579
0.055680 -0.118243 0.865582
0.057266 -0.118496 0.867437
0.058839 -0.118711 0.869008
0.060397 -0.118886 0.870291
0.061912 -0.118969 0.870902
0.063409 -0.119017 0.871250
0.064907 -0.119063 0.871587
0.066463 -0.119210 0.872662
0.068069 -0.119440 0.874345
0.069743 -0.119776 0.876810
0.071425 -0.120112 0.879269
0.073142 -0.120491 0.882042
0.074823 -0.120798 0.884291
0.076452 -0.121011 0.885845
0.078052 -0.121170 0.887011
0.079667 -0.121346 0.888298
0.081271 -0.121498 0.889415
0.082854 -0.121614 0.890264
0.084433 -0.121721 0.891046
0.086001 -0.121809 0.891689
0.087552 -0.121870 0.892137
0.089044 -0.121848 0.891974
0.090516 -0.121800 0.891620
0.091999 -0.121767 0.891383
0.093466 -0.121715 0.891002
0.094980 -0.121724 0.891071
0.096518 -0.121765 0.891365
0.098106 -0.121866 0.892104
0.099727 -0.122004 0.893114
0.101422 -0.122227 0.894749
0.103103 -0.122426 0.896208
0.104840 -0.122686 0.898108
0.106558 -0.122917 0.899800
0.108269 -0.123132 0.901376
0.109941 -0.123299 0.902594
0.111650 -0.123501 0.904078
0.113312 -0.123647 0.905145
0.115022 -0.123841 0.906562
0.116726 -0.124023 0.907894
0.118437 -0.124207 0.909243
0.120165 -0.124405 0.910696
0.121947 -0.124653 0.912507
0.123704 -0.124869 0.914091
0.125637 -0.125256 0.916921
0.127712 -0.125773 0.920704
0.130423 -0.128470 0.928925
0.129935 -0.126421 0.925453
0.135141 -0.128395 0.939900
0.137546 -0.129161 0.945506
0.139757 -0.129729 0.949667
0.141752 -0.130086 0.952283
0.143331 -0.130059 0.952079
0.144907 -0.130029 0.951861
0.146468 -0.129986 0.951546
0.148012 -0.129929 0.951129
0.149567 -0.129883 0.950794
0.151138 -0.129852 0.950568
0.152696 -0.129811 0.950265
0.154285 -0.129796 0.950156
0.155888 -0.129793 0.950137
0.157478 -0.129780 0.950038
0.159084 -0.129780 0.950038
0.160757 -0.129834 0.950432
0.162454 -0.129906 0.950962
0.164177 -0.129997 0.951629
0.008974 -0.118350 0.877258
0.013325 -0.117486 0.870853
0.014773 -0.117292 0.869412
0.016220 -0.117133 0.868232
0.017658 -0.116933 0.866749
0.019079 -0.116663 0.864747
0.020493 -0.116388 0.862713
0.021908 -0.116161 0.861027
0.023325 -0.115966 0.859581
0.024747 -0.115821 0.858511
0.026175 -0.115718 0.857743
0.027607 -0.115644 0.857196
0.029038 -0.115572 0.856661
0.030472 -0.115517 0.856253
0.031913 -0.115494 0.856088
0.033348 -0.115451 0.855767
0.034781 -0.115404 0.855421
0.036215 -0.115368 0.855151
0.037650 -0.115335 0.854908
0.039089 -0.115317 0.854771
0.040542 -0.115339 0.854935
0.041999 -0.115371 0.855172
0.043453 -0.115393 0.855336
0.044916 -0.115436 0.855658
0.046393 -0.115513 0.856225
0.047897 -0.115648 0.857226
0.049417 -0.115814 0.858456
0.050956 -0.116015 0.859945
0.052510 -0.116236 0.861587
0.054083 -0.116487 0.863447
0.055650 -0.116711 0.865108
0.057217 -0.116926 0.866699
0.058772 -0.117105 0.868025
0.060317 -0.117255 0.869134
0.061835 -0.117348 0.869825
0.063339 -0.117409 0.870278
0.064855 -0.117491 0.870887
0.066470 -0.117744 0.872759
0.068142 -0.118084 0.875285
0.069875 -0.118513 0.878466
0.071614 -0.118936 0.881598
0.073370 -0.119367 0.884793
0.075016 -0.119607 0.886571
0.076605 -0.119748 0.887615
0.078165 -0.119839 0.888291
0.079733 -0.119939 0.889035
0.081286 -0.120013 0.889583
0.082859 -0.120113 0.890320
0.084435 -0.120214 0.891069
0.085996 -0.120290 0.891631
0.087564 -0.120374 0.892254
0.089084 -0.120389 0.892371
0.090569 -0.120358 0.892140
0.092047 -0.120319 0.891849
0.093513 -0.120264 0.891445
0.094989 -0.120226 0.891157
0.096487 -0.120216 0.891083
0.098044 -0.120277 0.891536
0.099642 -0.120387 0.892353
0.101327 -0.120596 0.893904
0.103016 -0.120805 0.895450
0.104761 -0.121073 0.897436
0.106501 -0.121326 0.899315
0.108222 -0.121552 0.900988
0.109885 -0.121706 0.902132
0.111602 -0.121916 0.903688
0.113276 -0.122073 0.904854
0.114987 -0.122267 0.906289
0.116703 -0.122460 0.907717
0.118435 -0.122664 0.909228
0.120162 -0.122858 0.910669
0.121956 -0.123115 0.912578
0.123715 -0.123330 0.914172
0.125526 -0.123592 0.916112
0.127441 -0.123949 0.918753
0.129473 -0.124408 0.922162
0.137119 -0.127162 0.942574
0.139558 -0.127937 0.948315
0.141773 -0.128492 0.952429
0.143540 -0.128632 0.953469
0.145103 -0.128588 0.953145
0.146646 -0.128529 0.952706
0.148191 -0.128472 0.952280
0.149735 -0.128415 0.951862
0.151292 -0.128371 0.951537
0.152833 -0.128315 0.951118
0.154404 -0.128284 0.950886
0.155977 -0.128255 0.950677
0.157582 -0.128254 0.950667
0.159191 -0.128255 0.950674
0.160848 -0.128295 0.950972
0.162528 -0.128352 0.951396
0.164247 -0.128439 0.952036
0.167234 -0.131133 0.959945
0.165988 -0.128541 0.952791
0.014800 -0.116031 0.871008
0.016248 -0.115856 0.869697
0.017657 -0.115459 0.866718
0.019085 -0.115233 0.865017
0.020505 -0.114995 0.863233
0.021925 -0.114791 0.861701
0.023343 -0.114600 0.860269
0.024769 -0.114468 0.859273
0.026198 -0.114366 0.858512
0.027630 -0.114283 0.857887
0.029062 -0.114213 0.857362
0.030500 -0.114169 0.857029
0.031940 -0.114137 0.856791
0.033372 -0.114083 0.856389
0.034805 -0.114034 0.856021
0.036237 -0.113986 0.855659
0.037669 -0.113942 0.855328
0.039108 -0.113922 0.855180
0.040558 -0.113933 0.855261
0.042011 -0.113954 0.855417
0.043466 -0.113976 0.855582
0.044930 -0.114021 0.855923
0.046409 -0.114100 0.856514
0.047919 -0.114247 0.857615
0.049443 -0.114419 0.858908
0.050978 -0.114606 0.860316
0.052526 -0.114810 0.861843
0.054083 -0.115023 0.863444
0.055638 -0.115220 0.864920
0.057188 -0.115399 0.866262
0.058731 -0.115553 0.867419
0.060263 -0.115679 0.868368
0.061780 -0.115771 0.869054
0.063283 -0.115831 0.869510
0.064811 -0.115935 0.870292
0.066442 -0.116216 0.872398
0.068170 -0.116649 0.875649
0.069964 -0.117174 0.879591
0.071751 -0.117665 0.883277
0.073500 -0.118077 0.886369
0.075140 -0.118299 0.888033
0.076682 -0.118363 0.888513
0.078200 -0.118386 0.888691
0.079728 -0.118425 0.888977
0.081282 -0.118499 0.889535
0.082846 -0.118585 0.890182
0.084419 -0.118681 0.890902
0.085979 -0.118755 0.891455
0.087547 -0.118838 0.892084
0.089086 -0.118879 0.892391
0.090580 -0.118860 0.892242
0.092058 -0.118821 0.891954
0.093523 -0.118766 0.891543
0.094989 -0.118715 0.891157
0.096468 -0.118680 0.890897
0.098012 -0.118727 0.891248
0.099590 -0.118812 0.891882
0.101262 -0.119005 0.893335
0.102948 -0.119209 0.894865
0.104684 -0.119463 0.896772
0.106422 -0.119713 0.898648
0.108142 -0.119936 0.900321
0.109805 -0.120089 0.901474
0.111522 -0.120298 0.903042
0.113217 -0.120477 0.904385
0.114941 -0.120682 0.905922
0.116668 -0.120885 0.907444
0.118410 -0.121098 0.909042
0.120148 -0.121300 0.910563
0.121943 -0.121555 0.912476
0.123702 -0.121768 0.914073
0.125512 -0.122025 0.916008
0.127288 -0.122244 0.917646
0.129143 -0.122532 0.919813
0.131861 -0.125195 0.927995
0.131339 -0.123133 0.924322
0.136680 -0.125162 0.939554
0.139338 -0.126130 0.946821
0.141789 -0.126892 0.952536
0.143774 -0.127223 0.955022
0.145337 -0.127178 0.954685
0.146883 -0.127119 0.954245
0.148432 -0.127064 0.953833
0.149964 -0.126996 0.953317
0.151508 -0.126939 0.952892
0.153034 -0.126869 0.952365
0.154591 -0.126825 0.952037
0.156150 -0.126785 0.951733
0.157759 -0.126785 0.951734
0.159370 -0.126786 0.951745
0.161013 -0.126812 0.951943
0.162674 -0.126853 0.952250
0.164358 -0.126910 0.952675
0.166080 -0.126995 0.953315
0.167695 -0.128614 0.953334
0.167787 -0.127068 0.953860
0.170671 -0.129650 0.961017
0.169458 -0.127111 0.954187
0.017757 -0.114635 0.871625
0.019161 -0.114219 0.868458
0.020557 -0.113821 0.865435
0.021947 -0.113445 0.862572
0.023375 -0.113298 0.861457
0.024807 -0.113186 0.860607
0.026239 -0.113085 0.859834
0.027670 -0.112993 0.859134
0.029104 -0.112925 0.858616
0.030544 -0.112881 0.858288
0.031984 -0.112841 0.857979
0.033421 -0.112796 0.857637
0.034859 -0.112757 0.857342
0.036289 -0.112697 0.856885
0.037719 -0.112641 0.856462
0.039159 -0.112619 0.856289
0.040603 -0.112608 0.856207
0.042050 -0.112609 0.856214
0.043507 -0.112632 0.856390
0.044978 -0.112690 0.856829
0.046459 -0.112770 0.857442
0.047971 -0.112917 0.858557
0.049493 -0.113077 0.859774
0.051024 -0.113249 0.861085
0.052558 -0.113419 0.862375
0.054106 -0.113608 0.863812
0.055650 -0.113779 0.865110
0.057190 -0.113932 0.866278
0.058721 -0.114062 0.867264
0.060246 -0.114173 0.868112
0.061755 -0.114251 0.868703
0.063256 -0.114309 0.869146
0.064791 -0.114424 0.870019
0.066434 -0.114722 0.872286
0.068201 -0.115216 0.876036
0.069997 -0.115737 0.879998
0.071786 -0.116225 0.883710
0.073535 -0.116629 0.886786
0.075167 -0.116835 0.888351
0.076682 -0.116857 0.888513
0.078215 -0.116903 0.888866
0.079753 -0.116954 0.889252
0.081301 -0.117018 0.889740
0.082864 -0.117102 0.890376
0.084429 -0.117185 0.891010
0.085982 -0.117248 0.891489
0.087543 -0.117321 0.892042
0.089097 -0.117381 0.892502
0.090599 -0.117372 0.892430
0.092077 -0.117333 0.892139
0.093542 -0.117278 0.891721
0.094998 -0.117216 0.891245
0.096458 -0.117159 0.890810
0.097992 -0.117192 0.891067
0.099568 -0.117275 0.891692
0.101231 -0.117454 0.893059
0.102916 -0.117656 0.894588
0.104649 -0.117903 0.896473
0.106375 -0.118137 0.898249
0.108073 -0.118334 0.899750
0.109733 -0.118484 0.900889
0.111449 -0.118690 0.902453
0.113155 -0.118878 0.903886
0.114881 -0.119085 0.905453
0.116621 -0.119298 0.907075
0.118363 -0.119509 0.908681
0.120111 -0.119720 0.910286
0.121895 -0.119961 0.912120
0.123653 -0.120171 0.913718
0.125463 -0.120425 0.915648
0.127236 -0.120639 0.917271
0.128939 -0.120781 0.918355
0.130947 -0.121203 0.921565
0.138838 -0.124079 0.943425
0.141509 -0.125029 0.950654
0.143732 -0.125567 0.954744
0.145499 -0.125700 0.955750
0.147065 -0.125657 0.955423
0.148632 -0.125616 0.955114
0.150168 -0.125551 0.954618
0.151713 -0.125494 0.954185
0.153237 -0.125421 0.953631
0.154779 -0.125364 0.953199
0.156326 -0.125312 0.952802
0.157938 -0.125313 0.952813
0.159551 -0.125315 0.952826
0.161180 -0.125329 0.952934
0.162823 -0.125353 0.953119
0.164486 -0.125393 0.953422
0.166188 -0.125461 0.953940
0.167882 -0.125522 0.954402
0.169573 -0.125579 0.954836
0.020703 -0.113152 0.871577
0.022065 -0.112580 0.867172
0.023462 -0.112253 0.864652
0.024857 -0.111952 0.862336
0.026293 -0.111859 0.861621
0.027730 -0.111779 0.861000
0.029168 -0.111712 0.860487
0.030608 -0.111659 0.860075
0.032047 -0.111607 0.859679
0.033481 -0.111541 0.859173
0.034918 -0.111492 0.858793
0.036347 -0.111424 0.858267
0.037780 -0.111369 0.857844
0.039222 -0.111345 0.857663
0.040663 -0.111323 0.857490
0.042109 -0.111312 0.857407
0.043567 -0.111334 0.857578
0.045040 -0.111390 0.858008
0.046524 -0.111471 0.858634
0.048037 -0.111615 0.859739
0.049556 -0.111763 0.860881
0.051084 -0.111923 0.862110
0.052616 -0.112081 0.863328
0.054156 -0.112247 0.864605
0.055691 -0.112394 0.865742
0.057219 -0.112521 0.866720
0.058738 -0.112625 0.867519
0.060246 -0.112702 0.868111
0.061748 -0.112766 0.868602
0.063248 -0.112822 0.869034
0.064805 -0.112975 0.870218
0.066472 -0.113309 0.872788
0.068253 -0.113818 0.876706
0.070046 -0.114325 0.880615
0.071839 -0.114812 0.884362
0.073564 -0.115171 0.887132
0.075173 -0.115340 0.888432
0.076690 -0.115362 0.888601
0.078231 -0.115419 0.889044
0.079777 -0.115481 0.889522
0.081326 -0.115545 0.890014
0.082897 -0.115638 0.890727
0.084462 -0.115720 0.891358
0.086016 -0.115782 0.891838
0.087571 -0.115845 0.892325
0.089124 -0.115904 0.892775
0.090617 -0.115883 0.892612
0.092078 -0.115822 0.892149
0.093525 -0.115747 0.891564
0.094972 -0.115673 0.890996
0.096430 -0.115615 0.890551
0.097955 -0.115638 0.890729
0.099541 -0.115731 0.891447
0.101214 -0.115921 0.892911
0.102899 -0.116119 0.894434
0.104620 -0.116352 0.896228
0.106352 -0.116590 0.898060
0.108037 -0.116770 0.899447
0.109685 -0.116905 0.900490
0.111398 -0.117107 0.902040
0.113114 -0.117304 0.903561
0.114830 -0.117497 0.905050
0.116582 -0.117722 0.906778
0.118325 -0.117931 0.908390
0.120084 -0.118151 0.910083
0.121856 -0.118377 0.911829
0.123626 -0.118596 0.913514
0.125423 -0.118836 0.915362
0.127197 -0.119047 0.916989
0.128887 -0.119177 0.917986
0.130714 -0.119429 0.919927
0.133421 -0.122041 0.927933
0.132971 -0.120062 0.924803
0.141134 -0.123091 0.948136
0.143611 -0.123845 0.953942
0.145616 -0.124180 0.956521
0.147202 -0.124153 0.956313
0.148787 -0.124127 0.956116
0.150341 -0.124075 0.955715
0.151901 -0.124030 0.955367
0.153442 -0.123970 0.954907
0.155001 -0.123926 0.954566
0.156550 -0.123874 0.954168
0.158178 -0.123886 0.954261
0.159777 -0.123875 0.954175
0.161390 -0.123875 0.954177
0.163003 -0.123875 0.954175
0.164648 -0.123899 0.954360
0.166300 -0.123928 0.954582
0.167974 -0.123972 0.954921
0.170959 -0.124974 0.962639
0.013722 -0.116429 0.896822
0.012332 -0.116092 0.906057
0.013810 -0.115645 0.902567
0.015285 -0.115261 0.899571
0.022188 -0.111732 0.872025
0.023554 -0.111221 0.868043
0.024918 -0.110762 0.864460
0.026360 -0.110681 0.863826
0.027803 -0.110612 0.863283
0.029243 -0.110537 0.862702
0.030684 -0.110473 0.862203
0.032122 -0.110406 0.861677
0.033551 -0.110317 0.860988
0.034986 -0.110250 0.860461
0.036420 -0.110187 0.859970
0.037859 -0.110145 0.859638
0.039304 -0.110121 0.859453
0.040744 -0.110087 0.859190
0.042191 -0.110073 0.859084
0.043651 -0.110093 0.859239
0.045122 -0.110137 0.859580
0.046604 -0.110205 0.860111
0.048115 -0.110336 0.861129
0.049626 -0.110459 0.862095
0.051146 -0.110595 0.863156
0.052675 -0.110740 0.864286
0.054206 -0.110884 0.865413
0.055731 -0.111008 0.866377
0.057249 -0.111110 0.867176
0.058756 -0.111188 0.867782
0.060246 -0.111231 0.868120
0.061742 -0.111282 0.868519
0.063247 -0.111347 0.869026
0.064831 -0.111544 0.870559
0.066489 -0.111858 0.873008
0.068276 -0.112370 0.877008
0.070068 -0.112868 0.880892
0.071852 -0.113333 0.884524
0.073550 -0.113646 0.886966
0.075173 -0.113834 0.888432
0.076698 -0.113867 0.888691
0.078240 -0.113925 0.889146
0.079787 -0.113988 0.889638
0.081335 -0.114050 0.890116
0.082905 -0.114140 0.890819
0.084463 -0.114210 0.891364
0.086009 -0.114262 0.891770
0.087555 -0.114312 0.892161
0.089091 -0.114347 0.892437
0.090573 -0.114314 0.892180
0.092025 -0.114244 0.891629
0.093471 -0.114169 0.891047
0.094915 -0.114094 0.890465
0.096381 -0.114047 0.890095
0.097905 -0.114070 0.890274
0.099502 -0.114175 0.891094
0.101186 -0.114376 0.892660
0.102882 -0.114585 0.894291
0.104613 -0.114825 0.896164
0.106354 -0.115069 0.898074
0.108028 -0.115235 0.899371
0.109663 -0.115356 0.900312
0.111364 -0.115541 0.901757
0.113077 -0.115735 0.903269
0.114782 -0.115915 0.904671
0.116545 -0.116147 0.906488
0.118286 -0.116352 0.908085
0.120056 -0.116581 0.909870
0.121815 -0.116792 0.911519
0.123597 -0.117020 0.913299
0.125381 -0.117245 0.915052
0.127167 -0.117466 0.916778
0.128858 -0.117595 0.917783
0.130521 -0.117695 0.918565
0.132574 -0.118141 0.922046
0.138405 -0.122097 0.940483
0.138074 -0.120215 0.938231
0.140909 -0.121290 0.946623
0.143663 -0.122271 0.954284
0.145712 -0.122638 0.957146
0.147314 -0.122625 0.957045
0.148917 -0.122613 0.956951
0.150488 -0.122575 0.956654
0.152053 -0.122533 0.956324
0.153613 -0.122487 0.955970
0.155176 -0.122445 0.955641
0.156711 -0.122382 0.955149
0.158322 -0.122380 0.955130
0.159903 -0.122354 0.954927
0.161516 -0.122353 0.954918
0.163098 -0.122329 0.954733
0.164727 -0.122340 0.954817
0.166359 -0.122353 0.954919
0.169331 -0.123341 0.962635
0.010826 -0.116374 0.908254
0.010817 -0.114738 0.907495
0.012354 -0.114763 0.907694
0.013866 -0.114576 0.906214
0.015379 -0.114432 0.905074
0.022313 -0.110872 0.876919
0.023649 -0.110192 0.871538
0.024983 -0.109578 0.866683
0.026433 -0.109519 0.866215
0.027884 -0.109464 0.865782
0.029328 -0.109391 0.865207
0.030769 -0.109315 0.864605
0.032204 -0.109223 0.863873
0.033632 -0.109120 0.863056
0.035066 -0.109042 0.862446
0.036501 -0.108973 0.861894
0.037948 -0.108943 0.861662
0.039396 -0.108920 0.861481
0.040836 -0.108876 0.861131
0.042279 -0.108842 0.860865
0.043737 -0.108849 0.860917
0.045202 -0.108872 0.861098
0.046681 -0.108927 0.861536
0.048189 -0.109044 0.862461
0.049702 -0.109165 0.863412
0.051219 -0.109286 0.864373
0.052743 -0.109418 0.865414
0.054266 -0.109538 0.866363
0.055781 -0.109638 0.867155
0.057288 -0.109716 0.867774
0.058795 -0.109790 0.868362
0.060286 -0.109833 0.868696
0.061790 -0.109894 0.869185
0.063297 -0.109961 0.869710
0.064897 -0.110180 0.871444
0.066543 -0.110468 0.873722
0.068317 -0.110950 0.877536
0.070089 -0.111408 0.881154
0.071859 -0.111844 0.884607
0.073532 -0.112116 0.886756
0.075159 -0.112307 0.888264
0.076698 -0.112361 0.888697
0.078249 -0.112430 0.889243
0.079797 -0.112493 0.889740
0.081344 -0.112553 0.890213
0.082906 -0.112630 0.890825
0.084446 -0.112676 0.891188
0.085982 -0.112715 0.891495
0.087510 -0.112742 0.891704
0.089027 -0.112753 0.891795
0.090506 -0.112718 0.891518
0.091947 -0.112637 0.890879
0.093383 -0.112552 0.890208
0.094825 -0.112478 0.889622
0.096290 -0.112432 0.889254
0.097813 -0.112455 0.889435
0.099429 -0.112582 0.890440
0.101132 -0.112803 0.892189
0.102861 -0.113045 0.894103
0.104623 -0.113317 0.896253
0.106378 -0.113572 0.898274
0.108053 -0.113737 0.899580
0.109688 -0.113856 0.900520
0.111366 -0.114015 0.901778
0.113067 -0.114193 0.903187
0.114759 -0.114358 0.904486
0.116521 -0.114586 0.906296
0.118249 -0.114777 0.907803
0.120030 -0.115013 0.909667
0.121788 -0.115221 0.911314
0.123582 -0.115458 0.913187
0.125365 -0.115679 0.914939
0.127164 -0.115908 0.916752
0.128853 -0.116034 0.917749
0.130519 -0.116136 0.918550
0.132355 -0.116385 0.920523
0.135279 -0.119150 0.929920
0.134833 -0.117186 0.926859
0.143251 -0.120308 0.951550
0.145551 -0.120882 0.956092
0.147376 -0.121053 0.957444
0.149009 -0.121065 0.957538
0.150598 -0.121042 0.957351
0.152183 -0.121015 0.957141
0.153765 -0.120987 0.956917
0.155347 -0.120959 0.956697
0.156884 -0.120897 0.956204
0.158480 -0.120881 0.956079
0.160056 -0.120851 0.955842
0.161671 -0.120850 0.955833
0.163237 -0.120813 0.955544
0.164836 -0.120801 0.955451
0.167753 -0.121746 0.962922
0.009273 -0.113077 0.906511
0.010808 -0.113098 0.906680
0.012343 -0.113124 0.906890
0.013879 -0.113144 0.907045
0.015422 -0.113214 0.907613
0.016853 -0.114054 0.902085
0.016937 -0.113086 0.906580
0.018306 -0.113607 0.898551
0.018441 -0.112909 0.905164
0.022423 -0.109929 0.881274
0.023730 -0.109086 0.874519
0.025031 -0.108319 0.868368
0.026488 -0.108273 0.867996
0.027944 -0.108231 0.867658
0.029392 -0.108161 0.867101
0.030836 -0.108085 0.866493
0.032276 -0.108000 0.865808
0.033710 -0.107904 0.865043
0.035147 -0.107827 0.864422
0.036588 -0.107766 0.863938
0.038041 -0.107746 0.863775
0.039490 -0.107714 0.863520
0.040929 -0.107661 0.863092
0.042371 -0.107617 0.862741
0.043828 -0.107613 0.862708
0.045291 -0.107626 0.862808
0.046770 -0.107671 0.863170
0.048276 -0.107776 0.864013
0.049782 -0.107874 0.864797
0.051291 -0.107973 0.865593
0.052802 -0.108071 0.866378
0.054320 -0.108176 0.867221
0.055826 -0.108254 0.867844
0.057328 -0.108320 0.868374
0.058831 -0.108384 0.868891
0.060323 -0.108427 0.869232
0.061841 -0.108510 0.869903
0.063357 -0.108589 0.870534
0.064978 -0.108839 0.872533
0.066653 -0.109167 0.875165
0.068417 -0.109622 0.878816
0.070156 -0.110020 0.882003
0.071901 -0.110410 0.885131
0.073544 -0.110630 0.886894
0.075136 -0.110767 0.887991
0.076690 -0.110843 0.888605
0.078249 -0.110924 0.889249
0.079805 -0.110996 0.889830
0.081352 -0.111055 0.890301
0.082912 -0.111129 0.890897
0.084436 -0.111152 0.891083
0.085961 -0.111177 0.891276
0.087470 -0.111179 0.891292
0.088966 -0.111166 0.891187
0.090425 -0.111108 0.890725
0.091855 -0.111015 0.889984
0.093281 -0.110923 0.889240
0.094715 -0.110842 0.888591
0.096169 -0.110786 0.888142
0.097690 -0.110807 0.888314
0.099303 -0.110932 0.889313
0.101036 -0.111184 0.891338
0.102815 -0.111480 0.893707
0.104643 -0.111819 0.896424
0.106435 -0.112110 0.898757
0.108143 -0.112306 0.900330
0.109768 -0.112411 0.901176
