1714
0.046912 -0.120567 0.893685
0.048362 -0.120415 0.892565
0.049819 -0.120289 0.891630
0.051294 -0.120215 0.891076
0.052750 -0.120098 0.890213
0.054237 -0.120058 0.889917
0.055728 -0.120029 0.889700
0.057221 -0.120008 0.889541
0.058704 -0.119965 0.889226
0.060201 -0.119951 0.889125
0.061682 -0.119909 0.888813
0.063158 -0.119859 0.888438
0.064629 -0.119802 0.888014
0.066112 -0.119768 0.887768
0.067581 -0.119712 0.887349
0.069061 -0.119677 0.887091
0.070495 -0.119565 0.886263
0.071902 -0.119413 0.885134
0.073256 -0.119181 0.883416
0.074579 -0.118911 0.881414
0.075858 -0.118580 0.878962
0.077135 -0.118261 0.876592
0.078438 -0.117990 0.874589
0.079769 -0.117774 0.872982
0.081100 -0.117564 0.871426
0.082450 -0.117388 0.870124
0.083826 -0.117255 0.869138
0.085169 -0.117082 0.867854
0.086531 -0.116940 0.866801
0.087907 -0.116821 0.865918
0.089256 -0.116671 0.864807
0.090626 -0.116552 0.863926
0.092027 -0.116476 0.863365
0.093430 -0.116407 0.862850
0.094872 -0.116385 0.862691
0.096341 -0.116398 0.862787
0.097821 -0.116424 0.862979
0.099319 -0.116470 0.863319
0.100819 -0.116517 0.863665
0.102301 -0.116542 0.863850
0.103781 -0.116564 0.864015
0.105259 -0.116583 0.864159
0.106711 -0.116573 0.864083
0.108203 -0.116607 0.864336
0.109730 -0.116677 0.864850
0.111295 -0.116784 0.865650
0.112897 -0.116928 0.866713
0.114547 -0.117117 0.868113
0.116138 -0.117241 0.869037
0.117735 -0.117370 0.869987
0.119320 -0.117482 0.870821
0.121216 -0.117894 0.873875
0.123073 -0.118258 0.876576
0.124914 -0.118600 0.879107
0.022036 -0.123581 0.927681
0.023575 -0.123426 0.926519
0.025105 -0.123247 0.925180
0.026614 -0.122993 0.923269
0.028094 -0.122642 0.920637
0.029569 -0.122305 0.918109
0.031029 -0.121942 0.915381
0.032472 -0.121553 0.912462
0.033899 -0.121139 0.909353
0.035319 -0.120739 0.906352
0.036743 -0.120382 0.903669
0.038178 -0.120091 0.901485
0.039628 -0.119869 0.899816
0.041090 -0.119695 0.898515
0.042556 -0.119547 0.897404
0.044014 -0.119385 0.896190
0.045471 -0.119235 0.895059
0.046912 -0.119051 0.893678
0.048362 -0.118902 0.892565
0.049819 -0.118778 0.891630
0.051294 -0.118704 0.891076
0.052750 -0.118589 0.890213
0.054242 -0.118561 0.889999
0.055739 -0.118544 0.889875
0.057239 -0.118536 0.889815
0.058735 -0.118519 0.889689
0.060251 -0.118542 0.889861
0.061748 -0.118528 0.889757
0.063239 -0.118504 0.889573
0.064731 -0.118482 0.889405
0.066234 -0.118482 0.889405
0.067732 -0.118471 0.889324
0.069247 -0.118492 0.889480
0.070727 -0.118452 0.889180
0.072169 -0.118352 0.888432
0.073554 -0.118164 0.887021
0.074882 -0.117893 0.884987
0.076170 -0.117572 0.882581
0.077441 -0.117237 0.880066
0.078746 -0.116965 0.878022
0.080100 -0.116775 0.876595
0.081472 -0.116618 0.875419
0.082851 -0.116476 0.874350
0.084173 -0.116260 0.872732
0.085459 -0.116004 0.870805
0.086736 -0.115743 0.868846
0.088025 -0.115508 0.867083
0.089294 -0.115253 0.865171
0.090672 -0.115146 0.864366
0.092075 -0.115073 0.863820
0.093480 -0.115006 0.863313
0.094932 -0.114996 0.863236
0.096410 -0.115019 0.863410
0.097899 -0.115053 0.863668
0.099398 -0.115098 0.864007
0.100898 -0.115143 0.864343
0.102371 -0.115156 0.864439
0.103841 -0.115166 0.864516
0.105311 -0.115175 0.864585
0.106763 -0.115164 0.864502
0.108255 -0.115197 0.864752
0.109783 -0.115266 0.865270
0.111359 -0.115383 0.866148
0.112973 -0.115537 0.867298
0.114647 -0.115746 0.868873
0.116275 -0.115905 0.870063
0.117913 -0.116070 0.871300
0.119530 -0.116209 0.872348
0.121786 -0.116960 0.877981
0.124045 -0.117695 0.883501
0.126295 -0.118404 0.888823
0.127062 -0.119221 0.883708
0.021997 -0.121794 0.926052
0.023535 -0.121652 0.924976
0.025064 -0.121481 0.923675
0.026573 -0.121243 0.921868
0.028067 -0.120964 0.919743
0.029553 -0.120685 0.917623
0.031022 -0.120366 0.915195
0.032472 -0.120005 0.912451
0.033905 -0.119621 0.909529
0.035330 -0.119240 0.906632
0.036762 -0.118912 0.904145
0.038203 -0.118640 0.902075
0.039654 -0.118419 0.900396
0.041108 -0.118225 0.898920
0.042570 -0.118064 0.897691
0.044019 -0.117880 0.896294
0.045468 -0.117708 0.894987
0.046908 -0.117525 0.893597
0.048358 -0.117378 0.892474
0.049814 -0.117255 0.891543
0.051285 -0.117171 0.890907
0.052744 -0.117067 0.890116
0.054235 -0.117038 0.889894
0.055737 -0.117033 0.889854
0.057238 -0.117026 0.889802
0.058746 -0.117034 0.889861
0.060269 -0.117069 0.890129
0.061773 -0.117068 0.890123
0.063272 -0.117057 0.890036
0.064777 -0.117058 0.890042
0.066288 -0.117070 0.890132
0.067800 -0.117081 0.890219
0.069311 -0.117092 0.890301
0.070823 -0.117102 0.890382
0.072301 -0.117059 0.890051
0.073728 -0.116935 0.889111
0.075086 -0.116711 0.887406
0.076439 -0.116486 0.885694
0.077721 -0.116164 0.883246
0.079035 -0.115902 0.881253
0.080419 -0.115750 0.880096
0.081839 -0.115654 0.879366
0.083252 -0.115551 0.878586
0.084625 -0.115398 0.877426
0.085952 -0.115189 0.875833
0.087156 -0.114823 0.873054
0.088357 -0.114467 0.870346
0.089533 -0.114091 0.867486
0.090809 -0.113852 0.865667
0.092130 -0.113677 0.864335
0.093538 -0.113612 0.863839
0.094998 -0.113612 0.863842
0.096487 -0.113645 0.864096
0.097977 -0.113680 0.864357
0.099478 -0.113725 0.864699
0.100988 -0.113779 0.865115
0.102455 -0.113784 0.865148
0.103917 -0.113784 0.865148
0.105396 -0.113801 0.865278
0.106838 -0.113779 0.865115
0.108323 -0.113802 0.865290
0.109860 -0.113879 0.865876
0.111446 -0.114005 0.866830
0.113074 -0.114169 0.868077
0.114772 -0.114399 0.869823
0.116436 -0.114589 0.871270
0.118124 -0.114797 0.872856
0.119792 -0.114982 0.874260
0.122410 -0.116063 0.882482
0.125080 -0.117167 0.890871
0.020431 -0.120222 0.926037
0.021972 -0.120084 0.924974
0.023507 -0.119939 0.923860
0.025032 -0.119766 0.922523
0.026538 -0.119523 0.920650
0.028042 -0.119298 0.918919
0.029536 -0.119060 0.917087
0.031012 -0.118773 0.914878
0.032471 -0.118455 0.912426
0.033913 -0.118103 0.909718
0.035343 -0.117744 0.906950
0.036779 -0.117435 0.904571
0.038224 -0.117176 0.902577
0.039671 -0.116945 0.900798
0.041126 -0.116751 0.899304
0.042584 -0.116580 0.897982
0.044025 -0.116377 0.896419
0.045464 -0.116182 0.894915
0.046903 -0.115998 0.893500
0.048347 -0.115840 0.892284
0.049804 -0.115720 0.891364
0.051275 -0.115638 0.890729
0.052738 -0.115545 0.890014
0.054223 -0.115504 0.889693
0.055725 -0.115499 0.889661
0.057221 -0.115483 0.889536
0.058734 -0.115500 0.889666
0.060255 -0.115534 0.889927
0.061765 -0.115543 0.889999
0.063269 -0.115543 0.889999
0.064787 -0.115567 0.890183
0.066300 -0.115582 0.890294
0.067813 -0.115594 0.890391
0.069331 -0.115615 0.890550
0.070830 -0.115604 0.890469
0.072308 -0.115561 0.890132
0.073775 -0.115501 0.889675
0.075172 -0.115338 0.888417
0.076576 -0.115190 0.887278
0.077932 -0.114979 0.885650
0.079310 -0.114805 0.884315
0.080725 -0.114692 0.883445
0.082189 -0.114651 0.883122
0.083641 -0.114594 0.882688
0.085067 -0.114506 0.882008
0.086430 -0.114336 0.880696
0.087651 -0.113988 0.878016
0.088906 -0.113694 0.875757
0.090154 -0.113402 0.873507
0.091344 -0.113048 0.870774
0.092585 -0.112766 0.868606
0.093900 -0.112581 0.867183
0.095214 -0.112402 0.865800
0.096510 -0.112207 0.864302
0.098000 -0.112240 0.864553
0.099511 -0.112296 0.864984
0.101045 -0.112375 0.865598
0.102534 -0.112404 0.865817
0.104044 -0.112454 0.866200
0.105533 -0.112481 0.866407
0.106968 -0.112449 0.866164
0.108443 -0.112460 0.866253
0.109983 -0.112537 0.866843
0.111570 -0.112660 0.867791
0.113201 -0.112824 0.869050
0.114925 -0.113075 0.870983
0.116616 -0.113287 0.872615
0.118353 -0.113537 0.874548
0.120060 -0.113754 0.876218
0.123012 -0.115130 0.886819
0.127788 -0.118280 0.899334
0.126044 -0.116548 0.897738
0.018861 -0.118619 0.925777
0.020411 -0.118532 0.925098
0.021947 -0.118386 0.923959
0.023477 -0.118224 0.922698
0.024998 -0.118036 0.921232
0.026509 -0.117835 0.919656
0.028017 -0.117637 0.918114
0.029514 -0.117418 0.916402
0.030995 -0.117158 0.914377
0.032467 -0.116894 0.912312
0.033920 -0.116586 0.909909
0.035365 -0.116280 0.907524
0.036810 -0.116000 0.905342
0.038259 -0.115753 0.903410
0.039703 -0.115511 0.901524
0.041154 -0.115306 0.899920
0.042601 -0.115104 0.898348
0.044034 -0.114881 0.896607
0.045464 -0.114664 0.894909
0.046896 -0.114468 0.893384
0.048336 -0.114300 0.892070
0.049789 -0.114175 0.891092
0.051259 -0.114094 0.890464
0.052727 -0.114013 0.889827
0.054207 -0.113960 0.889420
0.055703 -0.113946 0.889309
0.057197 -0.113928 0.889167
0.058704 -0.113934 0.889211
0.060217 -0.113953 0.889361
0.061724 -0.113960 0.889418
0.063228 -0.113961 0.889421
0.064747 -0.113987 0.889626
0.066266 -0.114014 0.889837
0.067772 -0.114017 0.889858
0.069289 -0.114037 0.890015
0.070786 -0.114025 0.889925
0.072270 -0.113992 0.889668
0.073751 -0.113956 0.889388
0.075191 -0.113861 0.888643
0.076635 -0.113774 0.887966
0.078057 -0.113659 0.887069
0.079503 -0.113582 0.886464
0.080980 -0.113552 0.886230
0.082492 -0.113571 0.886380
0.083993 -0.113574 0.886405
0.085474 -0.113551 0.886227
0.086881 -0.113431 0.885292
0.088178 -0.113175 0.883291
0.089505 -0.112966 0.881657
0.090836 -0.112768 0.880113
0.092084 -0.112475 0.877823
0.093389 -0.112260 0.876145
0.094718 -0.112079 0.874739
0.095912 -0.111748 0.872151
0.097057 -0.111370 0.869201
0.098402 -0.111229 0.868104
0.099780 -0.111129 0.867325
0.101201 -0.111079 0.866935
0.102697 -0.111113 0.867194
0.104222 -0.111175 0.867682
0.105722 -0.111211 0.867959
0.107151 -0.111170 0.867643
0.108620 -0.111173 0.867664
0.110159 -0.111246 0.868232
0.111729 -0.111347 0.869025
0.113352 -0.111499 0.870212
0.115082 -0.111750 0.872168
0.116788 -0.111972 0.873900
0.118541 -0.112233 0.875940
0.120556 -0.112733 0.879838
0.135656 -0.121063 0.932513
0.133857 -0.119284 0.930968
0.136664 -0.120370 0.939444
0.138715 -0.122371 0.942589
0.138130 -0.120263 0.938612
0.017305 -0.117112 0.926268
0.018856 -0.117021 0.925555
0.020400 -0.116903 0.924617
0.021933 -0.116740 0.923332
0.023458 -0.116565 0.921944
0.024974 -0.116365 0.920364
0.026490 -0.116192 0.918991
0.027997 -0.115998 0.917460
0.029496 -0.115793 0.915837
0.030978 -0.115547 0.913897
0.032460 -0.115322 0.912115
0.033926 -0.115066 0.910092
0.035388 -0.114816 0.908110
0.036848 -0.114583 0.906272
0.038303 -0.114351 0.904434
0.039744 -0.114098 0.902436
0.041187 -0.113873 0.900650
0.042630 -0.113660 0.898968
0.044048 -0.113396 0.896879
0.045468 -0.113157 0.894988
0.046894 -0.112949 0.893342
0.048329 -0.112772 0.891947
0.049774 -0.112629 0.890817
0.051244 -0.112551 0.890198
0.052716 -0.112480 0.889638
0.054195 -0.112428 0.889227
0.055686 -0.112404 0.889037
0.057174 -0.112375 0.888809
0.058672 -0.112367 0.888741
0.060172 -0.112362 0.888705
0.061667 -0.112348 0.888591
0.063164 -0.112338 0.888515
0.064675 -0.112355 0.888643
0.066193 -0.112381 0.888852
0.067690 -0.112372 0.888779
0.069203 -0.112389 0.888918
0.070699 -0.112378 0.888826
0.072189 -0.112358 0.888669
0.073676 -0.112335 0.888487
0.075146 -0.112287 0.888112
0.076621 -0.112248 0.887804
0.078097 -0.112213 0.887525
0.079606 -0.112225 0.887621
0.081148 -0.112283 0.888074
0.082724 -0.112384 0.888875
0.084289 -0.112466 0.889527
0.085830 -0.112516 0.889916
0.087294 -0.112463 0.889501
0.088674 -0.112306 0.888258
0.090089 -0.112199 0.887409
0.091505 -0.112096 0.886600
0.092815 -0.111868 0.884797
0.094183 -0.111716 0.883593
0.095522 -0.111535 0.882162
0.097743 -0.110673 0.875346
0.098976 -0.110398 0.873169
0.100223 -0.110146 0.871174
0.101516 -0.109951 0.869635
0.102913 -0.109873 0.869016
0.104432 -0.109926 0.869432
0.105918 -0.109942 0.869562
0.107348 -0.109902 0.869245
0.108820 -0.109904 0.869263
0.110341 -0.109955 0.869665
0.111900 -0.110042 0.870355
0.113522 -0.110189 0.871516
0.115244 -0.110427 0.873400
0.116955 -0.110649 0.875155
0.118723 -0.110919 0.877287
0.121033 -0.111682 0.883320
0.134135 -0.117950 0.932901
0.136587 -0.118711 0.938915
0.138040 -0.118595 0.938004
0.140801 -0.121196 0.945894
0.139476 -0.118468 0.936998
0.017306 -0.115550 0.926340
0.018854 -0.115437 0.925435
0.020396 -0.115315 0.924450
0.021923 -0.115127 0.922942
0.023444 -0.114930 0.921369
0.024959 -0.114736 0.919810
0.026477 -0.114577 0.918536
0.027981 -0.114375 0.916914
0.029478 -0.114170 0.915276
0.030962 -0.113938 0.913414
0.032446 -0.113729 0.911734
0.033920 -0.113502 0.909916
0.035396 -0.113303 0.908323
0.036873 -0.113123 0.906879
0.038337 -0.112920 0.905254
0.039787 -0.112692 0.903422
0.041231 -0.112465 0.901605
0.042670 -0.112241 0.899812
0.044075 -0.111944 0.897430
0.045486 -0.111684 0.895346
0.046903 -0.111455 0.893511
0.048333 -0.111270 0.892027
0.049773 -0.111117 0.890802
0.051243 -0.111040 0.890183
0.052714 -0.110969 0.889612
0.054189 -0.110909 0.889131
0.055674 -0.110874 0.888851
0.057151 -0.110824 0.888449
0.058630 -0.110781 0.888103
0.060112 -0.110744 0.887806
0.061591 -0.110706 0.887504
0.063075 -0.110676 0.887263
0.064571 -0.110670 0.887212
0.066078 -0.110682 0.887311
0.067564 -0.110659 0.887129
0.069068 -0.110666 0.887180
0.070560 -0.110654 0.887084
0.072062 -0.110657 0.887112
0.073563 -0.110659 0.887129
0.075070 -0.110669 0.887204
0.076582 -0.110687 0.887348
0.078091 -0.110699 0.887451
0.079632 -0.110756 0.887908
0.081192 -0.110836 0.888546
0.082762 -0.110927 0.889277
0.084326 -0.111007 0.889919
0.085950 -0.111162 0.891156
0.087498 -0.111215 0.891581
0.089019 -0.111232 0.891723
0.090569 -0.111284 0.892135
0.092130 -0.111348 0.892649
0.093494 -0.111176 0.891268
0.094917 -0.111078 0.890484
0.096293 -0.110929 0.889289
0.096700 -0.111176 0.879318
0.097498 -0.110590 0.886572
0.098533 -0.110072 0.882418
0.099653 -0.109663 0.879143
0.100788 -0.109282 0.876089
0.101953 -0.108944 0.873381
0.103242 -0.108747 0.871798
0.104665 -0.108694 0.871370
0.106134 -0.108690 0.871338
0.107549 -0.108631 0.870868
0.109011 -0.108621 0.870788
0.110512 -0.108649 0.871012
0.112038 -0.108701 0.871432
0.113649 -0.108833 0.872492
0.115359 -0.109055 0.874267
0.117060 -0.109264 0.875942
0.118841 -0.109540 0.878158
0.121473 -0.110585 0.886530
0.134405 -0.116603 0.934779
0.136481 -0.117028 0.938188
0.137934 -0.116916 0.937285
0.139371 -0.116792 0.936293
0.140923 -0.118353 0.936083
0.140803 -0.116667 0.935289
0.143573 -0.119240 0.943098
0.142186 -0.116504 0.933984
0.015757 -0.114105 0.927357
0.017307 -0.113988 0.926401
0.018855 -0.113876 0.925497
0.020398 -0.113756 0.924515
0.021921 -0.113549 0.922834
0.023439 -0.113345 0.921178
0.024954 -0.113153 0.919614
0.026466 -0.112973 0.918157
0.027963 -0.112750 0.916341
0.029456 -0.112535 0.914594
0.030942 -0.112315 0.912811
0.032428 -0.112121 0.911230
0.033909 -0.111924 0.909629
0.035400 -0.111774 0.908412
0.036890 -0.111636 0.907289
0.038364 -0.111462 0.905877
0.039828 -0.111274 0.904350
0.041281 -0.111070 0.902692
0.042717 -0.110837 0.900791
0.044113 -0.110519 0.898208
0.045520 -0.110248 0.896012
0.046928 -0.109998 0.893978
0.048349 -0.109794 0.892318
0.049784 -0.109631 0.890996
0.051253 -0.109553 0.890359
0.052719 -0.109471 0.889694
0.054189 -0.109402 0.889131
0.055669 -0.109357 0.888763
0.057139 -0.109295 0.888262
0.058605 -0.109229 0.887726
0.060072 -0.109167 0.887225
0.061538 -0.109107 0.886739
0.063007 -0.109054 0.886304
0.064481 -0.109014 0.885979
0.065972 -0.109002 0.885881
0.067434 -0.108946 0.885423
0.068922 -0.108930 0.885300
0.070405 -0.108909 0.885129
0.071911 -0.108925 0.885256
0.073418 -0.108940 0.885382
0.074952 -0.108993 0.885812
0.076487 -0.109047 0.886250
0.078027 -0.109105 0.886722
0.079601 -0.109208 0.887558
0.081178 -0.109312 0.888398
0.082757 -0.109414 0.889226
0.084337 -0.109513 0.890037
0.085961 -0.109665 0.891270
0.087510 -0.109718 0.891705
0.089143 -0.109873 0.892963
0.090816 -0.110071 0.894571
0.092505 -0.110282 0.896284
0.094015 -0.110276 0.896235
0.095566 -0.110317 0.896571
0.096986 -0.110209 0.895690
0.098225 -0.109900 0.893180
0.100342 -0.108920 0.885219
0.101378 -0.108428 0.881218
0.102419 -0.107955 0.877375
0.103602 -0.107643 0.874834
0.104919 -0.107477 0.873487
0.106360 -0.107441 0.873193
0.107755 -0.107360 0.872536
0.109197 -0.107327 0.872270
0.110667 -0.107324 0.872240
0.112163 -0.107343 0.872401
0.113751 -0.107451 0.873274
0.115438 -0.107647 0.874872
0.117128 -0.107841 0.876445
0.118887 -0.108094 0.878500
0.134603 -0.115188 0.936154
0.136350 -0.115327 0.937282
0.137802 -0.115216 0.936385
0.139238 -0.115094 0.935395
0.140665 -0.114968 0.934372
0.142059 -0.114819 0.933154
0.143575 -0.116351 0.932754
0.143447 -0.114667 0.931923
0.144990 -0.116221 0.931714
0.144878 -0.114553 0.930995
0.146422 -0.116107 0.930805
0.146326 -0.114454 0.930194
0.149211 -0.117061 0.938450
0.147791 -0.114371 0.929518
0.017316 -0.112474 0.926866
0.018862 -0.112351 0.925856
0.020406 -0.112235 0.924902
0.021928 -0.112020 0.923124
0.023443 -0.111806 0.921364
0.024956 -0.111603 0.919693
0.026465 -0.111411 0.918105
0.027953 -0.111156 0.916011
0.029441 -0.110930 0.914145
0.030924 -0.110704 0.912286
0.032407 -0.110504 0.910632
0.033894 -0.110333 0.909225
0.035398 -0.110228 0.908362
0.036903 -0.110138 0.907622
0.038391 -0.110006 0.906527
0.039870 -0.109857 0.905302
0.041330 -0.109670 0.903759
0.042767 -0.109439 0.901858
0.044164 -0.109124 0.899259
0.045576 -0.108865 0.897128
0.046991 -0.108628 0.895178
0.048418 -0.108436 0.893589
0.049845 -0.108254 0.892089
0.051305 -0.108153 0.891257
0.052756 -0.108039 0.890324
0.054210 -0.107937 0.889482
0.055670 -0.107852 0.888778
0.057133 -0.107778 0.888169
0.058582 -0.107681 0.887370
0.060035 -0.107596 0.886672
0.061486 -0.107513 0.885984
0.062934 -0.107427 0.885278
0.064387 -0.107355 0.884681
0.065867 -0.107329 0.884468
0.067313 -0.107251 0.883830
0.068778 -0.107205 0.883448
0.070257 -0.107183 0.883271
0.071766 -0.107207 0.883464
0.073271 -0.107225 0.883609
0.074824 -0.107309 0.884306
0.076388 -0.107406 0.885107
0.077952 -0.107499 0.885870
0.079549 -0.107634 0.886986
0.081150 -0.107768 0.888091
0.082745 -0.107891 0.889102
0.084336 -0.108003 0.890023
0.085961 -0.108154 0.891272
0.087519 -0.108218 0.891800
0.089169 -0.108391 0.893225
0.090827 -0.108568 0.894682
0.092487 -0.108741 0.896110
0.094113 -0.108870 0.897166
0.095780 -0.109041 0.898577
0.097320 -0.109064 0.898771
0.098715 -0.108927 0.897641
0.099284 -0.109404 0.889148
0.099979 -0.108652 0.895371
0.100995 -0.108119 0.890976
0.101960 -0.107548 0.886277
0.102887 -0.106954 0.881376
0.103958 -0.106524 0.877839
0.105134 -0.106213 0.875277
0.106536 -0.106136 0.874637
0.107919 -0.106042 0.873862
0.109348 -0.105995 0.873478
0.110798 -0.105970 0.873272
0.112274 -0.105970 0.873269
0.113841 -0.106054 0.873965
0.115484 -0.106206 0.875218
0.117139 -0.106366 0.876532
0.118843 -0.106564 0.878170
0.131712 -0.112483 0.926944
0.134699 -0.113682 0.936820
0.136149 -0.113571 0.935907
0.137598 -0.113461 0.934999
0.139030 -0.113339 0.933998
0.140469 -0.113226 0.933067
0.141888 -0.113100 0.932027
0.143305 -0.112975 0.930996
0.144766 -0.112887 0.930273
0.146246 -0.112816 0.929684
0.147727 -0.112747 0.929115
0.017322 -0.110944 0.927217
0.018869 -0.110824 0.926207
0.020415 -0.110713 0.925281
0.021940 -0.110516 0.923639
0.023454 -0.110293 0.921771
0.024964 -0.110079 0.919987
0.026467 -0.109865 0.918192
0.027949 -0.109588 0.915881
0.029431 -0.109342 0.913825
0.030910 -0.109108 0.911871
0.032390 -0.108902 0.910144
0.033879 -0.108744 0.908825
0.035386 -0.108652 0.908060
0.036898 -0.108585 0.907501
0.038398 -0.108488 0.906690
0.039886 -0.108366 0.905671
0.041352 -0.108196 0.904249
0.042796 -0.107981 0.902453
0.044202 -0.107692 0.900031
0.045621 -0.107448 0.897996
0.047047 -0.107239 0.896245
0.048482 -0.107061 0.894762
0.049915 -0.106892 0.893345
0.051366 -0.106768 0.892311
0.052806 -0.106631 0.891167
0.054249 -0.106506 0.890120
0.055698 -0.106398 0.889222
0.057145 -0.106294 0.888353
0.058587 -0.106186 0.887445
0.060022 -0.106071 0.886487
0.061449 -0.105947 0.885454
0.062877 -0.105830 0.884475
0.064309 -0.105726 0.883607
0.065761 -0.105660 0.883053
0.067198 -0.105572 0.882318
0.068652 -0.105515 0.881840
0.070121 -0.105482 0.881562
0.071626 -0.105504 0.881744
0.073134 -0.105528 0.881951
0.074685 -0.105613 0.882662
0.076262 -0.105731 0.883647
0.077840 -0.105845 0.884600
0.079444 -0.105990 0.885812
0.081051 -0.106133 0.887003
0.082652 -0.106264 0.888099
0.084242 -0.106375 0.889029
0.085860 -0.106518 0.890226
0.087434 -0.106603 0.890930
0.089084 -0.106775 0.892368
0.090756 -0.106967 0.893977
0.092405 -0.107127 0.895313
0.094030 -0.107254 0.896376
0.095675 -0.107400 0.897594
0.097211 -0.107420 0.897764
0.098692 -0.107380 0.897427
0.100042 -0.107201 0.895934
0.101138 -0.106759 0.892239
0.102172 -0.106266 0.888115
0.103146 -0.105726 0.883601
0.104143 -0.105224 0.879406
0.105276 -0.104872 0.876464
0.106648 -0.104763 0.875555
0.108018 -0.104656 0.874663
0.109438 -0.104600 0.874194
0.110879 -0.104565 0.873904
0.112355 -0.104565 0.873898
0.113901 -0.104628 0.874427
0.115509 -0.104746 0.875409
0.117127 -0.104869 0.876441
0.118792 -0.105031 0.877792
0.134467 -0.111901 0.935208
0.135913 -0.111790 0.934282
0.137345 -0.111670 0.933278
0.138787 -0.111561 0.932365
0.140238 -0.111461 0.931537
0.141689 -0.111364 0.930721
0.143166 -0.111289 0.930096
0.144674 -0.111239 0.929679
0.146185 -0.111193 0.929298
0.147695 -0.111148 0.928914
0.017318 -0.109344 0.926973
0.018867 -0.109239 0.926084
0.020417 -0.109156 0.925380
0.021944 -0.108970 0.923802
0.023458 -0.108751 0.921942
0.024965 -0.108526 0.920043
0.026461 -0.108282 0.917974
0.027936 -0.107987 0.915465
0.029417 -0.107742 0.913393
0.030894 -0.107509 0.911420
0.032374 -0.107306 0.909692
0.033865 -0.107158 0.908443
0.035371 -0.107069 0.907684
0.036880 -0.106993 0.907041
0.038383 -0.106908 0.906320
0.039873 -0.106798 0.905387
0.041347 -0.106651 0.904142
0.042795 -0.106450 0.902440
0.044220 -0.106208 0.900387
0.045654 -0.106004 0.898655
0.047098 -0.105835 0.897223
0.048542 -0.105675 0.895872
0.049986 -0.105528 0.894620
0.051428 -0.105384 0.893401
0.052857 -0.105222 0.892031
0.054285 -0.105066 0.890708
0.055722 -0.104936 0.889604
0.057163 -0.104821 0.888633
0.058599 -0.104704 0.887635
0.060024 -0.104571 0.886512
0.061439 -0.104428 0.885300
0.062852 -0.104290 0.884125
0.064263 -0.104155 0.882985
0.065695 -0.104058 0.882160
0.067124 -0.103961 0.881342
0.068570 -0.103895 0.880782
0.070030 -0.103852 0.880412
0.071524 -0.103861 0.880492
0.073029 -0.103884 0.880687
0.074572 -0.103959 0.881322
0.076147 -0.104075 0.882307
0.077722 -0.104187 0.883259
0.079309 -0.104310 0.884299
0.080888 -0.104420 0.885226
0.082447 -0.104499 0.885898
0.083991 -0.104557 0.886388
0.085556 -0.104638 0.887077
0.087099 -0.104690 0.887519
0.088702 -0.104811 0.888547
0.090336 -0.104965 0.889847
0.092046 -0.105199 0.891832
0.093749 -0.105419 0.893696
0.095461 -0.105642 0.895585
0.097079 -0.105755 0.896546
0.098650 -0.105814 0.897045
0.100017 -0.105657 0.895713
0.101132 -0.105240 0.892185
0.102189 -0.104778 0.888262
0.103210 -0.104292 0.884145
0.104239 -0.103829 0.880217
0.105360 -0.103468 0.877158
0.106721 -0.103350 0.876162
0.108092 -0.103244 0.875263
0.109503 -0.103180 0.874720
0.110938 -0.103139 0.874370
0.112416 -0.103139 0.874371
0.113950 -0.103190 0.874799
0.115533 -0.103283 0.875592
0.117124 -0.103381 0.876420
0.118738 -0.103496 0.877393
0.134173 -0.110074 0.933165
0.135616 -0.109965 0.932239
0.137044 -0.109846 0.931232
0.138496 -0.109749 0.930410
0.139978 -0.109678 0.929807
0.141462 -0.109610 0.929231
0.142988 -0.109576 0.928941
0.144556 -0.109574 0.928922
0.146098 -0.109553 0.928744
0.148998 -0.110539 0.937108
0.018857 -0.107612 0.925593
0.020408 -0.107543 0.924996
0.021940 -0.107384 0.923627
0.023456 -0.107180 0.921873
0.024964 -0.106960 0.919982
0.026456 -0.106707 0.917809
0.027928 -0.106404 0.915198
0.029406 -0.106152 0.913035
0.030879 -0.105913 0.910980
0.032358 -0.105711 0.909242
0.033848 -0.105565 0.907989
0.035353 -0.105477 0.907224
0.036857 -0.105391 0.906489
0.038358 -0.105306 0.905754
0.039847 -0.105194 0.904794
0.041320 -0.105049 0.903550
0.042771 -0.104862 0.901939
0.044213 -0.104665 0.900242
0.045658 -0.104489 0.898732
0.047123 -0.104369 0.897699
0.048583 -0.104246 0.896639
0.050034 -0.104111 0.895483
0.051472 -0.103958 0.894162
0.052902 -0.103798 0.892783
0.054319 -0.103622 0.891272
0.055746 -0.103474 0.890000
0.057188 -0.103359 0.889013
0.058629 -0.103251 0.888084
0.060049 -0.103112 0.886885
0.061453 -0.102952 0.885512
0.062852 -0.102792 0.884134
0.064248 -0.102634 0.882771
0.065659 -0.102507 0.881683
0.067081 -0.102402 0.880779
0.068527 -0.102338 0.880232
0.069987 -0.102297 0.879875
0.071467 -0.102287 0.879789
0.072956 -0.102289 0.879807
0.074481 -0.102340 0.880244
0.076025 -0.102416 0.880896
0.077574 -0.102494 0.881573
0.079117 -0.102564 0.882169
0.080651 -0.102617 0.882630
0.082160 -0.102639 0.882815
0.083662 -0.102650 0.882912
0.085182 -0.102683 0.883194
0.086704 -0.102718 0.883495
0.088263 -0.102794 0.884149
0.089870 -0.102922 0.885254
0.091560 -0.103140 0.887125
0.093249 -0.103350 0.888933
0.094948 -0.103564 0.890775
0.096585 -0.103704 0.891981
0.098154 -0.103769 0.892535
0.099534 -0.103635 0.891381
0.100737 -0.103324 0.888706
0.101891 -0.102971 0.885672
0.103028 -0.102613 0.882591
0.104173 -0.102271 0.879654
0.105379 -0.101999 0.877313
0.106750 -0.101892 0.876393
0.108132 -0.101799 0.875591
0.109546 -0.101737 0.875061
0.110983 -0.101698 0.874725
0.112483 -0.101717 0.874889
0.114007 -0.101758 0.875240
0.115568 -0.101830 0.875856
0.117133 -0.101903 0.876484
0.118699 -0.101975 0.877106
0.133838 -0.108222 0.930837
0.135292 -0.108126 0.930011
0.136729 -0.108019 0.929093
0.138193 -0.107936 0.928375
0.139717 -0.107901 0.928076
0.141262 -0.107882 0.927917
0.142835 -0.107886 0.927948
0.144462 -0.107929 0.928322
0.147394 -0.108936 0.936980
0.018832 -0.105903 0.924368
0.020385 -0.105853 0.923934
0.021921 -0.105726 0.922821
0.023441 -0.105548 0.921268
0.024952 -0.105352 0.919562
0.026449 -0.105123 0.917565
0.027924 -0.104835 0.915048
0.029401 -0.104587 0.912887
0.030872 -0.104343 0.910756
0.032347 -0.104135 0.908939
0.033834 -0.103982 0.907600
0.035331 -0.103874 0.906659
0.036830 -0.103778 0.905822
0.038325 -0.103681 0.904973
0.039809 -0.103561 0.903925
0.041276 -0.103407 0.902587
0.042734 -0.103242 0.901147
0.044192 -0.103090 0.899817
0.045651 -0.102950 0.898598
0.047131 -0.102865 0.897853
0.048610 -0.102783 0.897134
0.050072 -0.102670 0.896154
0.051511 -0.102520 0.894844
0.052944 -0.102365 0.893488
0.054362 -0.102192 0.891977
0.055780 -0.102027 0.890539
0.057216 -0.101902 0.889451
0.058654 -0.101789 0.888457
0.060064 -0.101634 0.887110
0.061456 -0.101456 0.885554
0.062841 -0.101276 0.883979
0.064222 -0.101096 0.882411
0.065619 -0.100950 0.881138
0.067040 -0.100847 0.880238
0.068480 -0.100777 0.879627
0.069939 -0.100737 0.879277
0.071411 -0.100717 0.879100
0.072891 -0.100707 0.879018
0.074398 -0.100736 0.879267
0.075916 -0.100777 0.879630
0.077436 -0.100821 0.880010
0.078935 -0.100835 0.880137
0.080414 -0.100824 0.880041
0.081872 -0.100788 0.879720
0.083321 -0.100742 0.879320
0.084780 -0.100708 0.879026
0.086266 -0.100709 0.879032
0.087786 -0.100747 0.879369
0.089346 -0.100831 0.880095
0.091005 -0.101020 0.881748
0.092682 -0.101223 0.883523
0.094376 -0.101439 0.885404
0.096010 -0.101584 0.886674
0.097594 -0.101672 0.887442
0.098996 -0.101572 0.886567
0.100284 -0.101359 0.884711
0.101539 -0.101120 0.882619
0.102794 -0.100887 0.880585
0.104046 -0.100657 0.878584
0.105356 -0.100491 0.877127
0.106751 -0.100408 0.876403
0.108153 -0.100334 0.875761
0.109587 -0.100292 0.875390
0.111035 -0.100263 0.875139
0.112538 -0.100283 0.875320
0.114075 -0.100333 0.875756
0.115627 -0.100396 0.876301
0.117170 -0.100449 0.876763
0.118712 -0.100499 0.877204
0.133481 -0.106359 0.928349
0.134946 -0.106277 0.927631
0.136393 -0.106183 0.926813
0.137870 -0.106113 0.926205
0.139419 -0.106101 0.926094
0.141006 -0.106117 0.926235
0.143987 -0.107170 0.935430
0.018798 -0.104147 0.922693
0.020349 -0.104102 0.922299
0.021891 -0.104021 0.921580
0.023412 -0.103860 0.920149
0.024925 -0.103681 0.918571
0.026421 -0.103459 0.916599
0.027902 -0.103205 0.914350
0.029382 -0.102973 0.912293
0.030858 -0.102754 0.910356
0.032339 -0.102569 0.908716
0.033829 -0.102429 0.907470
0.035319 -0.102301 0.906336
0.036809 -0.102185 0.905309
0.038296 -0.102068 0.904272
0.039774 -0.101939 0.903130
0.041237 -0.101780 0.901726
0.042698 -0.101629 0.900390
0.044163 -0.101499 0.899238
0.045627 -0.101374 0.898131
0.047107 -0.101292 0.897397
0.048589 -0.101219 0.896753
0.050065 -0.101137 0.896028
0.051511 -0.101003 0.894836
0.052955 -0.100872 0.893682
0.054385 -0.100722 0.892354
0.055808 -0.100568 0.890989
0.057239 -0.100436 0.889817
0.058677 -0.100322 0.888811
0.060083 -0.100161 0.887381
0.061464 -0.099967 0.885664
0.062841 -0.099776 0.883971
0.064207 -0.099578 0.882216
0.065585 -0.099405 0.880688
0.067000 -0.099296 0.879714
0.068420 -0.099200 0.878862
0.069858 -0.099131 0.878258
0.071307 -0.099081 0.877814
0.072762 -0.099041 0.877462
0.074231 -0.099022 0.877290
0.075720 -0.099031 0.877368
0.077212 -0.099041 0.877461
0.078671 -0.099011 0.877194
0.080111 -0.098957 0.876717
0.081535 -0.098887 0.876095
0.082960 -0.098821 0.875504
0.084388 -0.098759 0.874959
0.085849 -0.098738 0.874775
0.087342 -0.098755 0.874922
0.088863 -0.098802 0.875338
0.090479 -0.098950 0.876651
0.092118 -0.099119 0.878151
0.093775 -0.099302 0.879771
0.095405 -0.099450 0.881082
0.097000 -0.099559 0.882045
0.098435 -0.099502 0.881546
0.099815 -0.099392 0.880567
0.101177 -0.099267 0.879465
0.102533 -0.099142 0.878350
0.103894 -0.099023 0.877301
0.105305 -0.098956 0.876702
0.106743 -0.098915 0.876339
0.108167 -0.098862 0.875876
0.109621 -0.098838 0.875662
0.111079 -0.098819 0.875488
0.112594 -0.098849 0.875756
0.114135 -0.098901 0.876219
0.115700 -0.098973 0.876855
0.117244 -0.099025 0.877318
0.118786 -0.099074 0.877751
0.121545 -0.101628 0.887056
0.121533 -0.100115 0.886972
0.133138 -0.104517 0.925969
0.134616 -0.104448 0.925364
0.136087 -0.104377 0.924730
0.137588 -0.104329 0.924312
0.139151 -0.104330 0.924316
0.142126 -0.105377 0.933595
0.018770 -0.102431 0.921328
0.020318 -0.102381 0.920878
0.021859 -0.102307 0.920216
0.023382 -0.102165 0.918935
0.024895 -0.102002 0.917471
0.026391 -0.101787 0.915539
0.027876 -0.101560 0.913491
0.029360 -0.101352 0.911626
0.030843 -0.101159 0.909890
0.032329 -0.100999 0.908448
0.033822 -0.100871 0.907295
0.035308 -0.100733 0.906059
0.036793 -0.100606 0.904917
0.038271 -0.100469 0.903683
0.039745 -0.100333 0.902460
0.041206 -0.100177 0.901059
0.042675 -0.100050 0.899913
0.044145 -0.099934 0.898868
0.045618 -0.099831 0.897943
0.047101 -0.099758 0.897289
0.048588 -0.099696 0.896726
0.050068 -0.099624 0.896083
0.051521 -0.099505 0.895009
0.052968 -0.099381 0.893893
0.054399 -0.099235 0.892580
0.055821 -0.099081 0.891192
0.057251 -0.098948 0.890000
0.058683 -0.098826 0.888905
0.060083 -0.098658 0.887389
0.061457 -0.098455 0.885567
0.062827 -0.098256 0.883774
0.064181 -0.098043 0.881860
0.065546 -0.097855 0.880170
0.066936 -0.097711 0.878871
0.068326 -0.097575 0.877649
0.069731 -0.097465 0.876658
0.071147 -0.097374 0.875845
0.072571 -0.097298 0.875157
0.074028 -0.097269 0.874895
0.075505 -0.097266 0.874874
0.076982 -0.097264 0.874855
0.078429 -0.097224 0.874493
0.079856 -0.097162 0.873933
0.081271 -0.097086 0.873257
0.082678 -0.097005 0.872524
0.084080 -0.096921 0.871771
0.085520 -0.096883 0.871426
0.086984 -0.096873 0.871339
0.088449 -0.096864 0.871255
0.090006 -0.096954 0.872066
0.091596 -0.097078 0.873177
0.093196 -0.097207 0.874337
0.094800 -0.097336 0.875498
0.096418 -0.097475 0.876754
0.097934 -0.097509 0.877057
0.099405 -0.097497 0.876950
0.100871 -0.097482 0.876812
0.102333 -0.097462 0.876633
0.103788 -0.097437 0.876405
0.105252 -0.097420 0.876260
0.106734 -0.097421 0.876265
0.108192 -0.097400 0.876076
0.109668 -0.097395 0.876033
0.111147 -0.097394 0.876022
0.112675 -0.097434 0.876386
0.114240 -0.097505 0.877023
0.115818 -0.097586 0.877751
0.117376 -0.097648 0.878305
0.119100 -0.097844 0.880069
0.121778 -0.098810 0.888760
0.124427 -0.101249 0.897021
0.124573 -0.099846 0.898079
0.127430 -0.102444 0.907611
0.127469 -0.100936 0.907885
0.130355 -0.103549 0.917398
0.130294 -0.101947 0.916972
0.132810 -0.102693 0.923683
0.134311 -0.102646 0.923267
0.135808 -0.102598 0.922834
0.137335 -0.102574 0.922612
0.140259 -0.103581 0.931674
0.018747 -0.100746 0.920205
0.020290 -0.100684 0.919636
0.021832 -0.100624 0.919085
0.023356 -0.100498 0.917936
0.024871 -0.100350 0.916587
0.026370 -0.100158 0.914835
0.027863 -0.099964 0.913061
0.029350 -0.099772 0.911311
0.030836 -0.099597 0.909704
0.032327 -0.099453 0.908389
0.033820 -0.099327 0.907241
0.035302 -0.099182 0.905914
0.036779 -0.099035 0.904572
0.038251 -0.098887 0.903227
0.039724 -0.098752 0.901991
0.041185 -0.098600 0.900601
0.042658 -0.098486 0.899558
0.044136 -0.098390 0.898686
0.045614 -0.098300 0.897860
0.047098 -0.098229 0.897216
0.048588 -0.098177 0.896738
0.050073 -0.098116 0.896181
0.051527 -0.098000 0.895119
0.052975 -0.097878 0.894005
0.054406 -0.097734 0.892690
0.055827 -0.097580 0.891290
0.057251 -0.097440 0.890006
0.058677 -0.097310 0.888818
0.060071 -0.097134 0.887210
0.061438 -0.096924 0.885290
0.062796 -0.096710 0.883337
0.064131 -0.096473 0.881169
0.065470 -0.096251 0.879145
0.066823 -0.096059 0.877396
0.068174 -0.095873 0.875697
0.069545 -0.095722 0.874319
0.070933 -0.095601 0.873206
0.072344 -0.095515 0.872422
0.073797 -0.095487 0.872166
0.075263 -0.095477 0.872072
0.076730 -0.095467 0.871982
0.078181 -0.095439 0.871728
0.079615 -0.095391 0.871293
0.081053 -0.095350 0.870922
0.082490 -0.095310 0.870548
0.083930 -0.095273 0.870216
0.085401 -0.095273 0.870211
0.086896 -0.095299 0.870454
0.088377 -0.095310 0.870548
0.089858 -0.095320 0.870640
0.091355 -0.095346 0.870876
0.092846 -0.095365 0.871051
0.094349 -0.095395 0.871331
0.095882 -0.095455 0.871875
0.097462 -0.095559 0.872828
0.099020 -0.095639 0.873559
0.100581 -0.095719 0.874289
0.102140 -0.095795 0.874980
0.103680 -0.095852 0.875497
0.105186 -0.095874 0.875707
0.106692 -0.095898 0.875919
0.108174 -0.095898 0.875926
0.109673 -0.095915 0.876076
0.111185 -0.095941 0.876318
0.112726 -0.095992 0.876779
0.114314 -0.096081 0.877592
0.115917 -0.096180 0.878498
0.117653 -0.096386 0.880378
0.119576 -0.096738 0.883591
0.122212 -0.097650 0.891923
0.124934 -0.098608 0.900674
0.127718 -0.099592 0.909660
0.130276 -0.100378 0.916843
0.132535 -0.100918 0.921773
0.134061 -0.100894 0.921552
0.136915 -0.101858 0.930361
0.020269 -0.099022 0.918683
0.021811 -0.098972 0.918217
0.023339 -0.098869 0.917262
0.024853 -0.098724 0.915920
0.026354 -0.098546 0.914261
0.027851 -0.098373 0.912663
0.029343 -0.098205 0.911101
0.030833 -0.098044 0.909611
0.032331 -0.097924 0.908494
0.033828 -0.097811 0.907442
0.035310 -0.097667 0.906111
0.036780 -0.097502 0.904583
0.038247 -0.097346 0.903135
0.039712 -0.097193 0.901714
0.041173 -0.097043 0.900320
0.042645 -0.096932 0.899287
0.044128 -0.096848 0.898514
0.045610 -0.096770 0.897786
0.047095 -0.096702 0.897157
0.048586 -0.096652 0.896690
0.050075 -0.096600 0.896212
0.051528 -0.096484 0.895136
0.052975 -0.096363 0.894013
0.054405 -0.096219 0.892679
0.055826 -0.096067 0.891265
0.057229 -0.095894 0.889657
0.058638 -0.095738 0.888214
0.060018 -0.095545 0.886424
0.061377 -0.095328 0.884406
0.062715 -0.095091 0.882209
0.064037 -0.094839 0.879868
0.065353 -0.094590 0.877567
0.066666 -0.094350 0.875340
0.067978 -0.094117 0.873177
0.069314 -0.093928 0.871417
0.070691 -0.093800 0.870234
0.072099 -0.093717 0.869464
0.073547 -0.093690 0.869215
0.075017 -0.093690 0.869218
0.076494 -0.093699 0.869298
0.077966 -0.093702 0.869325
0.079423 -0.093687 0.869186
0.080891 -0.093686 0.869179
0.082351 -0.093676 0.869078
0.083811 -0.093666 0.868986
0.085289 -0.093675 0.869071
0.086801 -0.093721 0.869496
0.088300 -0.093752 0.869790
0.089798 -0.093781 0.870058
0.091303 -0.093815 0.870377
0.092799 -0.093841 0.870610
0.094292 -0.093861 0.870803
0.095812 -0.093909 0.871245
0.097372 -0.093993 0.872019
0.098919 -0.094062 0.872667
0.100468 -0.094131 0.873305
0.102026 -0.094206 0.874002
0.103566 -0.094263 0.874530
0.105099 -0.094312 0.874984
0.106624 -0.094353 0.875363
0.108130 -0.094375 0.875571
0.109662 -0.094420 0.875985
0.111218 -0.094484 0.876577
0.112772 -0.094545 0.877141
0.114514 -0.094759 0.879129
0.116282 -0.094989 0.881263
0.118195 -0.095331 0.884434
0.120307 -0.095822 0.888991
0.122896 -0.096676 0.896917
0.125416 -0.097456 0.904151
0.127931 -0.098214 0.911180
0.130231 -0.098790 0.916526
0.132254 -0.099145 0.919821
0.135114 -0.100112 0.928792
0.020274 -0.097489 0.918914
0.021808 -0.097400 0.918071
0.023332 -0.097284 0.916980
0.024843 -0.097132 0.915547
0.026341 -0.096948 0.913807
0.027840 -0.096787 0.912293
0.029332 -0.096623 0.910743
0.030827 -0.096484 0.909434
0.032331 -0.096384 0.908494
0.033831 -0.096282 0.907533
0.035314 -0.096142 0.906211
0.036783 -0.095979 0.904674
0.038251 -0.095824 0.903216
0.039707 -0.095653 0.901609
0.041164 -0.095497 0.900130
0.042632 -0.095377 0.899002
0.044110 -0.095287 0.898152
0.045592 -0.095210 0.897428
0.047081 -0.095153 0.896894
0.048572 -0.095105 0.896437
0.050061 -0.095054 0.895959
0.051513 -0.094938 0.894866
0.052954 -0.094809 0.893650
0.054377 -0.094657 0.892215
0.055792 -0.094499 0.890728
0.057182 -0.094308 0.888930
0.058578 -0.094136 0.887309
0.059949 -0.093934 0.885404
0.061288 -0.093694 0.883137
0.062608 -0.093435 0.880696
0.063907 -0.093158 0.878090
0.065192 -0.092874 0.875410
0.066473 -0.092597 0.872799
0.067766 -0.092348 0.870451
0.069094 -0.092156 0.868643
0.070469 -0.092034 0.867496
0.071880 -0.091964 0.866828
0.073326 -0.091939 0.866595
0.074798 -0.091948 0.866676
0.076278 -0.091965 0.866846
0.077768 -0.091995 0.867120
0.079252 -0.092016 0.867325
0.080737 -0.092037 0.867516
0.082217 -0.092052 0.867662
0.083706 -0.092077 0.867893
0.085201 -0.092106 0.868173
0.086723 -0.092164 0.868717
0.088256 -0.092231 0.869350
0.089772 -0.092279 0.869798
0.091278 -0.092315 0.870137
0.092774 -0.092340 0.870377
0.094264 -0.092358 0.870544
0.095773 -0.092394 0.870888
0.097313 -0.092459 0.871493
0.098858 -0.092526 0.872131
0.100397 -0.092585 0.872687
0.101945 -0.092651 0.873307
0.103471 -0.092696 0.873732
0.105012 -0.092752 0.874258
0.106545 -0.092800 0.874713
0.108070 -0.092840 0.875091
0.109624 -0.092903 0.875687
0.111204 -0.092986 0.876468
0.112908 -0.093170 0.878198
0.114813 -0.093513 0.881429
0.116758 -0.093878 0.884871
0.118846 -0.094348 0.889300
0.121131 -0.094961 0.895079
0.123552 -0.095663 0.901701
0.125829 -0.096239 0.907130
0.128110 -0.096804 0.912457
0.131494 -0.098179 0.925415
0.020281 -0.095964 0.919220
0.021810 -0.095856 0.918189
0.023329 -0.095720 0.916882
0.024838 -0.095560 0.915350
0.026335 -0.095378 0.913607
0.027834 -0.095221 0.912105
0.029326 -0.095060 0.910560
0.030824 -0.094932 0.909333
0.032324 -0.094824 0.908303
0.033824 -0.094724 0.907341
0.035307 -0.094587 0.906029
0.036777 -0.094428 0.904506
0.038244 -0.094276 0.903056
0.039703 -0.094115 0.901512
0.041159 -0.093960 0.900022
0.042622 -0.093831 0.898794
0.044104 -0.093750 0.898020
0.045584 -0.093674 0.897287
0.047073 -0.093618 0.896754
0.048560 -0.093562 0.896209
0.050048 -0.093511 0.895726
0.051495 -0.093389 0.894554
0.052930 -0.093253 0.893255
0.054348 -0.093095 0.891741
0.055757 -0.092931 0.890169
0.057134 -0.092724 0.888183
0.058515 -0.092533 0.886359
0.059870 -0.092312 0.884236
0.061191 -0.092050 0.881728
0.062490 -0.091769 0.879035
0.063767 -0.091469 0.876168
0.065028 -0.091160 0.873205
0.066286 -0.090861 0.870346
0.067583 -0.090627 0.868104
0.068924 -0.090461 0.866514
0.070313 -0.090364 0.865582
0.071743 -0.090322 0.865179
0.073206 -0.090322 0.865179
0.074675 -0.090330 0.865257
0.076153 -0.090348 0.865426
0.077654 -0.090392 0.865851
0.079145 -0.090424 0.866151
0.080628 -0.090444 0.866346
0.082115 -0.090469 0.866589
0.083619 -0.090511 0.866990
0.085121 -0.090550 0.867365
0.086653 -0.090619 0.868020
0.088210 -0.090710 0.868900
0.089744 -0.090776 0.869531
0.091260 -0.090822 0.869968
0.092758 -0.090849 0.870227
0.094247 -0.090866 0.870391
0.095755 -0.090901 0.870721
0.097285 -0.090955 0.871239
0.098820 -0.091012 0.871791
0.100357 -0.091070 0.872344
0.101902 -0.091132 0.872939
0.103408 -0.091160 0.873201
0.104936 -0.091204 0.873625
0.106466 -0.091250 0.874068
0.107992 -0.091290 0.874456
0.109537 -0.091347 0.874993
0.111131 -0.091440 0.875893
0.113006 -0.091761 0.878964
0.115107 -0.092254 0.883682
0.117275 -0.092787 0.888793
0.119589 -0.093421 0.894862
0.121927 -0.094058 0.900962
0.124121 -0.094569 0.905858
0.126173 -0.094961 0.909612
0.018775 -0.094647 0.921571
0.020297 -0.094483 0.919972
0.021817 -0.094329 0.918479
0.023327 -0.094156 0.916794
0.024832 -0.093987 0.915144
0.026329 -0.093806 0.913383
0.027828 -0.093654 0.911905
0.029320 -0.093497 0.910372
0.030820 -0.093379 0.909227
0.032317 -0.093263 0.908092
0.033813 -0.093156 0.907051
0.035295 -0.093021 0.905737
0.036765 -0.092866 0.904227
0.038232 -0.092717 0.902777
0.039692 -0.092561 0.901262
0.041151 -0.092415 0.899843
0.042609 -0.092280 0.898525
0.044089 -0.092198 0.897729
0.045565 -0.092113 0.896899
0.047052 -0.092057 0.896355
0.048534 -0.091993 0.895731
0.050021 -0.091943 0.895245
0.051467 -0.091822 0.894065
0.052901 -0.091689 0.892769
0.054315 -0.091527 0.891193
0.055716 -0.091355 0.889522
0.057076 -0.091125 0.887278
0.058436 -0.090907 0.885157
0.059772 -0.090663 0.882782
0.061076 -0.090386 0.880083
0.062350 -0.090076 0.877067
0.063617 -0.089771 0.874099
0.064867 -0.089459 0.871051
0.066136 -0.089184 0.868376
0.067441 -0.088968 0.866276
0.068803 -0.088836 0.864987
0.070205 -0.088759 0.864244
0.071646 -0.088734 0.864001
0.073100 -0.088727 0.863925
0.074567 -0.088734 0.864001
0.076042 -0.088751 0.864167
0.077548 -0.088803 0.864665
0.079036 -0.088833 0.864962
0.080518 -0.088854 0.865164
0.082018 -0.088894 0.865559
0.083543 -0.088960 0.866197
0.085055 -0.089010 0.866683
0.086602 -0.089095 0.867509
0.088174 -0.089201 0.868544
0.089714 -0.089273 0.869244
0.091232 -0.089320 0.869700
0.092740 -0.089356 0.870058
0.094239 -0.089383 0.870313
0.095755 -0.089425 0.870724
0.097285 -0.089478 0.871244
0.098821 -0.089535 0.871798
0.100348 -0.089583 0.872261
0.101881 -0.089634 0.872762
0.103376 -0.089651 0.872927
0.104882 -0.089677 0.873180
0.106393 -0.089706 0.873462
0.107906 -0.089737 0.873760
0.109439 -0.089783 0.874208
0.111016 -0.089863 0.874986
0.112939 -0.090217 0.878441
0.115276 -0.090889 0.884982
0.117719 -0.091626 0.892152
0.120258 -0.092418 0.899870
0.122427 -0.092910 0.904657
0.124401 -0.093243 0.907900
0.126232 -0.093462 0.910038
0.017246 -0.094809 0.923149
0.018794 -0.093181 0.922526
0.020314 -0.092998 0.920709
0.021826 -0.092808 0.918832
0.023327 -0.092602 0.916793
0.024826 -0.092414 0.914928
0.026320 -0.092227 0.913076
0.027819 -0.092079 0.911613
0.029311 -0.091926 0.910097
0.030814 -0.091819 0.909041
0.032310 -0.091703 0.907892
0.033802 -0.091588 0.906754
0.035283 -0.091453 0.905419
0.036756 -0.091310 0.904003
0.038224 -0.091165 0.902566
0.039683 -0.091014 0.901068
0.041146 -0.090881 0.899750
0.042606 -0.090749 0.898443
0.044081 -0.090660 0.897563
0.045551 -0.090566 0.896636
0.047038 -0.090511 0.896087
0.048514 -0.090438 0.895363
0.049996 -0.090380 0.894792
0.051445 -0.090269 0.893693
0.052879 -0.090138 0.892398
0.054292 -0.089979 0.890823
0.055683 -0.089793 0.888981
0.057024 -0.089540 0.886475
0.058364 -0.089298 0.884077
0.059680 -0.089031 0.881440
0.060966 -0.088733 0.878487
0.062225 -0.088412 0.875306
0.063488 -0.088111 0.872334
0.064743 -0.087813 0.869382
0.066025 -0.087564 0.866913
0.067343 -0.087373 0.865019
0.068724 -0.087269 0.863993
0.070136 -0.087210 0.863404
0.071576 -0.087185 0.863160
0.073028 -0.087177 0.863077
0.074494 -0.087185 0.863160
0.075975 -0.087210 0.863404
0.077481 -0.087261 0.863916
0.078975 -0.087299 0.864289
0.080462 -0.087327 0.864568
0.081968 -0.087374 0.865032
0.083501 -0.087448 0.865767
0.085021 -0.087506 0.866343
0.086569 -0.087591 0.867176
0.088139 -0.087694 0.868204
0.089677 -0.087763 0.868887
0.091194 -0.087809 0.869340
0.092711 -0.087854 0.869784
0.094219 -0.087890 0.870137
0.095747 -0.087941 0.870646
0.097286 -0.088002 0.871253
0.098813 -0.088051 0.871731
0.100339 -0.088096 0.872186
0.101862 -0.088139 0.872602
0.103347 -0.088146 0.872680
0.104842 -0.088163 0.872843
0.106349 -0.088190 0.873108
0.107850 -0.088210 0.873305
0.109375 -0.088249 0.873696
0.110931 -0.088311 0.874314
0.112897 -0.088695 0.878111
0.118258 -0.090526 0.896244
0.120754 -0.091268 0.903583
0.122743 -0.091612 0.906987
0.124533 -0.091801 0.908863
0.017293 -0.091925 0.925626
0.018819 -0.091736 0.923720
0.020335 -0.091533 0.921677
0.021841 -0.091317 0.919497
0.023334 -0.091075 0.917065
0.024826 -0.090861 0.914905
0.026314 -0.090658 0.912870
0.027812 -0.090513 0.911408
0.029302 -0.090356 0.909825
0.030808 -0.090260 0.908858
0.032303 -0.090146 0.907708
0.033792 -0.090023 0.906470
0.035265 -0.089873 0.904957
0.036740 -0.089737 0.903597
0.038204 -0.089588 0.902093
0.039667 -0.089449 0.900691
0.041134 -0.089329 0.899482
0.042601 -0.089216 0.898350
0.044074 -0.089123 0.897411
0.045548 -0.089039 0.896561
0.047034 -0.088983 0.895998
0.048505 -0.088903 0.895193
0.049977 -0.088830 0.894455
0.051430 -0.088727 0.893426
0.052854 -0.088582 0.891966
0.054255 -0.088409 0.890220
0.055634 -0.088209 0.888203
0.056977 -0.087964 0.885739
0.058300 -0.087702 0.883101
0.059608 -0.087430 0.880364
0.060885 -0.087128 0.877325
0.062141 -0.086811 0.874127
0.063404 -0.086517 0.871171
0.064671 -0.086243 0.868409
0.065972 -0.086025 0.866219
0.067303 -0.085855 0.864507
0.068695 -0.085769 0.863635
0.070106 -0.085709 0.863029
0.071543 -0.085683 0.862768
0.072988 -0.085667 0.862606
0.074454 -0.085675 0.862691
0.075935 -0.085700 0.862946
0.077441 -0.085753 0.863474
0.078935 -0.085791 0.863854
0.080429 -0.085826 0.864215
0.081950 -0.085889 0.864844
0.083492 -0.085971 0.865676
0.085021 -0.086038 0.866346
0.086569 -0.086121 0.867181
0.088130 -0.086213 0.868112
0.089658 -0.086271 0.868695
0.091172 -0.086315 0.869132
0.092690 -0.086360 0.869584
0.094209 -0.086405 0.870037
0.095754 -0.086472 0.870715
0.097296 -0.086534 0.871337
0.098823 -0.086581 0.871817
0.100349 -0.086626 0.872270
0.101871 -0.086667 0.872680
0.103347 -0.086667 0.872680
0.104831 -0.086675 0.872759
0.106327 -0.086692 0.872927
0.107805 -0.086694 0.872945
0.109306 -0.086713 0.873142
0.110820 -0.086742 0.873439
0.112812 -0.087141 0.877450
0.121033 -0.089943 0.905666
0.122845 -0.090149 0.907743
0.124446 -0.090197 0.908228
0.015752 -0.092069 0.927079
0.014214 -0.090682 0.928968
0.015765 -0.090567 0.927790
0.017310 -0.090446 0.926548
0.018837 -0.090256 0.924603
0.020351 -0.090042 0.922406
0.021855 -0.089815 0.920085
0.023344 -0.089559 0.917455
0.024829 -0.089320 0.915010
0.026314 -0.089110 0.912859
0.027809 -0.088957 0.911293
0.029299 -0.088803 0.909718
0.030804 -0.088710 0.908764
0.032297 -0.088591 0.907540
0.033781 -0.088460 0.906199
0.035250 -0.088302 0.904581
0.036720 -0.088160 0.903129
0.038180 -0.088005 0.901541
0.039650 -0.087884 0.900304
0.041125 -0.087784 0.899272
0.042600 -0.087692 0.898336
0.044078 -0.087611 0.897501
0.045557 -0.087537 0.896751
0.047043 -0.087481 0.896172
0.048509 -0.087393 0.895275
0.049972 -0.087304 0.894361
0.051420 -0.087196 0.893247
0.052837 -0.087043 0.891689
0.054227 -0.086855 0.889762
0.055599 -0.086649 0.887645
0.056940 -0.086407 0.885172
0.058257 -0.086141 0.882443
0.059558 -0.085866 0.879632
0.060840 -0.085577 0.876671
0.062100 -0.085273 0.873556
0.063370 -0.084995 0.870704
0.064650 -0.084744 0.868131
0.065964 -0.084547 0.866111
0.067295 -0.084380 0.864409
0.068680 -0.084286 0.863446
0.070084 -0.084219 0.862754
0.071513 -0.084185 0.862404
0.072951 -0.084161 0.862163
0.074415 -0.084169 0.862245
0.075902 -0.084202 0.862580
0.077408 -0.084253 0.863106
0.078903 -0.084292 0.863502
0.080411 -0.084343 0.864021
0.081949 -0.084422 0.864837
0.083494 -0.084506 0.865696
0.085032 -0.084580 0.866458
0.086587 -0.084668 0.867356
0.088130 -0.084742 0.868111
0.089648 -0.084790 0.868602
0.091162 -0.084832 0.869034
0.092688 -0.084884 0.869570
0.094217 -0.084937 0.870116
0.095773 -0.085013 0.870886
0.097315 -0.085073 0.871508
0.098841 -0.085119 0.871979
0.100358 -0.085155 0.872348
0.101871 -0.085188 0.872680
0.103347 -0.085188 0.872680
0.104822 -0.085188 0.872680
0.106307 -0.085195 0.872759
0.107773 -0.085188 0.872681
0.109247 -0.085187 0.872673
0.110721 -0.085186 0.872660
0.122794 -0.088574 0.907364
0.014215 -0.089114 0.929030
0.015773 -0.089044 0.928310
0.017324 -0.088947 0.927294
0.018854 -0.088773 0.925476
0.020371 -0.088562 0.923282
0.021872 -0.088324 0.920797
0.023359 -0.088060 0.918051
