1712
0.040637 -0.148502 0.888610
0.042144 -0.148520 0.888718
0.043661 -0.148568 0.889005
0.045178 -0.148614 0.889278
0.046705 -0.148689 0.889728
0.048224 -0.148736 0.890012
0.049749 -0.148797 0.890375
0.051270 -0.148842 0.890641
0.052790 -0.148884 0.890897
0.054323 -0.148958 0.891336
0.055865 -0.149051 0.891891
0.057410 -0.149148 0.892473
0.058950 -0.149227 0.892949
0.060489 -0.149300 0.893386
0.062005 -0.149314 0.893467
0.063516 -0.149314 0.893467
0.065045 -0.149358 0.893729
0.066578 -0.149406 0.894019
0.068126 -0.149487 0.894501
0.069689 -0.149596 0.895157
0.071275 -0.149749 0.896069
0.072860 -0.149893 0.896934
0.074477 -0.150095 0.898141
0.076084 -0.150271 0.899197
0.077716 -0.150487 0.900487
0.079353 -0.150706 0.901795
0.080997 -0.150928 0.903124
0.082639 -0.151138 0.904384
0.084316 -0.151404 0.905975
0.085983 -0.151644 0.907413
0.087667 -0.151903 0.908958
0.089372 -0.152191 0.910680
0.091086 -0.152482 0.912422
0.092816 -0.152790 0.914267
0.094543 -0.153085 0.916032
0.096287 -0.153395 0.917889
0.098095 -0.153797 0.920295
0.009113 -0.147367 0.890851
0.010616 -0.147327 0.890612
0.012119 -0.147295 0.890416
0.013617 -0.147221 0.889973
0.015112 -0.147119 0.889354
0.016606 -0.147041 0.888882
0.018102 -0.146981 0.888520
0.019594 -0.146910 0.888090
0.021089 -0.146865 0.887821
0.022585 -0.146831 0.887612
0.024070 -0.146740 0.887066
0.025564 -0.146705 0.886852
0.027065 -0.146717 0.886926
0.028572 -0.146752 0.887137
0.030080 -0.146792 0.887379
0.031596 -0.146867 0.887830
0.033103 -0.146896 0.888007
0.034608 -0.146909 0.888088
0.036109 -0.146910 0.888094
0.037614 -0.146924 0.888177
0.039119 -0.146938 0.888262
0.040637 -0.146995 0.888604
0.042149 -0.147029 0.888809
0.043674 -0.147106 0.889275
0.045197 -0.147168 0.889654
0.046728 -0.147256 0.890182
0.048249 -0.147303 0.890464
0.049774 -0.147361 0.890819
0.051295 -0.147405 0.891082
0.052817 -0.147448 0.891343
0.054356 -0.147536 0.891876
0.055900 -0.147631 0.892447
0.057446 -0.147728 0.893038
0.058987 -0.147807 0.893512
0.060533 -0.147892 0.894025
0.062050 -0.147906 0.894114
0.063568 -0.147921 0.894206
0.065106 -0.147981 0.894562
0.066647 -0.148044 0.894944
0.068197 -0.148125 0.895433
0.069762 -0.148233 0.896090
0.071342 -0.148370 0.896915
0.072921 -0.148497 0.897682
0.074531 -0.148681 0.898796
0.076133 -0.148842 0.899769
0.077759 -0.149044 0.900991
0.079390 -0.149246 0.902213
0.081034 -0.149465 0.903534
0.082667 -0.149655 0.904688
0.084335 -0.149903 0.906182
0.085984 -0.150107 0.907417
0.087664 -0.150357 0.908931
0.089360 -0.150626 0.910554
0.091064 -0.150899 0.912206
0.092794 -0.151204 0.914051
0.094529 -0.151509 0.915893
0.096284 -0.151835 0.917862
0.098095 -0.152237 0.920293
0.007605 -0.145814 0.890593
0.009106 -0.145746 0.890179
0.010606 -0.145684 0.889800
0.012107 -0.145644 0.889552
0.013605 -0.145578 0.889149
0.015101 -0.145506 0.888712
0.016599 -0.145474 0.888514
0.018096 -0.145429 0.888242
0.019588 -0.145358 0.887808
0.021080 -0.145299 0.887444
0.022575 -0.145261 0.887217
0.024055 -0.145146 0.886509
0.025548 -0.145110 0.886290
0.027045 -0.145107 0.886275
0.028551 -0.145143 0.886490
0.030055 -0.145170 0.886658
0.031573 -0.145257 0.887189
0.033080 -0.145286 0.887369
0.034589 -0.145327 0.887620
0.036091 -0.145331 0.887642
0.037602 -0.145373 0.887897
0.039111 -0.145402 0.888073
0.040636 -0.145486 0.888586
0.042152 -0.145535 0.888889
0.043686 -0.145639 0.889525
0.045218 -0.145729 0.890074
0.046756 -0.145833 0.890706
0.048278 -0.145881 0.891002
0.049804 -0.145940 0.891364
0.051327 -0.145985 0.891633
0.052845 -0.146016 0.891824
0.054386 -0.146105 0.892371
0.055931 -0.146200 0.892948
0.057473 -0.146284 0.893460
0.059015 -0.146360 0.893929
0.060561 -0.146445 0.894446
0.062086 -0.146475 0.894629
0.063612 -0.146508 0.894828
0.065164 -0.146595 0.895362
0.066713 -0.146671 0.895829
0.068270 -0.146764 0.896395
0.069836 -0.146870 0.897044
0.071418 -0.147005 0.897865
0.072996 -0.147127 0.898614
0.074601 -0.147296 0.899643
0.076195 -0.147437 0.900508
0.077815 -0.147623 0.901639
0.079439 -0.147807 0.902767
0.081076 -0.148011 0.904009
0.082701 -0.148185 0.905071
0.084361 -0.148413 0.906465
0.085993 -0.148584 0.907511
0.087654 -0.148800 0.908830
0.089341 -0.149051 0.910362
0.091036 -0.149307 0.911925
0.092755 -0.149593 0.913676
0.094489 -0.149893 0.915504
0.096249 -0.150225 0.917534
0.098043 -0.150597 0.919806
0.006101 -0.145868 0.890924
0.006101 -0.144354 0.890898
0.007604 -0.144291 0.890510
0.009104 -0.144200 0.889948
0.010603 -0.144124 0.889478
0.012102 -0.144068 0.889134
0.013598 -0.143997 0.888695
0.015093 -0.143926 0.888259
0.016592 -0.143908 0.888145
0.018088 -0.143862 0.887863
0.019578 -0.143780 0.887357
0.021067 -0.143705 0.886895
0.022559 -0.143656 0.886590
0.024036 -0.143528 0.885798
0.025528 -0.143494 0.885593
0.027024 -0.143492 0.885576
0.028530 -0.143537 0.885857
0.030033 -0.143559 0.885990
0.031549 -0.143643 0.886509
0.033054 -0.143671 0.886684
0.034570 -0.143741 0.887116
0.036071 -0.143748 0.887159
0.037590 -0.143820 0.887605
0.039102 -0.143863 0.887869
0.040628 -0.143950 0.888406
0.042148 -0.144014 0.888801
0.043687 -0.144134 0.889541
0.045224 -0.144238 0.890184
0.046767 -0.144356 0.890908
0.048298 -0.144432 0.891381
0.049831 -0.144509 0.891852
0.051365 -0.144581 0.892301
0.052885 -0.144613 0.892497
0.054426 -0.144700 0.893031
0.055966 -0.144778 0.893513
0.057498 -0.144831 0.893840
0.059034 -0.144891 0.894215
0.060581 -0.144975 0.894733
0.062113 -0.145022 0.895022
0.063655 -0.145087 0.895424
0.065215 -0.145191 0.896064
0.066771 -0.145280 0.896612
0.068335 -0.145383 0.897248
0.069896 -0.145474 0.897812
0.071473 -0.145596 0.898562
0.073046 -0.145702 0.899221
0.074642 -0.145851 0.900137
0.076228 -0.145974 0.900893
0.077847 -0.146154 0.902010
0.079464 -0.146323 0.903052
0.081101 -0.146523 0.904285
0.082718 -0.146681 0.905257
0.084370 -0.146892 0.906562
0.086002 -0.147061 0.907608
0.087664 -0.147277 0.908936
0.089351 -0.147524 0.910462
0.091037 -0.147762 0.911933
0.092745 -0.148028 0.913575
0.094468 -0.148308 0.915299
0.096208 -0.148605 0.917135
0.097988 -0.148955 0.919295
0.004595 -0.142858 0.890990
0.006099 -0.142804 0.890651
0.007602 -0.142740 0.890251
0.009100 -0.142642 0.889638
0.010598 -0.142551 0.889074
0.012094 -0.142477 0.888610
0.013590 -0.142406 0.888169
0.015084 -0.142335 0.887728
0.016582 -0.142317 0.887611
0.018077 -0.142271 0.887329
0.019566 -0.142190 0.886820
0.021054 -0.142115 0.886350
0.022545 -0.142065 0.886040
0.024019 -0.141925 0.885171
0.025510 -0.141894 0.884976
0.027005 -0.141891 0.884953
0.028507 -0.141921 0.885144
0.030005 -0.141925 0.885168
0.031522 -0.142019 0.885756
0.033026 -0.142046 0.885926
0.034545 -0.142134 0.886473
0.036049 -0.142156 0.886611
0.037574 -0.142256 0.887235
0.039090 -0.142314 0.887593
0.040616 -0.142403 0.888147
0.042140 -0.142481 0.888633
0.043683 -0.142613 0.889460
0.045224 -0.142732 0.890199
0.046773 -0.142864 0.891026
0.048315 -0.142971 0.891689
0.049854 -0.143060 0.892249
0.051393 -0.143146 0.892786
0.052914 -0.143177 0.892976
0.054450 -0.143248 0.893417
0.055984 -0.143307 0.893789
0.057508 -0.143341 0.893998
0.059043 -0.143398 0.894352
0.060595 -0.143493 0.894947
0.062142 -0.143571 0.895434
0.063698 -0.143667 0.896030
0.065274 -0.143800 0.896865
0.066837 -0.143903 0.897505
0.068404 -0.144006 0.898149
0.069960 -0.144084 0.898634
0.071532 -0.144190 0.899295
0.073091 -0.144268 0.899781
0.074674 -0.144386 0.900519
0.076245 -0.144478 0.901091
0.077848 -0.144627 0.902017
0.079456 -0.144779 0.902968
0.081085 -0.144962 0.904107
0.082702 -0.145118 0.905081
0.084354 -0.145327 0.906384
0.085994 -0.145510 0.907527
0.087658 -0.145725 0.908868
0.089353 -0.145984 0.910484
0.091039 -0.146219 0.911949
0.092737 -0.146467 0.913495
0.094458 -0.146741 0.915204
0.096187 -0.147019 0.916937
0.097954 -0.147346 0.918978
0.099829 -0.149384 0.921944
0.099803 -0.147782 0.921699
0.004595 -0.141320 0.890810
0.006098 -0.141259 0.890428
0.007599 -0.141187 0.889974
0.009097 -0.141086 0.889338
0.010593 -0.140986 0.888707
0.012090 -0.140913 0.888250
0.013584 -0.140842 0.887800
0.015077 -0.140770 0.887348
0.016574 -0.140737 0.887139
0.018068 -0.140695 0.886874
0.019556 -0.140615 0.886366
0.021043 -0.140540 0.885893
0.022533 -0.140487 0.885561
0.024008 -0.140361 0.884767
0.025501 -0.140343 0.884656
0.026994 -0.140330 0.884574
0.028492 -0.140348 0.884683
0.029986 -0.140336 0.884612
0.031499 -0.140416 0.885112
0.032999 -0.140432 0.885217
0.034521 -0.140534 0.885859
0.036028 -0.140571 0.886090
0.037559 -0.140696 0.886879
0.039078 -0.140767 0.887326
0.040607 -0.140868 0.887965
0.042140 -0.140972 0.888619
0.043686 -0.141115 0.889522
0.045233 -0.141249 0.890362
0.046786 -0.141395 0.891284
0.048334 -0.141515 0.892042
0.049874 -0.141605 0.892609
0.051414 -0.141690 0.893148
0.052930 -0.141707 0.893255
0.054461 -0.141762 0.893599
0.055988 -0.141803 0.893860
0.057506 -0.141820 0.893967
0.059040 -0.141874 0.894307
0.060599 -0.141984 0.894997
0.062153 -0.142077 0.895587
0.063716 -0.142188 0.896286
0.065300 -0.142337 0.897223
0.066871 -0.142454 0.897958
0.068439 -0.142557 0.898611
0.069996 -0.142636 0.899105
0.071561 -0.142725 0.899667
0.073113 -0.142785 0.900046
0.074686 -0.142884 0.900672
0.076250 -0.142961 0.901155
0.077839 -0.143082 0.901919
0.079447 -0.143232 0.902862
0.081067 -0.143397 0.903903
0.082682 -0.143549 0.904861
0.084342 -0.143770 0.906253
0.085993 -0.143969 0.907512
0.087659 -0.144185 0.908874
0.089363 -0.144457 0.910589
0.091048 -0.144687 0.912039
0.092737 -0.144919 0.913498
0.094458 -0.145190 0.915206
0.096187 -0.145465 0.916943
0.097956 -0.145790 0.918988
0.099804 -0.146222 0.921711
0.004593 -0.139762 0.890505
0.006095 -0.139686 0.890024
0.007596 -0.139621 0.889610
0.009094 -0.139521 0.888972
0.010589 -0.139422 0.888344
0.012084 -0.139350 0.887881
0.013577 -0.139263 0.887329
0.015068 -0.139178 0.886787
0.016563 -0.139146 0.886581
0.018057 -0.139106 0.886330
0.019544 -0.139027 0.885824
0.021032 -0.138967 0.885440
0.022521 -0.138914 0.885101
0.023998 -0.138802 0.884391
0.025492 -0.138798 0.884365
0.026985 -0.138787 0.884293
0.028484 -0.138804 0.884402
0.029976 -0.138793 0.884334
0.031489 -0.138870 0.884822
0.032989 -0.138889 0.884947
0.034510 -0.138991 0.885594
0.036020 -0.139040 0.885908
0.037554 -0.139175 0.886764
0.039074 -0.139247 0.887225
0.040599 -0.139335 0.887788
0.042135 -0.139450 0.888522
0.043685 -0.139604 0.889502
0.045236 -0.139751 0.890435
0.046795 -0.139911 0.891457
0.048353 -0.140058 0.892391
0.049898 -0.140159 0.893037
0.051438 -0.140243 0.893571
0.052950 -0.140245 0.893586
0.054476 -0.140285 0.893839
0.055998 -0.140313 0.894017
0.057511 -0.140316 0.894039
0.059040 -0.140359 0.894311
0.060600 -0.140469 0.895015
0.062154 -0.140563 0.895611
0.063724 -0.140687 0.896401
0.065314 -0.140847 0.897419
0.066893 -0.140978 0.898253
0.068462 -0.141082 0.898917
0.070019 -0.141157 0.899396
0.071583 -0.141242 0.899935
0.073133 -0.141298 0.900293
0.074700 -0.141382 0.900832
0.076263 -0.141458 0.901315
0.077845 -0.141563 0.901983
0.079444 -0.141696 0.902828
0.081047 -0.141830 0.903683
0.082662 -0.141981 0.904643
0.084314 -0.142187 0.905960
0.085974 -0.142399 0.907311
0.087640 -0.142615 0.908684
0.089345 -0.142884 0.910399
0.091029 -0.143113 0.911857
0.092727 -0.143355 0.913401
0.094449 -0.143625 0.915121
0.096180 -0.143901 0.916877
0.097960 -0.144239 0.919030
0.099812 -0.144671 0.921786
0.003088 -0.138266 0.890596
0.004591 -0.138182 0.890055
0.006091 -0.138088 0.889448
0.007591 -0.138015 0.888978
0.009088 -0.137931 0.888436
0.010582 -0.137822 0.887735
0.012076 -0.137749 0.887261
0.013566 -0.137648 0.886611
0.015055 -0.137562 0.886057
0.016550 -0.137530 0.885857
0.018044 -0.137505 0.885696
0.019532 -0.137441 0.885283
0.021022 -0.137396 0.884989
0.022510 -0.137345 0.884662
0.023988 -0.137249 0.884045
0.025485 -0.137260 0.884116
0.026981 -0.137265 0.884145
0.028479 -0.137282 0.884254
0.029976 -0.137293 0.884326
0.031488 -0.137368 0.884810
0.032989 -0.137388 0.884940
0.034507 -0.137476 0.885507
0.036023 -0.137549 0.885973
0.037554 -0.137669 0.886750
0.039077 -0.137754 0.887299
0.040603 -0.137844 0.887875
0.042143 -0.137971 0.888692
0.043694 -0.138124 0.889677
0.045245 -0.138269 0.890613
0.046805 -0.138430 0.891648
0.048368 -0.138589 0.892675
0.049918 -0.138703 0.893408
0.051460 -0.138786 0.893943
0.052976 -0.138800 0.894034
0.054498 -0.138825 0.894197
0.056015 -0.138840 0.894293
0.057529 -0.138846 0.894329
0.059060 -0.138889 0.894610
0.060621 -0.139001 0.895327
0.062175 -0.139092 0.895913
0.063751 -0.139225 0.896774
0.065341 -0.139383 0.897788
0.066921 -0.139513 0.898627
0.068491 -0.139616 0.899293
0.070048 -0.139690 0.899766
0.071598 -0.139746 0.900129
0.073141 -0.139787 0.900392
0.074701 -0.139857 0.900845
0.076251 -0.139907 0.901164
0.077823 -0.139996 0.901736
0.079420 -0.140123 0.902558
0.081014 -0.140241 0.903314
0.082629 -0.140390 0.904276
0.084288 -0.140608 0.905680
0.085956 -0.140832 0.907120
0.087630 -0.141058 0.908577
0.089333 -0.141323 0.910284
0.091017 -0.141549 0.911739
0.092716 -0.141789 0.913287
0.094448 -0.142071 0.915105
0.096200 -0.142375 0.917059
0.098011 -0.142755 0.919508
0.099894 -0.143226 0.922546
0.102552 -0.146357 0.932526
0.101785 -0.143693 0.925552
0.001582 -0.136765 0.890652
0.003086 -0.136682 0.890111
0.004588 -0.136586 0.889486
0.006086 -0.136470 0.888730
0.007585 -0.136397 0.888252
0.009081 -0.136316 0.887726
0.010573 -0.136208 0.887023
0.012066 -0.136132 0.886530
0.013554 -0.136019 0.885793
0.015042 -0.135934 0.885237
0.016534 -0.135904 0.885041
0.018029 -0.135892 0.884964
0.019520 -0.135856 0.884733
0.021013 -0.135838 0.884612
0.022503 -0.135805 0.884400
0.023988 -0.135750 0.884042
0.025488 -0.135777 0.884218
0.026986 -0.135795 0.884335
0.028485 -0.135813 0.884448
0.029985 -0.135835 0.884598
0.031495 -0.135897 0.884999
0.032996 -0.135916 0.885121
0.034508 -0.135977 0.885522
0.036027 -0.136060 0.886060
0.037554 -0.136167 0.886756
0.039081 -0.136266 0.887401
0.040612 -0.136369 0.888075
0.042157 -0.136508 0.888978
0.043708 -0.136660 0.889966
0.045264 -0.136816 0.890982
0.046830 -0.136990 0.892113
0.048399 -0.137162 0.893234
0.049956 -0.137291 0.894079
0.051499 -0.137374 0.894620
0.053016 -0.137388 0.894708
0.054533 -0.137399 0.894778
0.056051 -0.137411 0.894860
0.057566 -0.137417 0.894897
0.059097 -0.137460 0.895178
0.060659 -0.137569 0.895886
0.062207 -0.137644 0.896374
0.063777 -0.137762 0.897144
0.065367 -0.137917 0.898152
0.066943 -0.138034 0.898917
0.068513 -0.138136 0.899578
0.070070 -0.138208 0.900046
0.071613 -0.138250 0.900319
0.073157 -0.138291 0.900589
0.074718 -0.138362 0.901053
0.076261 -0.138397 0.901281
0.077825 -0.138469 0.901750
0.079419 -0.138592 0.902548
0.081012 -0.138707 0.903295
0.082628 -0.138856 0.904270
0.084289 -0.139074 0.905687
0.085956 -0.139294 0.907120
0.087628 -0.139514 0.908556
0.089314 -0.139750 0.910090
0.090997 -0.139972 0.911537
0.092695 -0.140209 0.913080
0.094436 -0.140504 0.914998
0.096209 -0.140833 0.917145
0.098033 -0.141228 0.919712
0.099899 -0.141669 0.922585
0.101756 -0.142085 0.925295
0.103695 -0.144174 0.928648
0.103620 -0.142496 0.927975
0.105571 -0.144593 0.931348
0.105426 -0.142818 0.930073
0.001582 -0.135235 0.890520
0.003085 -0.135129 0.889820
0.004586 -0.135018 0.889092
0.006082 -0.134874 0.888138
0.007578 -0.134777 0.887501
0.009072 -0.134686 0.886900
0.010563 -0.134578 0.886191
0.012055 -0.134503 0.885696
0.013539 -0.134377 0.884868
0.015026 -0.134293 0.884315
0.016519 -0.134278 0.884215
0.018012 -0.134268 0.884151
0.019506 -0.134260 0.884095
0.021002 -0.134269 0.884159
0.022498 -0.134277 0.884212
0.023991 -0.134265 0.884129
0.025498 -0.134332 0.884570
0.027000 -0.134364 0.884785
0.028502 -0.134394 0.884982
0.030006 -0.134430 0.885217
0.031514 -0.134480 0.885545
0.033016 -0.134500 0.885675
0.034528 -0.134557 0.886054
0.036048 -0.134637 0.886583
0.037573 -0.134731 0.887196
0.039102 -0.134832 0.887861
0.040634 -0.134935 0.888539
0.042179 -0.135074 0.889455
0.043735 -0.135236 0.890523
0.045297 -0.135403 0.891621
0.046868 -0.135589 0.892849
0.048444 -0.135774 0.894069
0.050008 -0.135918 0.895015
0.051553 -0.136002 0.895567
0.053073 -0.136016 0.895658
0.054591 -0.136025 0.895721
0.056110 -0.136037 0.895799
0.057620 -0.136026 0.895729
0.059146 -0.136054 0.895912
0.060696 -0.136134 0.896438
0.062233 -0.136182 0.896751
0.063797 -0.136283 0.897419
0.065381 -0.136423 0.898343
0.066950 -0.136526 0.899021
0.068527 -0.136640 0.899770
0.070091 -0.136724 0.900324
0.071636 -0.136767 0.900608
0.073187 -0.136821 0.900960
0.074748 -0.136890 0.901413
0.076283 -0.136910 0.901551
0.077840 -0.136967 0.901925
0.079426 -0.137073 0.902623
0.081020 -0.137188 0.903381
0.082637 -0.137338 0.904367
0.084291 -0.137542 0.905710
0.085957 -0.137758 0.907135
0.087629 -0.137976 0.908567
0.089297 -0.138180 0.909912
0.090979 -0.138399 0.911353
0.092684 -0.138645 0.912972
0.094426 -0.138937 0.914896
0.096209 -0.139279 0.917149
0.098044 -0.139684 0.919815
0.099901 -0.140108 0.922604
0.101745 -0.140500 0.925191
0.103584 -0.140874 0.927650
0.105354 -0.141145 0.929437
0.001582 -0.133728 0.890537
0.003085 -0.133596 0.889658
0.004583 -0.133437 0.888597
0.006076 -0.133243 0.887307
0.007570 -0.133122 0.886498
0.009060 -0.133005 0.885718
0.010549 -0.132898 0.885011
0.012040 -0.132835 0.884591
0.013523 -0.132713 0.883779
0.015009 -0.132644 0.883319
0.016503 -0.132653 0.883377
0.017996 -0.132647 0.883335
0.019492 -0.132664 0.883447
0.020991 -0.132702 0.883702
0.022494 -0.132751 0.884027
0.023991 -0.132769 0.884148
0.025504 -0.132863 0.884772
0.027009 -0.132909 0.885084
0.028517 -0.132963 0.885441
0.030025 -0.133014 0.885783
0.031535 -0.133066 0.886129
0.033041 -0.133098 0.886339
0.034554 -0.133152 0.886701
0.036070 -0.133218 0.887138
0.037592 -0.133297 0.887665
0.039122 -0.133397 0.888331
0.040659 -0.133511 0.889091
0.042206 -0.133650 0.890013
0.043763 -0.133811 0.891085
0.045330 -0.133989 0.892273
0.046907 -0.134187 0.893593
0.048486 -0.134374 0.894840
0.050056 -0.134530 0.895879
0.051608 -0.134626 0.896513
0.053128 -0.134639 0.896601
0.054643 -0.134636 0.896583
0.056158 -0.134634 0.896566
0.057657 -0.134597 0.896320
0.059173 -0.134596 0.896317
0.060710 -0.134645 0.896643
0.062240 -0.134677 0.896855
0.063797 -0.134763 0.897428
0.065382 -0.134901 0.898349
0.066950 -0.135002 0.899021
0.068528 -0.135116 0.899776
0.070093 -0.135200 0.900340
0.071638 -0.135244 0.900630
0.073196 -0.135309 0.901065
0.074757 -0.135377 0.901519
0.076292 -0.135397 0.901652
0.077848 -0.135453 0.902020
0.079435 -0.135558 0.902721
0.081029 -0.135672 0.903479
0.082647 -0.135821 0.904476
0.084294 -0.136012 0.905746
0.085959 -0.136223 0.907150
0.087621 -0.136423 0.908481
0.089271 -0.136597 0.909644
0.090952 -0.136814 0.911082
0.092665 -0.137069 0.912786
0.094408 -0.137360 0.914719
0.096210 -0.137726 0.917158
0.098044 -0.138126 0.919822
0.099881 -0.138516 0.922418
0.101710 -0.138885 0.924876
0.103524 -0.139222 0.927121
0.105273 -0.139462 0.928719
0.001581 -0.132146 0.890047
0.003083 -0.132007 0.889110
0.004579 -0.131813 0.887803
0.006070 -0.131593 0.886324
0.007560 -0.131455 0.885395
0.009048 -0.131325 0.884520
0.010535 -0.131220 0.883812
0.012025 -0.131173 0.883496
0.013509 -0.131078 0.882855
0.014996 -0.131036 0.882572
0.016490 -0.131048 0.882653
0.017983 -0.131053 0.882685
0.019479 -0.131083 0.882891
0.020980 -0.131134 0.883232
0.022487 -0.131213 0.883761
0.023991 -0.131272 0.884160
0.025508 -0.131382 0.884902
0.027018 -0.131452 0.885373
0.028532 -0.131530 0.885895
0.030044 -0.131594 0.886333
0.031556 -0.131650 0.886706
0.033066 -0.131695 0.887013
0.034580 -0.131748 0.887369
0.036097 -0.131811 0.887788
0.037617 -0.131877 0.888236
0.039150 -0.131985 0.888966
0.040692 -0.132111 0.889815
0.042244 -0.132260 0.890815
0.043799 -0.132409 0.891819
0.045372 -0.132599 0.893102
0.046943 -0.132772 0.894265
0.048517 -0.132944 0.895425
0.050079 -0.133072 0.896282
0.051625 -0.133152 0.896822
0.053141 -0.133151 0.896819
0.054656 -0.133149 0.896803
0.056172 -0.133148 0.896798
0.057672 -0.133110 0.896540
0.059191 -0.133118 0.896597
0.060722 -0.133153 0.896827
0.062252 -0.133182 0.897023
0.063803 -0.133253 0.897501
0.065386 -0.133388 0.898415
0.066949 -0.133477 0.899009
0.068533 -0.133600 0.899843
0.070105 -0.133698 0.900499
0.071645 -0.133731 0.900724
0.073204 -0.133797 0.901167
0.074764 -0.133863 0.901612
0.076293 -0.133870 0.901660
0.077842 -0.133913 0.901949
0.079436 -0.134029 0.902733
0.081030 -0.134143 0.903495
0.082649 -0.134291 0.904492
0.084295 -0.134477 0.905749
0.085958 -0.134684 0.907144
0.087610 -0.134866 0.908369
0.089259 -0.135038 0.909527
0.090940 -0.135252 0.910966
0.092655 -0.135507 0.912685
0.094398 -0.135795 0.914627
0.096210 -0.136171 0.917158
0.098025 -0.136540 0.919640
0.099829 -0.136882 0.921943
0.101644 -0.137228 0.924277
0.103426 -0.137519 0.926237
0.105143 -0.137718 0.927575
0.000077 -0.130597 0.889776
0.001580 -0.130496 0.889085
0.003079 -0.130355 0.888126
0.004573 -0.130150 0.886728
0.006062 -0.129920 0.885161
0.007551 -0.129791 0.884285
0.009037 -0.129662 0.883406
0.010524 -0.129583 0.882865
0.012013 -0.129553 0.882659
0.013499 -0.129488 0.882217
0.014987 -0.129461 0.882035
0.016480 -0.129474 0.882121
0.017972 -0.129477 0.882145
0.019467 -0.129507 0.882344
0.020969 -0.129569 0.882767
0.022480 -0.129674 0.883485
0.023991 -0.129772 0.884155
0.025511 -0.129897 0.885004
0.027028 -0.130002 0.885719
0.028548 -0.130104 0.886412
0.030062 -0.130170 0.886867
0.031576 -0.130229 0.887267
0.033090 -0.130285 0.887647
0.034604 -0.130337 0.888001
0.036119 -0.130387 0.888344
0.037644 -0.130465 0.888877
0.039182 -0.130585 0.889694
0.040729 -0.130723 0.890631
0.042283 -0.130872 0.891648
0.043844 -0.131033 0.892744
0.045419 -0.131220 0.894020
0.046985 -0.131375 0.895077
0.048556 -0.131531 0.896139
0.050108 -0.131628 0.896798
0.051644 -0.131679 0.897147
0.053155 -0.131664 0.897044
0.054670 -0.131662 0.897028
0.056187 -0.131663 0.897035
0.057693 -0.131639 0.896873
0.059214 -0.131648 0.896936
0.060739 -0.131669 0.897078
0.062269 -0.131696 0.897263
0.063814 -0.131755 0.897665
0.065393 -0.131878 0.898499
0.066961 -0.131976 0.899168
0.068545 -0.132099 0.900008
0.070118 -0.132197 0.900671
0.071665 -0.132241 0.900975
0.073225 -0.132306 0.901420
0.074778 -0.132360 0.901782
0.076314 -0.132379 0.901915
0.077857 -0.132409 0.902119
0.079444 -0.132513 0.902825
0.081045 -0.132636 0.903663
0.082664 -0.132781 0.904656
0.084302 -0.132953 0.905823
0.085965 -0.133157 0.907215
0.087607 -0.133322 0.908340
0.089248 -0.133479 0.909410
0.090928 -0.133689 0.910839
0.092644 -0.133944 0.912578
0.094388 -0.134231 0.914533
0.096200 -0.134603 0.917064
0.097995 -0.134939 0.919354
0.099765 -0.135232 0.921355
0.101556 -0.135543 0.923474
0.103313 -0.135801 0.925228
0.105020 -0.135986 0.926487
0.106837 -0.137880 0.928670
0.106718 -0.136154 0.927636
0.000077 -0.128954 0.888842
0.001578 -0.128863 0.888215
0.003076 -0.128732 0.887311
0.004569 -0.128509 0.885779
0.006056 -0.128295 0.884304
0.007544 -0.128171 0.883446
0.009029 -0.128055 0.882646
0.010515 -0.127981 0.882137
0.012005 -0.127966 0.882035
0.013492 -0.127929 0.881780
0.014981 -0.127917 0.881694
0.016474 -0.127929 0.881780
0.017964 -0.127931 0.881795
0.019459 -0.127956 0.881969
0.020958 -0.128007 0.882318
0.022470 -0.128122 0.883110
0.023982 -0.128223 0.883806
0.025501 -0.128347 0.884662
0.027021 -0.128464 0.885470
0.028546 -0.128590 0.886333
0.030063 -0.128670 0.886889
0.031583 -0.128754 0.887465
0.033106 -0.128844 0.888088
0.034628 -0.128920 0.888607
0.036145 -0.128971 0.888965
0.037678 -0.129075 0.889677
0.039226 -0.129222 0.890690
0.040780 -0.129373 0.891733
0.042341 -0.129537 0.892861
0.043908 -0.129707 0.894035
0.045475 -0.129867 0.895139
0.047029 -0.129979 0.895910
0.048585 -0.130090 0.896672
0.050121 -0.130143 0.897038
0.051647 -0.130166 0.897201
0.053157 -0.130149 0.897081
0.054673 -0.130147 0.897069
0.056190 -0.130149 0.897083
0.057703 -0.130140 0.897023
0.059225 -0.130153 0.897112
0.060752 -0.130176 0.897267
0.062289 -0.130217 0.897554
0.063835 -0.130275 0.897952
0.065413 -0.130396 0.898784
0.066989 -0.130506 0.899543
0.068567 -0.130615 0.900297
0.070141 -0.130712 0.900959
0.071695 -0.130768 0.901350
0.073248 -0.130821 0.901711
0.074801 -0.130871 0.902056
0.076337 -0.130889 0.902181
0.077879 -0.130918 0.902379
0.079460 -0.131008 0.903005
0.081061 -0.131129 0.903837
0.082671 -0.131260 0.904741
0.084309 -0.131428 0.905899
0.085965 -0.131620 0.907220
0.087607 -0.131783 0.908344
0.089256 -0.131950 0.909496
0.090945 -0.132170 0.911011
0.092671 -0.132435 0.912841
0.094417 -0.132721 0.914807
0.096219 -0.133074 0.917241
0.097992 -0.133376 0.919327
0.099729 -0.133621 0.921016
0.101476 -0.133872 0.922746
0.103199 -0.134084 0.924205
0.104891 -0.134250 0.925348
0.106582 -0.134410 0.926449
0.108405 -0.136303 0.928650
0.108398 -0.134720 0.928588
-0.001427 -0.127491 0.889151
0.000076 -0.127363 0.888256
0.001577 -0.127262 0.887556
0.003074 -0.127129 0.886625
0.004565 -0.126896 0.885001
0.006051 -0.126690 0.883563
0.007538 -0.126583 0.882818
0.009023 -0.126482 0.882115
0.010510 -0.126423 0.881700
0.011999 -0.126411 0.881614
0.013488 -0.126398 0.881528
0.014979 -0.126398 0.881526
0.016470 -0.126410 0.881608
0.017961 -0.126411 0.881620
0.019455 -0.126435 0.881783
0.020952 -0.126472 0.882041
0.022459 -0.126561 0.882662
0.023967 -0.126647 0.883261
0.025482 -0.126756 0.884022
0.027004 -0.126884 0.884918
0.028534 -0.127035 0.885969
0.030057 -0.127144 0.886727
0.031583 -0.127251 0.887473
0.033113 -0.127364 0.888265
0.034638 -0.127452 0.888875
0.036160 -0.127518 0.889338
0.037702 -0.127649 0.890253
0.039264 -0.127834 0.891540
0.040828 -0.128013 0.892787
0.042396 -0.128189 0.894020
0.043961 -0.128347 0.895118
0.045524 -0.128487 0.896099
0.047065 -0.128558 0.896589
0.048606 -0.128625 0.897060
0.050132 -0.128651 0.897239
0.051652 -0.128658 0.897289
0.053157 -0.128629 0.897086
0.054673 -0.128628 0.897076
0.056191 -0.128631 0.897102
0.057710 -0.128636 0.897133
0.059238 -0.128661 0.897313
0.060773 -0.128699 0.897575
0.062317 -0.128753 0.897952
0.063864 -0.128811 0.898357
0.065443 -0.128931 0.899189
0.067019 -0.129038 0.899940
0.068591 -0.129135 0.900614
0.070160 -0.129219 0.901200
0.071713 -0.129273 0.901575
0.073266 -0.129323 0.901924
0.074820 -0.129373 0.902279
0.076355 -0.129390 0.902395
0.077904 -0.129430 0.902674
0.079492 -0.129530 0.903373
0.081087 -0.129638 0.904125
0.082690 -0.129755 0.904940
0.084328 -0.129922 0.906104
0.085975 -0.130097 0.907324
0.087603 -0.130236 0.908294
0.089258 -0.130412 0.909521
0.090948 -0.130631 0.911047
0.092675 -0.130894 0.912884
0.094422 -0.131176 0.914853
0.096221 -0.131522 0.917262
0.097972 -0.131792 0.919146
0.099687 -0.132004 0.920627
0.101399 -0.132208 0.922047
0.103086 -0.132373 0.923196
0.104827 -0.132600 0.924784
0.106629 -0.132898 0.926858
-0.002928 -0.125906 0.888599
-0.001426 -0.125881 0.888422
0.000076 -0.125744 0.887455
0.001575 -0.125616 0.886556
0.003070 -0.125464 0.885480
0.004560 -0.125271 0.884119
0.006046 -0.125096 0.882882
0.007534 -0.125016 0.882317
0.009021 -0.124952 0.881869
0.010509 -0.124916 0.881614
0.011997 -0.124893 0.881449
0.013487 -0.124890 0.881433
0.014977 -0.124889 0.881426
0.016465 -0.124879 0.881354
0.017956 -0.124880 0.881363
0.019449 -0.124903 0.881526
0.020944 -0.124927 0.881694
0.022445 -0.124990 0.882138
0.023952 -0.125068 0.882689
0.025463 -0.125161 0.883341
0.026986 -0.125299 0.884315
0.028515 -0.125452 0.885397
0.030045 -0.125587 0.886350
0.031579 -0.125732 0.887371
0.033116 -0.125871 0.888353
0.034649 -0.125985 0.889155
0.036182 -0.126089 0.889895
0.037733 -0.126245 0.890992
0.039301 -0.126442 0.892387
0.040872 -0.126634 0.893741
0.042441 -0.126811 0.894985
0.044012 -0.126978 0.896164
0.045573 -0.127104 0.897053
0.047109 -0.127158 0.897435
0.048641 -0.127197 0.897712
0.050159 -0.127196 0.897704
0.051664 -0.127167 0.897501
0.053165 -0.127128 0.897222
0.054676 -0.127115 0.897133
0.056194 -0.127117 0.897148
0.057723 -0.127144 0.897336
0.059263 -0.127194 0.897688
0.060806 -0.127246 0.898057
0.062357 -0.127313 0.898529
0.063910 -0.127382 0.899016
0.065477 -0.127474 0.899668
0.067048 -0.127568 0.900327
0.068621 -0.127663 0.901001
0.070189 -0.127744 0.901575
0.071743 -0.127798 0.901955
0.073296 -0.127847 0.902302
0.074851 -0.127898 0.902659
0.076380 -0.127903 0.902695
0.077931 -0.127944 0.902985
0.079519 -0.128043 0.903681
0.081115 -0.128151 0.904444
0.082717 -0.128264 0.905245
0.084363 -0.128440 0.906485
0.086002 -0.128599 0.907610
0.087629 -0.128736 0.908574
0.089295 -0.128922 0.909889
0.090987 -0.129141 0.911436
0.092707 -0.129392 0.913203
0.094454 -0.129670 0.915163
0.096233 -0.129984 0.917382
0.097954 -0.130209 0.918972
0.099637 -0.130379 0.920171
0.101316 -0.130538 0.921293
0.102968 -0.130658 0.922137
0.104764 -0.130954 0.924231
0.106674 -0.131382 0.927246
-0.002927 -0.124342 0.888189
-0.001424 -0.124276 0.887717
0.000076 -0.124136 0.886718
0.001574 -0.124001 0.885751
0.003067 -0.123841 0.884607
0.004556 -0.123675 0.883424
0.006043 -0.123539 0.882451
0.007532 -0.123485 0.882065
0.009020 -0.123446 0.881789
0.010508 -0.123410 0.881534
0.011994 -0.123374 0.881275
0.013483 -0.123359 0.881165
0.014971 -0.123344 0.881061
0.016457 -0.123324 0.880914
0.017947 -0.123325 0.880926
0.019440 -0.123349 0.881095
0.020933 -0.123372 0.881260
0.022432 -0.123421 0.881607
0.023934 -0.123483 0.882052
0.025443 -0.123569 0.882668
0.026967 -0.123716 0.883715
0.028500 -0.123883 0.884908
0.030037 -0.124055 0.886139
0.031582 -0.124237 0.887438
0.033129 -0.124413 0.888693
0.034673 -0.124564 0.889775
0.036216 -0.124695 0.890712
0.037776 -0.124874 0.891992
0.039349 -0.125082 0.893475
0.040921 -0.125270 0.894816
0.042484 -0.125420 0.895890
0.044056 -0.125584 0.897058
0.045610 -0.125686 0.897787
0.047148 -0.125740 0.898176
0.048673 -0.125757 0.898294
0.050190 -0.125753 0.898264
0.051696 -0.125723 0.898050
0.053202 -0.125695 0.897851
0.054715 -0.125683 0.897770
0.056239 -0.125697 0.897869
0.057774 -0.125734 0.898129
0.059316 -0.125784 0.898486
0.060855 -0.125826 0.898790
0.062403 -0.125882 0.899191
0.063950 -0.125936 0.899575
0.065504 -0.126000 0.900034
0.067067 -0.126078 0.900589
0.068634 -0.126160 0.901174
0.070196 -0.126229 0.901667
0.071757 -0.126293 0.902128
0.073317 -0.126354 0.902561
0.074874 -0.126407 0.902937
0.076412 -0.126426 0.903076
0.077971 -0.126478 0.903449
0.079561 -0.126577 0.904153
0.081158 -0.126684 0.904920
0.082754 -0.126786 0.905645
0.084399 -0.126957 0.906866
0.086029 -0.127100 0.907892
0.087655 -0.127233 0.908836
0.089322 -0.127419 0.910169
0.091024 -0.127648 0.911802
0.092738 -0.127886 0.913501
0.094482 -0.128157 0.915442
0.096243 -0.128441 0.917470
0.097943 -0.128637 0.918869
0.099605 -0.128778 0.919875
0.101263 -0.128908 0.920805
0.102961 -0.129085 0.922071
0.104868 -0.129516 0.925150
0.106913 -0.130101 0.929329
0.109187 -0.130944 0.935349
-0.004430 -0.122894 0.888605
-0.002926 -0.122823 0.888092
-0.001424 -0.122723 0.887369
0.000076 -0.122574 0.886293
0.001573 -0.122431 0.885255
0.003065 -0.122274 0.884120
0.004554 -0.122123 0.883031
0.006042 -0.122014 0.882239
0.007531 -0.121975 0.881961
0.009020 -0.121950 0.881780
0.010507 -0.121904 0.881449
0.011992 -0.121855 0.881094
0.013478 -0.121826 0.880885
0.014964 -0.121799 0.880686
0.016449 -0.121766 0.880451
0.017937 -0.121767 0.880460
0.019429 -0.121790 0.880620
0.020922 -0.121814 0.880799
0.022418 -0.121852 0.881071
0.023920 -0.121913 0.881514
0.025430 -0.122010 0.882211
0.026954 -0.122156 0.883271
0.028489 -0.122334 0.884557
0.030034 -0.122540 0.886045
0.031588 -0.122756 0.887606
0.033146 -0.122969 0.889151
0.034706 -0.123171 0.890610
0.036261 -0.123339 0.891820
0.037827 -0.123530 0.893202
0.039401 -0.123732 0.894662
0.040970 -0.123902 0.895894
0.042530 -0.124034 0.896848
0.044095 -0.124173 0.897855
0.045646 -0.124263 0.898505
0.047182 -0.124308 0.898828
0.048703 -0.124311 0.898855
0.050221 -0.124308 0.898828
0.051733 -0.124288 0.898685
0.053240 -0.124261 0.898492
0.054755 -0.124251 0.898415
0.056280 -0.124264 0.898514
0.057810 -0.124289 0.898695
0.059354 -0.124340 0.899061
0.060901 -0.124395 0.899460
0.062443 -0.124438 0.899772
0.063984 -0.124477 0.900050
0.065536 -0.124534 0.900466
0.067085 -0.124585 0.900830
0.068639 -0.124641 0.901240
0.070202 -0.124711 0.901742
0.071763 -0.124774 0.902202
0.073324 -0.124836 0.902649
0.074889 -0.124901 0.903115
0.076435 -0.124933 0.903347
0.078011 -0.125010 0.903905
0.079609 -0.125121 0.904707
0.081200 -0.125215 0.905390
0.082796 -0.125315 0.906109
0.084433 -0.125470 0.907233
0.086048 -0.125590 0.908096
0.087674 -0.125719 0.909034
0.089358 -0.125926 0.910530
0.091062 -0.126155 0.912187
0.092776 -0.126389 0.913879
0.094521 -0.126657 0.915814
0.096260 -0.126908 0.917633
0.097930 -0.127063 0.918748
0.099580 -0.127186 0.919641
0.101226 -0.127302 0.920475
0.102969 -0.127533 0.922150
0.104984 -0.128089 0.926172
0.107112 -0.128765 0.931056
0.109374 -0.129581 0.936953
0.111322 -0.131599 0.940026
0.111492 -0.130204 0.941461
-0.005934 -0.121417 0.888822
-0.004429 -0.121352 0.888345
-0.002925 -0.121265 0.887706
-0.001423 -0.121156 0.886908
0.000076 -0.120994 0.885722
0.001572 -0.120840 0.884597
0.003063 -0.120685 0.883461
0.004552 -0.120561 0.882551
0.006039 -0.120467 0.881869
0.007529 -0.120444 0.881700
0.009019 -0.120444 0.881694
0.010506 -0.120398 0.881360
0.011990 -0.120337 0.880914
0.013474 -0.120294 0.880597
0.014958 -0.120254 0.880309
0.016440 -0.120209 0.879978
0.017929 -0.120221 0.880063
0.019422 -0.120254 0.880309
0.020917 -0.120291 0.880576
0.022415 -0.120341 0.880946
0.023919 -0.120417 0.881497
0.025433 -0.120526 0.882298
0.026960 -0.120685 0.883460
0.028498 -0.120873 0.884838
0.030050 -0.121100 0.886501
0.031611 -0.121339 0.888248
0.033177 -0.121576 0.889986
0.034746 -0.121803 0.891645
0.036311 -0.121996 0.893057
0.037880 -0.122187 0.894453
0.039452 -0.122373 0.895818
0.041014 -0.122514 0.896854
0.042566 -0.122617 0.897608
0.044123 -0.122729 0.898425
0.045670 -0.122805 0.898981
0.047207 -0.122848 0.899298
0.048729 -0.122852 0.899323
0.050248 -0.122848 0.899298
0.051760 -0.122830 0.899162
0.053269 -0.122805 0.898980
0.054785 -0.122796 0.898917
0.056311 -0.122811 0.899021
0.057848 -0.122847 0.899286
0.059398 -0.122909 0.899739
0.060947 -0.122963 0.900137
0.062490 -0.123005 0.900446
0.064029 -0.123039 0.900694
0.065569 -0.123070 0.900922
0.067105 -0.123095 0.901102
0.068652 -0.123137 0.901413
0.070215 -0.123205 0.901909
0.071777 -0.123269 0.902376
0.073346 -0.123343 0.902918
0.074919 -0.123419 0.903478
0.076482 -0.123476 0.903895
0.078059 -0.123554 0.904464
0.079660 -0.123666 0.905281
0.081250 -0.123757 0.905951
0.082847 -0.123854 0.906660
0.084468 -0.123984 0.907610
0.086075 -0.124088 0.908373
0.087701 -0.124217 0.909319
0.089386 -0.124423 0.910823
0.091085 -0.124639 0.912410
0.092790 -0.124858 0.914013
0.094533 -0.125120 0.915928
0.096250 -0.125341 0.917543
0.097908 -0.125478 0.918545
0.099556 -0.125597 0.919421
0.101242 -0.125761 0.920616
0.103045 -0.126063 0.922829
0.105124 -0.126688 0.927407
0.107279 -0.127385 0.932509
0.109448 -0.128079 0.937587
0.111458 -0.128568 0.941171
-0.007441 -0.119986 0.889384
-0.005933 -0.119884 0.888628
-0.004428 -0.119819 0.888143
-0.002924 -0.119716 0.887380
-0.001422 -0.119587 0.886421
0.000076 -0.119406 0.885084
0.001570 -0.119244 0.883878
0.003061 -0.119091 0.882749
0.004549 -0.118992 0.882013
0.006037 -0.118925 0.881513
0.007527 -0.118916 0.881449
0.009018 -0.118938 0.881614
0.010506 -0.118903 0.881354
0.011991 -0.118853 0.880985
0.013474 -0.118799 0.880586
0.014956 -0.118748 0.880208
0.016436 -0.118691 0.879783
0.017925 -0.118702 0.879862
0.019415 -0.118715 0.879961
0.020911 -0.118764 0.880319
0.022413 -0.118837 0.880865
0.023922 -0.118936 0.881596
0.025439 -0.119059 0.882509
0.026972 -0.119241 0.883857
0.028513 -0.119439 0.885329
0.030072 -0.119686 0.887156
0.031640 -0.119946 0.889084
0.033216 -0.120207 0.891021
0.034794 -0.120458 0.892879
0.036368 -0.120672 0.894468
0.037936 -0.120850 0.895786
0.039503 -0.121012 0.896983
0.041058 -0.121124 0.897819
0.042607 -0.121213 0.898478
0.044161 -0.121310 0.899195
0.045705 -0.121372 0.899656
0.047241 -0.121411 0.899941
0.048763 -0.121412 0.899951
0.050278 -0.121397 0.899842
0.051788 -0.121371 0.899646
0.053303 -0.121359 0.899557
0.054826 -0.121362 0.899578
0.056358 -0.121388 0.899770
0.057902 -0.121435 0.900121
0.059454 -0.121496 0.900575
0.060997 -0.121538 0.900886
0.062536 -0.121568 0.901106
0.064065 -0.121579 0.901190
0.065586 -0.121575 0.901157
0.067115 -0.121585 0.901231
0.068655 -0.121614 0.901446
0.070210 -0.121668 0.901847
0.071779 -0.121743 0.902402
0.073356 -0.121828 0.903037
0.074937 -0.121917 0.903693
0.076516 -0.121998 0.904295
0.078102 -0.122088 0.904963
0.079705 -0.122200 0.905790
0.081304 -0.122301 0.906544
0.082899 -0.122394 0.907228
0.084512 -0.122509 0.908082
0.086111 -0.122600 0.908758
0.087754 -0.122749 0.909864
0.089433 -0.122943 0.911297
0.091133 -0.123158 0.912893
0.092831 -0.123364 0.914419
0.094571 -0.123618 0.916302
0.096251 -0.123786 0.917551
0.097907 -0.123919 0.918534
0.099546 -0.124027 0.919331
0.101255 -0.124216 0.920736
0.103106 -0.124572 0.923375
0.105148 -0.125144 0.927613
0.107262 -0.125785 0.932362
0.109373 -0.126402 0.936938
0.111320 -0.126816 0.940006
-0.008946 -0.118495 0.889505
-0.007439 -0.118450 0.889169
-0.005932 -0.118358 0.888479
-0.004427 -0.118289 0.887962
-0.002923 -0.118168 0.887050
-0.001422 -0.118024 0.885968
0.000076 -0.117845 0.884630
0.001569 -0.117686 0.883430
0.003059 -0.117536 0.882305
0.004547 -0.117438 0.881568
0.006034 -0.117383 0.881159
0.007524 -0.117387 0.881186
0.009017 -0.117422 0.881449
0.010505 -0.117399 0.881281
0.011992 -0.117372 0.881080
0.013474 -0.117310 0.880613
0.014955 -0.117249 0.880152
0.016435 -0.117190 0.879710
0.017924 -0.117200 0.879783
0.019412 -0.117204 0.879812
0.020910 -0.117265 0.880270
0.022416 -0.117359 0.880981
0.023930 -0.117479 0.881876
0.025452 -0.117625 0.882974
0.026991 -0.117828 0.884501
0.028542 -0.118059 0.886231
0.030109 -0.118327 0.888247
0.031680 -0.118587 0.890200
0.033261 -0.118858 0.892234
0.034844 -0.119116 0.894168
0.036421 -0.119330 0.895771
0.037995 -0.119515 0.897165
0.039564 -0.119675 0.898364
0.041117 -0.119775 0.899113
0.042664 -0.119849 0.899673
0.044211 -0.119921 0.900208
0.045743 -0.119948 0.900414
0.047275 -0.119973 0.900599
0.048798 -0.119972 0.900596
0.050314 -0.119958 0.900485
0.051830 -0.119943 0.900376
0.053352 -0.119943 0.900376
0.054881 -0.119958 0.900485
0.056415 -0.119983 0.900679
0.057955 -0.120020 0.900953
0.059503 -0.120069 0.901321
0.061042 -0.120099 0.901545
0.062574 -0.120115 0.901667
0.064093 -0.120104 0.901584
0.065608 -0.120088 0.901463
0.067124 -0.120074 0.901356
0.068655 -0.120087 0.901454
0.070203 -0.120127 0.901760
0.071773 -0.120203 0.902327
0.073358 -0.120301 0.903066
0.074955 -0.120414 0.903908
0.076549 -0.120518 0.904689
0.078146 -0.120621 0.905469
0.079757 -0.120743 0.906383
0.081357 -0.120843 0.907134
0.082944 -0.120922 0.907725
0.084542 -0.121013 0.908404
0.086139 -0.121099 0.909053
0.087774 -0.121235 0.910075
0.089445 -0.121415 0.911423
0.091146 -0.121628 0.913024
0.092842 -0.121828 0.914529
0.094573 -0.122067 0.916318
0.096251 -0.122231 0.917551
0.097927 -0.122386 0.918718
0.099597 -0.122531 0.919803
0.101343 -0.122762 0.921534
0.103225 -0.123149 0.924442
0.105214 -0.123649 0.928196
0.107238 -0.124176 0.932150
0.109244 -0.124667 0.935838
0.111117 -0.124994 0.938293
0.113122 -0.127056 0.941784
0.112782 -0.125082 0.938953
-0.010452 -0.117007 0.889654
-0.008945 -0.116970 0.889377
-0.007438 -0.116915 0.888958
-0.005930 -0.116825 0.888276
-0.004426 -0.116750 0.887706
-0.002922 -0.116617 0.886693
-0.001421 -0.116485 0.885690
0.000076 -0.116309 0.884353
0.001569 -0.116141 0.883076
0.003058 -0.115993 0.881950
0.004545 -0.115895 0.881202
0.006031 -0.115830 0.880710
0.007521 -0.115845 0.880820
0.009013 -0.115882 0.881100
0.010502 -0.115873 0.881032
0.011990 -0.115860 0.880935
0.013473 -0.115811 0.880567
0.014954 -0.115752 0.880111
0.016437 -0.115712 0.879812
0.017927 -0.115732 0.879963
0.019417 -0.115747 0.880079
0.020918 -0.115819 0.880625
0.022429 -0.115934 0.881495
0.023948 -0.116075 0.882570
0.025477 -0.116243 0.883851
0.027024 -0.116469 0.885569
0.028583 -0.116722 0.887486
0.030155 -0.117000 0.889603
0.031732 -0.117269 0.891653
0.033316 -0.117540 0.893707
0.034902 -0.117793 0.895636
0.036480 -0.118002 0.897222
0.038056 -0.118186 0.898618
0.039621 -0.118323 0.899661
0.041172 -0.118409 0.900316
0.042716 -0.118470 0.900777
0.044261 -0.118528 0.901223
0.045787 -0.118534 0.901267
0.047316 -0.118548 0.901371
0.048839 -0.118546 0.901357
0.050356 -0.118529 0.901231
0.051868 -0.118505 0.901043
0.053392 -0.118505 0.901043
0.054921 -0.118518 0.901148
0.056452 -0.118534 0.901266
0.057988 -0.118559 0.901461
0.059530 -0.118596 0.901736
0.061068 -0.118621 0.901930
0.062600 -0.118635 0.902039
0.064113 -0.118612 0.901863
0.065621 -0.118583 0.901643
0.067129 -0.118554 0.901420
0.068652 -0.118553 0.901413
0.070193 -0.118582 0.901635
0.071764 -0.118658 0.902213
0.073350 -0.118757 0.902963
0.074962 -0.118893 0.903994
0.076565 -0.119009 0.904877
0.078171 -0.119125 0.905759
0.079791 -0.119258 0.906774
0.081400 -0.119369 0.907615
0.082989 -0.119447 0.908212
0.084586 -0.119535 0.908877
0.086184 -0.119620 0.909524
0.087811 -0.119742 0.910455
0.089473 -0.119906 0.911702
0.091164 -0.120105 0.913209
0.092849 -0.120287 0.914599
0.094572 -0.120512 0.916305
0.096260 -0.120687 0.917636
0.097958 -0.120867 0.919009
0.099661 -0.121050 0.920395
0.101442 -0.121319 0.922439
0.103286 -0.121654 0.924987
0.105181 -0.122038 0.927909
0.107112 -0.122453 0.931062
0.109006 -0.122813 0.933801
0.110812 -0.123065 0.935721
0.112471 -0.123149 0.936360
-0.011961 -0.115554 0.890081
-0.010453 -0.115511 0.889753
-0.008944 -0.115460 0.889357
-0.007437 -0.115391 0.888825
-0.005929 -0.115295 0.888088
-0.004424 -0.115189 0.887271
-0.002920 -0.115057 0.886252
-0.001420 -0.114937 0.885326
0.000076 -0.114764 0.883995
0.001568 -0.114589 0.882647
0.003057 -0.114452 0.881595
0.004543 -0.114353 0.880830
0.006028 -0.114276 0.880240
0.007517 -0.114291 0.880353
0.009008 -0.114328 0.880641
0.010497 -0.114332 0.880666
0.011986 -0.114331 0.880664
0.013471 -0.114296 0.880392
0.014953 -0.114249 0.880026
0.016438 -0.114232 0.879898
0.017931 -0.114263 0.880137
0.019425 -0.114301 0.880427
0.020931 -0.114395 0.881152
0.022449 -0.114542 0.882286
0.023975 -0.114705 0.883542
0.025511 -0.114897 0.885018
0.027063 -0.115135 0.886855
0.028630 -0.115408 0.888955
0.030211 -0.115707 0.891256
0.031794 -0.115986 0.893411
0.033384 -0.116264 0.895547
0.034973 -0.116514 0.897478
0.036551 -0.116708 0.898969
0.038124 -0.116869 0.900208
0.039683 -0.116980 0.901067
0.041229 -0.117045 0.901565
0.042766 -0.117078 0.901821
0.044303 -0.117113 0.902088
0.045821 -0.117093 0.901939
0.047346 -0.117096 0.901956
0.048866 -0.117083 0.901857
0.050384 -0.117068 0.901743
0.051898 -0.117043 0.901553
0.053422 -0.117043 0.901553
0.054952 -0.117056 0.901652
0.056483 -0.117070 0.901757
0.058019 -0.117094 0.901940
0.059556 -0.117117 0.902119
0.061087 -0.117129 0.902212
0.062618 -0.117140 0.902301
0.064125 -0.117105 0.902030
0.065621 -0.117054 0.901636
0.067120 -0.117011 0.901306
0.068642 -0.117008 0.901277
0.070175 -0.117024 0.901404
0.071747 -0.117101 0.902000
0.073340 -0.117211 0.902843
0.074966 -0.117366 0.904042
0.076585 -0.117506 0.905115
0.078201 -0.117635 0.906109
0.079832 -0.117781 0.907234
0.081456 -0.117912 0.908246
0.083046 -0.117990 0.908846
0.084638 -0.118066 0.909434
0.086237 -0.118151 0.910088
0.087864 -0.118270 0.911004
0.089501 -0.118398 0.911988
0.091179 -0.118576 0.913359
0.092864 -0.118756 0.914743
0.094587 -0.118978 0.916456
0.096280 -0.119156 0.917829
0.098018 -0.119383 0.919579
0.099748 -0.119593 0.921190
0.101552 -0.119885 0.923439
0.103359 -0.120170 0.925635
0.105173 -0.120455 0.927833
0.106994 -0.120740 0.930030
0.108788 -0.120987 0.931929
0.110499 -0.121135 0.933073
0.112140 -0.121204 0.933603
-0.013473 -0.114105 0.890548
-0.011963 -0.114062 0.890216
-0.010455 -0.114023 0.889908
-0.008945 -0.113957 0.889394
-0.007436 -0.113870 0.888714
-0.005928 -0.113765 0.887898
-0.004422 -0.113647 0.886977
-0.002919 -0.113518 0.885969
-0.001420 -0.113410 0.885122
0.000076 -0.113241 0.883806
0.001568 -0.113068 0.882458
0.003056 -0.112932 0.881396
0.004542 -0.112824 0.880549
0.006026 -0.112737 0.879868
0.007514 -0.112750 0.879972
0.009004 -0.112774 0.880163
0.010493 -0.112788 0.880272
0.011982 -0.112798 0.880344
0.013467 -0.112775 0.880167
0.014951 -0.112740 0.879898
0.016439 -0.112749 0.879963
0.017934 -0.112793 0.880309
0.019433 -0.112856 0.880799
0.020946 -0.112983 0.881788
0.022473 -0.113164 0.883202
0.024005 -0.113351 0.884667
0.025551 -0.113576 0.886421
0.027112 -0.113835 0.888441
0.028685 -0.114117 0.890644
0.030274 -0.114436 0.893129
0.031868 -0.114735 0.895469
0.033459 -0.115002 0.897545
0.035049 -0.115240 0.899408
0.036625 -0.115417 0.900788
0.038193 -0.115551 0.901836
0.039743 -0.115628 0.902431
0.041287 -0.115677 0.902819
0.042820 -0.115696 0.902967
0.044354 -0.115715 0.903116
0.045867 -0.115682 0.902858
0.047394 -0.115684 0.902868
0.048915 -0.115669 0.902757
0.050430 -0.115645 0.902569
0.051940 -0.115610 0.902296
0.053460 -0.115598 0.902203
0.054986 -0.115598 0.902203
0.056511 -0.115599 0.902212
0.058042 -0.115611 0.902301
0.059573 -0.115622 0.902385
0.061099 -0.115622 0.902385
0.062624 -0.115622 0.902385
0.064119 -0.115565 0.901946
0.065608 -0.115504 0.901463
0.067100 -0.115449 0.901034
0.068621 -0.115444 0.900996
0.070147 -0.115450 0.901043
0.071724 -0.115537 0.901721
0.073325 -0.115656 0.902650
0.074957 -0.115821 0.903939
0.076585 -0.115971 0.905113
0.078217 -0.116123 0.906295
0.079865 -0.116291 0.907611
0.081499 -0.116434 0.908727
0.083099 -0.116523 0.909419
0.084699 -0.116610 0.910096
0.086300 -0.116694 0.910757
0.087912 -0.116791 0.911508
0.089530 -0.116891 0.912290
0.091197 -0.117050 0.913535
0.092872 -0.117215 0.914822
0.094588 -0.117426 0.916467
0.096294 -0.117617 0.917955
0.098053 -0.117866 0.919899
0.099803 -0.118097 0.921705
0.101592 -0.118365 0.923799
0.103376 -0.118621 0.925794
0.105144 -0.118850 0.927579
0.106902 -0.119061 0.929231
0.108622 -0.119225 0.930508
0.110313 -0.119352 0.931503
0.111944 -0.119413 0.931972
-0.013472 -0.112584 0.890461
-0.011963 -0.112552 0.890204
-0.010454 -0.112514 0.889901
-0.008944 -0.112437 0.889293
-0.007433 -0.112331 0.888458
-0.005926 -0.112235 0.887699
-0.004421 -0.112107 0.886686
-0.002918 -0.111981 0.885690
-0.001420 -0.111886 0.884934
0.000076 -0.111720 0.883625
0.001567 -0.111550 0.882277
0.003055 -0.111416 0.881217
0.004540 -0.111298 0.880289
0.006023 -0.111201 0.879523
0.007511 -0.111213 0.879615
0.008999 -0.111225 0.879712
0.010487 -0.111237 0.879803
0.011975 -0.111246 0.879878
0.013462 -0.111235 0.879789
0.014947 -0.111223 0.879697
0.016439 -0.111256 0.879954
0.017938 -0.111324 0.880492
0.019447 -0.111441 0.881415
0.020969 -0.111613 0.882776
0.022505 -0.111831 0.884502
0.024048 -0.112052 0.886250
0.025607 -0.112317 0.888348
0.027176 -0.112596 0.890549
0.028756 -0.112888 0.892859
0.030350 -0.113205 0.895366
0.031948 -0.113504 0.897734
0.033541 -0.113758 0.899741
0.035124 -0.113960 0.901345
0.036693 -0.114102 0.902465
0.038254 -0.114206 0.903289
0.039798 -0.114256 0.903679
0.041335 -0.114279 0.903867
0.042862 -0.114277 0.903848
0.044392 -0.114283 0.903893
0.045906 -0.114247 0.903609
0.047433 -0.114245 0.903599
0.048955 -0.114233 0.903504
0.050477 -0.114220 0.903401
0.051993 -0.114196 0.903205
0.053508 -0.114172 0.903015
0.055029 -0.114159 0.902915
0.056544 -0.114137 0.902741
0.058059 -0.114115 0.902568
0.059573 -0.114092 0.902385
0.061092 -0.114079 0.902286
0.062606 -0.114058 0.902119
0.064100 -0.114003 0.901684
0.065595 -0.113953 0.901288
0.067087 -0.113899 0.900861
0.068607 -0.113894 0.900823
0.070140 -0.113911 0.900951
0.071711 -0.113987 0.901554
0.073318 -0.114115 0.902571
0.074958 -0.114290 0.903949
0.076594 -0.114450 0.905219
0.078235 -0.114613 0.906509
0.079900 -0.114804 0.908013
0.081545 -0.114958 0.909235
0.083162 -0.115068 0.910105
0.084773 -0.115167 0.910890
0.086384 -0.115262 0.911637
0.087980 -0.115334 0.912208
0.089579 -0.115407 0.912785
0.091227 -0.115539 0.913834
0.092891 -0.115688 0.915012
0.094592 -0.115877 0.916502
0.096316 -0.116088 0.918170
0.098085 -0.116345 0.920206
0.099854 -0.116594 0.922177
0.101635 -0.116849 0.924189
0.103408 -0.117087 0.926075
