1703
0.120307 -0.041058 0.878024
0.121685 -0.041022 0.877251
0.123053 -0.040984 0.876435
0.124416 -0.040945 0.875599
0.125769 -0.040903 0.874713
0.127160 -0.040875 0.874109
0.128646 -0.040878 0.874166
0.130177 -0.040894 0.874523
0.131776 -0.040932 0.875326
0.133473 -0.040999 0.876754
0.135192 -0.041071 0.878294
0.136934 -0.041148 0.879942
0.138635 -0.041211 0.881300
0.140349 -0.041277 0.882712
0.142028 -0.041331 0.883872
0.143702 -0.041383 0.884979
0.146131 -0.041649 0.890666
-0.034572 -0.040159 0.891106
-0.033055 -0.040146 0.890811
-0.031524 -0.040115 0.890127
-0.030001 -0.040090 0.889565
-0.028453 -0.040028 0.888189
-0.026897 -0.039947 0.886399
-0.025346 -0.039865 0.884571
-0.023805 -0.039788 0.882880
-0.022262 -0.039699 0.880904
-0.020733 -0.039622 0.879190
-0.019213 -0.039553 0.877653
-0.017695 -0.039477 0.875966
-0.016186 -0.039409 0.874456
-0.014683 -0.039341 0.872961
-0.013188 -0.039286 0.871735
-0.011699 -0.039235 0.870605
-0.010216 -0.039191 0.869630
-0.008737 -0.039150 0.868720
-0.007262 -0.039117 0.867980
-0.005791 -0.039089 0.867358
-0.004322 -0.039070 0.866931
-0.002856 -0.039058 0.866683
-0.001390 -0.039047 0.866434
0.000075 -0.039025 0.865935
0.001537 -0.038997 0.865323
0.002998 -0.038972 0.864773
0.004458 -0.038949 0.864251
0.005915 -0.038923 0.863682
0.007371 -0.038904 0.863262
0.008820 -0.038859 0.862256
0.010262 -0.038800 0.860952
0.011696 -0.038729 0.859370
0.013120 -0.038644 0.857485
0.014538 -0.038559 0.855604
0.015951 -0.038479 0.853815
0.017358 -0.038398 0.852032
0.018763 -0.038325 0.850410
0.020168 -0.038264 0.849060
0.021574 -0.038212 0.847900
0.022988 -0.038179 0.847161
0.024408 -0.038160 0.846738
0.025827 -0.038142 0.846343
0.027255 -0.038138 0.846249
0.028688 -0.038142 0.846335
0.030122 -0.038146 0.846432
0.031551 -0.038143 0.846377
0.032975 -0.038136 0.846205
0.034392 -0.038119 0.845848
0.035803 -0.038100 0.845407
0.037217 -0.038084 0.845069
0.038635 -0.038074 0.844834
0.040063 -0.038074 0.844834
0.041492 -0.038074 0.844834
0.042916 -0.038071 0.844761
0.044340 -0.038067 0.844682
0.045764 -0.038063 0.844601
0.047191 -0.038063 0.844595
0.048619 -0.038063 0.844601
0.050052 -0.038067 0.844682
0.051485 -0.038071 0.844761
0.052927 -0.038081 0.844987
0.054371 -0.038092 0.845228
0.055827 -0.038110 0.845642
0.057291 -0.038133 0.846145
0.058762 -0.038159 0.846727
0.060240 -0.038189 0.847384
0.061721 -0.038219 0.848050
0.063194 -0.038242 0.848575
0.064666 -0.038265 0.849074
0.066152 -0.038294 0.849718
0.067628 -0.038317 0.850220
0.069115 -0.038344 0.850828
0.070622 -0.038382 0.851663
0.072134 -0.038420 0.852507
0.073649 -0.038458 0.853362
0.075195 -0.038511 0.854536
0.076733 -0.038558 0.855585
0.078290 -0.038613 0.856793
0.079880 -0.038681 0.858308
0.081492 -0.038758 0.860015
0.083076 -0.038819 0.861366
0.084717 -0.038903 0.863241
0.086379 -0.038995 0.865278
0.088072 -0.039097 0.867538
0.089797 -0.039210 0.870046
0.091575 -0.039342 0.872969
0.093373 -0.039478 0.875992
0.095172 -0.039611 0.878937
0.096947 -0.039729 0.881567
0.098672 -0.039824 0.883668
0.100349 -0.039897 0.885281
0.101956 -0.039940 0.886243
0.103506 -0.039960 0.886682
0.104986 -0.039953 0.886526
0.106422 -0.039929 0.885998
0.107797 -0.039884 0.884990
0.109133 -0.039825 0.883699
0.110445 -0.039760 0.882242
0.111808 -0.039714 0.881229
0.113184 -0.039674 0.880346
0.114615 -0.039654 0.879902
0.116056 -0.039639 0.879552
0.117507 -0.039626 0.879280
0.118946 -0.039611 0.878932
0.120394 -0.039598 0.878659
0.121772 -0.039563 0.877885
0.123151 -0.039530 0.877136
0.124526 -0.039495 0.876373
0.125891 -0.039459 0.875564
0.127284 -0.039432 0.874968
0.128775 -0.039435 0.875042
0.130307 -0.039451 0.875398
0.131896 -0.039484 0.876124
0.133582 -0.039545 0.877468
0.135303 -0.039614 0.879010
0.137058 -0.039692 0.880739
0.138763 -0.039754 0.882115
0.140493 -0.039822 0.883618
0.142173 -0.039874 0.884774
0.144589 -0.040129 0.890441
-0.033082 -0.038667 0.891540
-0.031553 -0.038641 0.890940
-0.030031 -0.038621 0.890470
-0.028485 -0.038566 0.889197
-0.026930 -0.038492 0.887489
-0.025382 -0.038419 0.885819
-0.023837 -0.038343 0.884057
-0.022292 -0.038257 0.882084
-0.020761 -0.038184 0.880389
-0.019239 -0.038117 0.878853
-0.017722 -0.038051 0.877323
-0.016214 -0.037992 0.875971
-0.014710 -0.037931 0.874571
-0.013214 -0.037882 0.873423
-0.011722 -0.037832 0.872270
-0.010233 -0.037778 0.871042
-0.008749 -0.037732 0.869962
-0.007270 -0.037689 0.868973
-0.005796 -0.037654 0.868174
-0.004325 -0.037628 0.867568
-0.002858 -0.037613 0.867224
-0.001391 -0.037597 0.866872
0.000075 -0.037572 0.866282
0.001538 -0.037541 0.865575
0.002999 -0.037513 0.864933
0.004458 -0.037490 0.864405
0.005916 -0.037466 0.863847
0.007373 -0.037449 0.863438
0.008821 -0.037401 0.862350
0.010262 -0.037340 0.860941
0.011693 -0.037260 0.859099
0.013113 -0.037168 0.856971
0.014528 -0.037083 0.855015
0.015940 -0.037006 0.853230
0.017345 -0.036925 0.851369
0.018750 -0.036858 0.849820
0.020154 -0.036799 0.848460
0.021559 -0.036749 0.847308
0.022972 -0.036717 0.846572
0.024393 -0.036702 0.846235
0.025814 -0.036689 0.845914
0.027246 -0.036692 0.845990
0.028682 -0.036699 0.846147
0.030119 -0.036707 0.846331
0.031547 -0.036704 0.846270
0.032971 -0.036697 0.846096
0.034387 -0.036681 0.845734
0.035799 -0.036662 0.845309
0.037210 -0.036645 0.844914
0.038631 -0.036638 0.844755
0.040059 -0.036638 0.844753
0.041488 -0.036638 0.844755
0.042908 -0.036632 0.844609
0.044331 -0.036628 0.844516
0.045750 -0.036620 0.844343
0.047172 -0.036617 0.844255
0.048600 -0.036617 0.844264
0.050037 -0.036624 0.844435
0.051475 -0.036632 0.844603
0.052927 -0.036649 0.844995
0.054377 -0.036663 0.845328
0.055835 -0.036682 0.845760
0.057304 -0.036707 0.846340
0.058775 -0.036732 0.846916
0.060248 -0.036757 0.847494
0.061723 -0.036782 0.848075
0.063189 -0.036801 0.848509
0.064655 -0.036819 0.848924
0.066146 -0.036850 0.849639
0.067630 -0.036876 0.850237
0.069124 -0.036907 0.850942
0.070645 -0.036950 0.851937
0.072164 -0.036990 0.852866
0.073673 -0.037024 0.853645
0.075213 -0.037071 0.854741
0.076749 -0.037116 0.855760
0.078291 -0.037161 0.856800
0.079865 -0.037219 0.858151
0.081469 -0.037290 0.859772
0.083053 -0.037348 0.861118
0.084701 -0.037433 0.863085
0.086382 -0.037530 0.865306
0.088102 -0.037639 0.867837
0.089854 -0.037759 0.870595
0.091650 -0.037893 0.873687
0.093467 -0.038031 0.876875
0.095287 -0.038167 0.879997
0.097086 -0.038290 0.882830
0.098827 -0.038386 0.885054
0.100519 -0.038461 0.886778
0.102139 -0.038507 0.887831
0.103691 -0.038526 0.888268
0.105164 -0.038515 0.888025
0.106600 -0.038492 0.887485
0.107967 -0.038444 0.886390
0.109283 -0.038380 0.884910
0.110583 -0.038312 0.883346
0.111924 -0.038260 0.882143
0.113290 -0.038218 0.881167
0.114720 -0.038198 0.880711
0.116161 -0.038182 0.880347
0.117612 -0.038170 0.880072
0.119063 -0.038158 0.879799
0.120503 -0.038143 0.879451
0.121871 -0.038106 0.878597
0.123241 -0.038070 0.877772
0.124614 -0.038036 0.876993
0.125981 -0.038002 0.876193
0.127389 -0.037980 0.875684
0.128881 -0.037983 0.875768
0.130426 -0.038002 0.876198
0.132005 -0.038030 0.876848
0.133677 -0.038084 0.878091
0.135386 -0.038148 0.879551
0.137153 -0.038226 0.881355
0.138851 -0.038283 0.882674
0.140583 -0.038348 0.884183
0.142263 -0.038398 0.885336
-0.033103 -0.037180 0.892106
-0.031574 -0.037156 0.891533
-0.030054 -0.037140 0.891141
-0.028511 -0.037093 0.890016
-0.026957 -0.037025 0.888393
-0.025407 -0.036955 0.886717
-0.023863 -0.036885 0.885034
-0.022319 -0.036807 0.883158
-0.020787 -0.036737 0.881476
-0.019265 -0.036676 0.880032
-0.017748 -0.036616 0.878587
-0.016236 -0.036557 0.877155
-0.014729 -0.036498 0.875742
-0.013231 -0.036449 0.874568
-0.011736 -0.036397 0.873324
-0.010244 -0.036342 0.872014
-0.008759 -0.036298 0.870939
-0.007277 -0.036250 0.869803
-0.005801 -0.036213 0.868919
-0.004329 -0.036184 0.868214
-0.002859 -0.036165 0.867768
-0.001392 -0.036144 0.867258
0.000075 -0.036115 0.866568
0.001538 -0.036082 0.865765
0.002999 -0.036051 0.865026
0.004458 -0.036026 0.864411
0.005916 -0.036005 0.863923
0.007373 -0.035988 0.863521
0.008821 -0.035940 0.862354
0.010261 -0.035877 0.860844
0.011690 -0.035796 0.858896
0.013107 -0.035700 0.856592
0.014520 -0.035615 0.854566
0.015932 -0.035541 0.852794
0.017336 -0.035464 0.850946
0.018741 -0.035400 0.849406
0.020144 -0.035344 0.848045
0.021549 -0.035295 0.846889
0.022960 -0.035264 0.846137
0.024381 -0.035250 0.845803
0.025801 -0.035237 0.845489
0.027235 -0.035244 0.845648
0.028673 -0.035254 0.845891
0.030113 -0.035265 0.846155
0.031544 -0.035266 0.846176
0.032973 -0.035264 0.846147
0.034389 -0.035250 0.845798
0.035802 -0.035232 0.845380
0.037213 -0.035216 0.844982
0.038631 -0.035206 0.844747
0.040055 -0.035202 0.844663
0.041483 -0.035203 0.844666
0.042900 -0.035193 0.844443
0.044318 -0.035186 0.844269
0.045734 -0.035178 0.844065
0.047152 -0.035170 0.843888
0.048579 -0.035171 0.843899
0.050021 -0.035182 0.844169
0.051469 -0.035196 0.844508
0.052933 -0.035220 0.845075
0.054393 -0.035241 0.845577
0.055857 -0.035262 0.846093
0.057332 -0.035290 0.846755
0.058804 -0.035314 0.847340
0.060273 -0.035335 0.847851
0.061748 -0.035359 0.848421
0.063213 -0.035377 0.848838
0.064680 -0.035394 0.849250
0.066172 -0.035424 0.849975
0.067664 -0.035453 0.850669
0.069166 -0.035485 0.851453
0.070689 -0.035528 0.852468
0.072209 -0.035566 0.853393
0.073712 -0.035595 0.854093
0.075243 -0.035637 0.855085
0.076764 -0.035672 0.855933
0.078291 -0.035708 0.856799
0.079849 -0.035757 0.857978
0.081444 -0.035821 0.859504
0.083026 -0.035877 0.860840
0.084676 -0.035959 0.862822
0.086382 -0.036063 0.865300
0.088122 -0.036176 0.868031
0.089902 -0.036303 0.871061
0.091709 -0.036436 0.874253
0.093543 -0.036575 0.877595
0.095376 -0.036709 0.880817
0.097197 -0.036835 0.883832
0.098962 -0.036936 0.886261
0.100686 -0.037019 0.888253
0.102321 -0.037067 0.889408
0.103866 -0.037082 0.889768
0.105340 -0.037071 0.889509
0.106767 -0.037045 0.888870
0.108123 -0.036995 0.887671
0.109429 -0.036929 0.886092
0.110728 -0.036863 0.884504
0.112058 -0.036808 0.883199
0.113404 -0.036761 0.882052
0.114814 -0.036735 0.881435
0.116246 -0.036717 0.880992
0.117698 -0.036705 0.880711
0.119149 -0.036693 0.880432
0.120601 -0.036682 0.880167
0.121982 -0.036650 0.879397
0.123354 -0.036616 0.878577
0.124718 -0.036580 0.877725
0.126097 -0.036550 0.876998
0.127507 -0.036529 0.876497
0.129002 -0.036533 0.876590
0.130560 -0.036554 0.877101
0.132150 -0.036584 0.877808
0.133798 -0.036629 0.878889
0.135506 -0.036689 0.880329
0.137262 -0.036761 0.882051
0.138947 -0.036812 0.883287
0.140669 -0.036872 0.884721
0.142351 -0.036920 0.885880
-0.031579 -0.035650 0.891672
-0.030056 -0.035632 0.891208
-0.028517 -0.035592 0.890205
-0.026971 -0.035537 0.888854
-0.025426 -0.035478 0.887356
-0.023883 -0.035414 0.885777
-0.022342 -0.035346 0.884054
-0.020809 -0.035281 0.882441
-0.019284 -0.035220 0.880920
-0.017766 -0.035163 0.879476
-0.016253 -0.035105 0.878046
-0.014744 -0.035048 0.876620
-0.013244 -0.035001 0.875432
-0.011748 -0.034951 0.874187
-0.010255 -0.034901 0.872948
-0.008770 -0.034862 0.871968
-0.007285 -0.034814 0.870754
-0.005807 -0.034775 0.869782
-0.004332 -0.034743 0.868976
-0.002861 -0.034718 0.868362
-0.001392 -0.034688 0.867621
0.000075 -0.034658 0.866852
0.001538 -0.034622 0.865958
0.002999 -0.034588 0.865116
0.004458 -0.034560 0.864413
0.005916 -0.034538 0.863847
0.007373 -0.034521 0.863438
0.008820 -0.034472 0.862193
0.010257 -0.034405 0.860523
0.011684 -0.034323 0.858481
0.013100 -0.034230 0.856155
0.014511 -0.034146 0.854044
0.015924 -0.034078 0.852356
0.017329 -0.034008 0.850612
0.018735 -0.033951 0.849164
0.020140 -0.033899 0.847883
0.021546 -0.033856 0.846796
0.022955 -0.033823 0.845970
0.024378 -0.033812 0.845696
0.025795 -0.033796 0.845307
0.027227 -0.033800 0.845390
0.028663 -0.033807 0.845574
0.030102 -0.033818 0.845848
0.031530 -0.033816 0.845804
0.032962 -0.033819 0.845862
0.034381 -0.033808 0.845588
0.035796 -0.033794 0.845249
0.037211 -0.033781 0.844920
0.038627 -0.033771 0.844669
0.040050 -0.033767 0.844564
0.041475 -0.033764 0.844496
0.042887 -0.033752 0.844196
0.044301 -0.033742 0.843943
0.045716 -0.033733 0.843728
0.047132 -0.033726 0.843540
0.048563 -0.033729 0.843628
0.050015 -0.033746 0.844054
0.051473 -0.033767 0.844575
0.052947 -0.033797 0.845310
0.054414 -0.033820 0.845901
0.055884 -0.033844 0.846495
0.057360 -0.033871 0.847163
0.058833 -0.033894 0.847754
0.060303 -0.033915 0.848268
0.061778 -0.033938 0.848842
0.063244 -0.033954 0.849256
0.064717 -0.033974 0.849746
0.066211 -0.034003 0.850483
0.067705 -0.034031 0.851188
0.069214 -0.034066 0.852052
0.070738 -0.034106 0.853060
0.072252 -0.034140 0.853906
0.073755 -0.034168 0.854594
0.075279 -0.034204 0.855494
0.076793 -0.034234 0.856254
0.078312 -0.034265 0.857029
0.079862 -0.034309 0.858116
0.081447 -0.034365 0.859540
0.083028 -0.034418 0.860865
0.084678 -0.034498 0.862847
0.086395 -0.034601 0.865433
0.088154 -0.034718 0.868351
0.089955 -0.034846 0.871571
0.091792 -0.034985 0.875040
0.093648 -0.035126 0.878575
0.095501 -0.035262 0.881977
0.097334 -0.035387 0.885086
0.099111 -0.035487 0.887598
0.100839 -0.035567 0.889603
0.102487 -0.035617 0.890851
0.104035 -0.035632 0.891218
0.105512 -0.035622 0.890966
0.106929 -0.035592 0.890224
0.108275 -0.035540 0.888919
0.109552 -0.035467 0.887087
0.110840 -0.035399 0.885397
0.112161 -0.035344 0.884012
0.113507 -0.035298 0.882855
0.114909 -0.035270 0.882160
0.116341 -0.035252 0.881711
0.117783 -0.035237 0.881346
0.119236 -0.035226 0.881074
0.120701 -0.035219 0.880897
0.122097 -0.035192 0.880224
0.123481 -0.035163 0.879481
0.124857 -0.035132 0.878701
0.126248 -0.035105 0.878048
0.127661 -0.035086 0.877557
0.129171 -0.035093 0.877738
0.130745 -0.035117 0.878342
0.132336 -0.035145 0.879049
0.133973 -0.035185 0.880040
0.135681 -0.035242 0.881466
0.137425 -0.035308 0.883103
0.139112 -0.035357 0.884333
0.140835 -0.035414 0.885766
0.142516 -0.035460 0.886909
-0.031577 -0.034136 0.891615
-0.030057 -0.034122 0.891246
-0.028525 -0.034092 0.890460
-0.026987 -0.034051 0.889385
-0.025446 -0.034001 0.888079
-0.023903 -0.033941 0.886515
-0.022363 -0.033878 0.884867
-0.020828 -0.033816 0.883241
-0.019301 -0.033757 0.881699
-0.017781 -0.033701 0.880250
-0.016267 -0.033647 0.878819
-0.014756 -0.033589 0.877312
-0.013254 -0.033540 0.876043
-0.011755 -0.033489 0.874715
-0.010261 -0.033442 0.873479
-0.008776 -0.033408 0.872582
-0.007292 -0.033367 0.871525
-0.005811 -0.033327 0.870478
-0.004336 -0.033296 0.869650
-0.002863 -0.033268 0.868941
-0.001393 -0.033236 0.868106
0.000075 -0.033201 0.867188
0.001539 -0.033167 0.866283
0.003000 -0.033131 0.865363
0.004459 -0.033101 0.864571
0.005916 -0.033076 0.863918
0.007373 -0.033057 0.863429
0.008820 -0.033012 0.862258
0.010257 -0.032946 0.860521
0.011683 -0.032865 0.858397
0.013097 -0.032772 0.855983
0.014508 -0.032691 0.853855
0.015919 -0.032623 0.852098
0.017326 -0.032560 0.850443
0.018733 -0.032508 0.849083
0.020141 -0.032462 0.847889
0.021546 -0.032421 0.846810
0.022956 -0.032390 0.845989
0.024376 -0.032376 0.845636
0.025793 -0.032361 0.845233
0.027222 -0.032361 0.845229
0.028654 -0.032364 0.845328
0.030090 -0.032372 0.845525
0.031521 -0.032373 0.845555
0.032956 -0.032378 0.845699
0.034381 -0.032375 0.845599
0.035801 -0.032365 0.845353
0.037218 -0.032355 0.845090
0.038634 -0.032345 0.844821
0.040050 -0.032335 0.844563
0.041470 -0.032329 0.844393
0.042882 -0.032317 0.844095
0.044296 -0.032307 0.843846
0.045712 -0.032300 0.843646
0.047132 -0.032296 0.843535
0.048563 -0.032299 0.843628
0.050019 -0.032318 0.844133
0.051484 -0.032342 0.844744
0.052963 -0.032373 0.845569
0.054432 -0.032397 0.846173
0.055906 -0.032422 0.846831
0.057382 -0.032447 0.847491
0.058856 -0.032470 0.848086
0.060326 -0.032490 0.848602
0.061809 -0.032515 0.849256
0.063281 -0.032534 0.849754
0.064763 -0.032556 0.850343
0.066259 -0.032585 0.851094
0.067759 -0.032614 0.851859
0.069268 -0.032647 0.852716
0.070793 -0.032685 0.853715
0.072295 -0.032712 0.854416
0.073797 -0.032738 0.855086
0.075308 -0.032766 0.855829
0.076822 -0.032795 0.856580
0.078328 -0.032819 0.857209
0.079878 -0.032861 0.858292
0.081456 -0.032912 0.859630
0.083043 -0.032965 0.861023
0.084693 -0.033041 0.863005
0.086427 -0.033146 0.865756
0.088212 -0.033268 0.868920
0.090034 -0.033399 0.872343
0.091884 -0.033535 0.875914
0.093753 -0.033675 0.879560
0.095618 -0.033808 0.883050
0.097455 -0.033928 0.886182
0.099244 -0.034028 0.888788
0.100983 -0.034108 0.890869
0.102643 -0.034159 0.892209
0.104194 -0.034173 0.892579
0.105663 -0.034160 0.892239
0.107071 -0.034128 0.891402
0.108408 -0.034075 0.890009
0.109674 -0.034001 0.888074
0.110954 -0.033933 0.886307
0.112265 -0.033877 0.884834
0.113612 -0.033833 0.883676
0.115014 -0.033805 0.882968
0.116446 -0.033788 0.882507
0.117889 -0.033774 0.882140
0.119366 -0.033770 0.882034
0.120835 -0.033764 0.881878
0.122246 -0.033742 0.881302
0.123645 -0.033717 0.880651
0.125034 -0.033690 0.879946
0.126437 -0.033667 0.879364
0.127877 -0.033655 0.879041
0.129394 -0.033663 0.879255
0.130973 -0.033687 0.879874
0.132567 -0.033714 0.880583
0.134182 -0.033746 0.881412
0.135867 -0.033794 0.882676
0.137599 -0.033853 0.884219
0.139286 -0.033900 0.885442
0.141023 -0.033958 0.886950
0.142722 -0.034005 0.888192
-0.030050 -0.032604 0.891032
-0.028524 -0.032582 0.890427
-0.026994 -0.032552 0.889605
-0.025457 -0.032510 0.888465
-0.023918 -0.032459 0.887090
-0.022379 -0.032402 0.885531
-0.020843 -0.032342 0.883883
-0.019315 -0.032285 0.882324
-0.017794 -0.032232 0.880868
-0.016278 -0.032179 0.879437
-0.014768 -0.032127 0.878009
-0.013264 -0.032081 0.876753
-0.011764 -0.032032 0.875414
-0.010271 -0.031990 0.874260
-0.008783 -0.031954 0.873280
-0.007298 -0.031916 0.872244
-0.005817 -0.031881 0.871269
-0.004339 -0.031847 0.870354
-0.002865 -0.031820 0.869624
-0.001394 -0.031789 0.868772
0.000075 -0.031752 0.867765
0.001540 -0.031716 0.866781
0.003002 -0.031682 0.865857
0.004461 -0.031648 0.864908
0.005918 -0.031621 0.864166
0.007374 -0.031599 0.863584
0.008822 -0.031556 0.862403
0.010259 -0.031493 0.860681
0.011685 -0.031416 0.858571
0.013100 -0.031328 0.856157
0.014512 -0.031252 0.854092
0.015922 -0.031185 0.852253
0.017329 -0.031124 0.850599
0.018739 -0.031077 0.849317
0.020148 -0.031037 0.848207
0.021555 -0.030998 0.847145
0.022965 -0.030968 0.846340
0.024381 -0.030950 0.845834
0.025796 -0.030931 0.845328
0.027222 -0.030927 0.845221
0.028648 -0.030925 0.845154
0.030083 -0.030931 0.845328
0.031516 -0.030935 0.845422
0.032951 -0.030940 0.845574
0.034377 -0.030938 0.845501
0.035800 -0.030932 0.845348
0.037219 -0.030923 0.845108
0.038635 -0.030914 0.844842
0.040047 -0.030901 0.844501
0.041462 -0.030892 0.844238
0.042878 -0.030883 0.844004
0.044295 -0.030877 0.843831
0.045717 -0.030873 0.843742
0.047143 -0.030873 0.843734
0.048583 -0.030882 0.843973
0.050040 -0.030900 0.844483
0.051505 -0.030923 0.845089
0.052986 -0.030953 0.845928
0.054459 -0.030978 0.846594
0.055934 -0.031002 0.847252
0.057410 -0.031026 0.847903
0.058884 -0.031047 0.848493
0.060355 -0.031066 0.849009
0.061844 -0.031093 0.849746
0.063325 -0.031115 0.850343
0.064815 -0.031140 0.851022
0.066318 -0.031170 0.851857
0.067819 -0.031198 0.852623
0.069329 -0.031229 0.853463
0.070848 -0.031262 0.854380
0.072344 -0.031285 0.854998
0.073841 -0.031307 0.855597
0.075352 -0.031334 0.856329
0.076862 -0.031359 0.857015
0.078368 -0.031382 0.857643
0.079920 -0.031422 0.858745
0.081500 -0.031471 0.860090
0.083103 -0.031528 0.861646
0.084763 -0.031604 0.863717
0.086499 -0.031705 0.866478
0.088286 -0.031821 0.869651
0.090116 -0.031949 0.873139
0.091961 -0.032077 0.876651
0.093851 -0.032218 0.880480
0.095739 -0.032353 0.884172
0.097597 -0.032474 0.887474
0.099398 -0.032572 0.890169
0.101149 -0.032651 0.892338
0.102792 -0.032694 0.893510
0.104336 -0.032705 0.893791
0.105796 -0.032689 0.893365
0.107195 -0.032655 0.892434
0.108522 -0.032600 0.890944
0.109798 -0.032532 0.889078
0.111090 -0.032470 0.887391
0.112403 -0.032417 0.885918
0.113752 -0.032374 0.884761
0.115153 -0.032348 0.884037
0.116587 -0.032331 0.883573
0.118030 -0.032317 0.883197
0.119521 -0.032317 0.883185
0.121007 -0.032314 0.883127
0.122434 -0.032297 0.882652
0.123836 -0.032274 0.882011
0.125227 -0.032248 0.881305
0.126635 -0.032227 0.880737
0.128078 -0.032215 0.880424
0.129612 -0.032227 0.880732
0.131195 -0.032250 0.881362
0.132792 -0.032276 0.882078
0.134408 -0.032306 0.882898
0.136094 -0.032352 0.884154
0.137803 -0.032402 0.885531
0.139493 -0.032447 0.886758
0.141222 -0.032500 0.888199
0.143483 -0.032673 0.892925
-0.030046 -0.031089 0.890901
-0.028522 -0.031070 0.890365
-0.026997 -0.031047 0.889718
-0.025466 -0.031014 0.888768
-0.023933 -0.030975 0.887635
-0.022396 -0.030924 0.886172
-0.020861 -0.030869 0.884611
-0.019331 -0.030815 0.883059
-0.017807 -0.030761 0.881520
-0.016290 -0.030711 0.880082
-0.014780 -0.030664 0.878738
-0.013275 -0.030620 0.877479
-0.011775 -0.030576 0.876219
-0.010281 -0.030539 0.875142
-0.008791 -0.030502 0.874079
-0.007305 -0.030466 0.873048
-0.005822 -0.030432 0.872080
-0.004343 -0.030398 0.871106
-0.002868 -0.030369 0.870275
-0.001395 -0.030339 0.869406
0.000075 -0.030300 0.868305
0.001541 -0.030263 0.867247
0.003004 -0.030231 0.866322
0.004463 -0.030197 0.865355
0.005920 -0.030168 0.864525
0.007376 -0.030145 0.863849
0.008825 -0.030106 0.862742
0.010263 -0.030046 0.861021
0.011691 -0.029973 0.858936
0.013107 -0.029892 0.856599
0.014521 -0.029822 0.854606
0.015930 -0.029755 0.852681
0.017338 -0.029697 0.851022
0.018748 -0.029652 0.849737
0.020158 -0.029614 0.848627
0.021566 -0.029577 0.847568
0.022975 -0.029546 0.846688
0.024389 -0.029525 0.846094
0.025801 -0.029504 0.845495
0.027222 -0.029495 0.845221
0.028643 -0.029486 0.844987
0.030074 -0.029489 0.845069
0.031505 -0.029492 0.845148
0.032943 -0.029500 0.845377
0.034376 -0.029504 0.845475
0.035804 -0.029502 0.845427
0.037229 -0.029499 0.845345
0.038646 -0.029490 0.845083
0.040055 -0.029475 0.844663
0.041463 -0.029461 0.844251
0.042881 -0.029454 0.844066
0.044300 -0.029449 0.843919
0.045727 -0.029450 0.843929
0.047159 -0.029453 0.844024
0.048609 -0.029467 0.844417
0.050066 -0.029484 0.844915
0.051530 -0.029505 0.845512
0.053012 -0.029534 0.846349
0.054491 -0.029560 0.847090
0.055972 -0.029586 0.847832
0.057449 -0.029608 0.848484
0.058925 -0.029629 0.849076
0.060401 -0.029649 0.849659
0.061892 -0.029675 0.850400
0.063381 -0.029699 0.851089
0.064879 -0.029726 0.851863
0.066391 -0.029759 0.852787
0.067893 -0.029785 0.853549
0.069410 -0.029817 0.854459
0.070925 -0.029847 0.855313
0.072423 -0.029868 0.855925
0.073922 -0.029889 0.856527
0.075433 -0.029914 0.857245
0.076937 -0.029935 0.857855
0.078452 -0.029960 0.858563
0.080015 -0.030002 0.859759
0.081605 -0.030052 0.861203
0.083221 -0.030110 0.862862
0.084885 -0.030183 0.864958
0.086617 -0.030277 0.867654
0.088381 -0.030380 0.870586
0.090194 -0.030495 0.873888
0.092029 -0.030614 0.877300
0.093937 -0.030753 0.881290
0.095849 -0.030889 0.885185
0.097742 -0.031015 0.888788
0.099567 -0.031116 0.891679
0.101330 -0.031195 0.893932
0.102955 -0.031229 0.894922
0.104480 -0.031233 0.895025
0.105938 -0.031217 0.894564
0.107319 -0.031178 0.893470
0.108646 -0.031126 0.891966
0.109924 -0.031061 0.890103
0.111228 -0.031005 0.888495
0.112534 -0.030951 0.886950
0.113905 -0.030916 0.885950
0.115297 -0.030888 0.885140
0.116742 -0.030874 0.884755
0.118190 -0.030862 0.884396
0.119697 -0.030865 0.884479
0.121196 -0.030866 0.884507
0.122648 -0.030855 0.884194
0.124064 -0.030835 0.883637
0.125472 -0.030814 0.883033
0.126895 -0.030797 0.882550
0.128342 -0.030786 0.882238
0.129879 -0.030797 0.882547
0.131464 -0.030819 0.883170
0.133064 -0.030844 0.883882
0.134682 -0.030872 0.884692
0.136384 -0.030919 0.886035
0.138096 -0.030967 0.887412
0.139804 -0.031013 0.888733
0.141934 -0.031151 0.892677
0.144820 -0.031450 0.901250
-0.028520 -0.029559 0.890301
-0.027004 -0.029547 0.889945
-0.025480 -0.029523 0.889244
-0.023952 -0.029493 0.888338
-0.022416 -0.029448 0.886970
-0.020882 -0.029400 0.885514
-0.019349 -0.029345 0.883883
-0.017824 -0.029294 0.882338
-0.016307 -0.029249 0.880978
-0.014795 -0.029205 0.879640
-0.013289 -0.029163 0.878393
-0.011788 -0.029124 0.877216
-0.010293 -0.029088 0.876125
-0.008800 -0.029050 0.874980
-0.007312 -0.029015 0.873938
-0.005828 -0.028983 0.872966
-0.004347 -0.028948 0.871917
-0.002870 -0.028918 0.871023
-0.001396 -0.028889 0.870144
0.000075 -0.028852 0.869031
0.001542 -0.028817 0.867963
0.003006 -0.028786 0.867040
0.004467 -0.028754 0.866071
0.005924 -0.028721 0.865071
0.007380 -0.028695 0.864290
0.008830 -0.028658 0.863176
0.010269 -0.028604 0.861538
0.011698 -0.028535 0.859475
0.013118 -0.028463 0.857300
0.014533 -0.028397 0.855310
0.015941 -0.028330 0.853298
0.017350 -0.028275 0.851631
0.018761 -0.028232 0.850337
0.020172 -0.028195 0.849227
0.021581 -0.028159 0.848158
0.022990 -0.028129 0.847254
0.024401 -0.028104 0.846495
0.025811 -0.028081 0.845803
0.027224 -0.028065 0.845301
0.028640 -0.028051 0.844908
0.030066 -0.028049 0.844834
0.031497 -0.028051 0.844908
0.032934 -0.028059 0.845145
0.034373 -0.028068 0.845403
0.035807 -0.028071 0.845508
0.037237 -0.028071 0.845508
0.038658 -0.028066 0.845329
0.040070 -0.028054 0.844980
0.041478 -0.028040 0.844567
0.042897 -0.028034 0.844388
0.044321 -0.028032 0.844313
0.045753 -0.028035 0.844409
0.047191 -0.028041 0.844588
0.048642 -0.028054 0.844996
0.050100 -0.028071 0.845490
0.051565 -0.028090 0.846080
0.053047 -0.028118 0.846903
0.054527 -0.028143 0.847663
0.056011 -0.028168 0.848422
0.057496 -0.028193 0.849171
0.058977 -0.028215 0.849835
0.060456 -0.028235 0.850427
0.061948 -0.028259 0.851169
0.063443 -0.028285 0.851931
0.064943 -0.028311 0.852715
0.066457 -0.028342 0.853643
0.067962 -0.028367 0.854421
0.069481 -0.028398 0.855340
0.070998 -0.028426 0.856192
0.072498 -0.028447 0.856817
0.074004 -0.028469 0.857482
0.075518 -0.028493 0.858212
0.077029 -0.028516 0.858886
0.078561 -0.028545 0.859759
0.080141 -0.028590 0.861115
0.081744 -0.028641 0.862673
0.083380 -0.028702 0.864510
0.085049 -0.028772 0.866625
0.086768 -0.028857 0.869170
0.088515 -0.028948 0.871907
0.090301 -0.029048 0.874925
0.092116 -0.029154 0.878133
0.094037 -0.029290 0.882228
0.095965 -0.029424 0.886260
0.097878 -0.029549 0.890024
0.099717 -0.029649 0.893020
0.101482 -0.029724 0.895273
0.103087 -0.029750 0.896072
0.104601 -0.029750 0.896065
0.106049 -0.029731 0.895502
0.107420 -0.029692 0.894312
0.108748 -0.029641 0.892800
0.110038 -0.029583 0.891021
0.111345 -0.029530 0.889433
0.112655 -0.029479 0.887904
0.114049 -0.029451 0.887069
0.115453 -0.029427 0.886339
0.116903 -0.029415 0.885970
0.118366 -0.029406 0.885709
0.119886 -0.029412 0.885882
0.121387 -0.029413 0.885907
0.122840 -0.029402 0.885585
0.124271 -0.029386 0.885114
0.125695 -0.029369 0.884602
0.127122 -0.029354 0.884129
0.128570 -0.029343 0.883808
0.130117 -0.029355 0.884166
0.131692 -0.029373 0.884702
0.133296 -0.029397 0.885422
0.134930 -0.029427 0.886323
0.136661 -0.029477 0.887838
0.138768 -0.029606 0.891727
0.140918 -0.029742 0.895813
0.143512 -0.029967 0.902607
-0.027028 -0.028063 0.890722
-0.025504 -0.028043 0.890090
-0.023981 -0.028021 0.889401
-0.022443 -0.027978 0.888050
-0.020909 -0.027935 0.886682
-0.019375 -0.027884 0.885051
-0.017847 -0.027835 0.883499
-0.016327 -0.027789 0.882038
-0.014811 -0.027744 0.880620
-0.013302 -0.027700 0.879219
-0.011800 -0.027663 0.878053
-0.010301 -0.027626 0.876879
-0.008807 -0.027587 0.875640
-0.007317 -0.027554 0.874565
-0.005833 -0.027525 0.873665
-0.004351 -0.027492 0.872615
-0.002873 -0.027467 0.871808
-0.001398 -0.027442 0.871009
0.000075 -0.027407 0.869900
0.001544 -0.027373 0.868838
0.003009 -0.027344 0.867909
0.004471 -0.027311 0.866863
0.005930 -0.027279 0.865847
0.007386 -0.027252 0.864987
0.008837 -0.027216 0.863854
0.010278 -0.027165 0.862225
0.011708 -0.027103 0.860248
0.013129 -0.027034 0.858081
0.014546 -0.026971 0.856087
0.015954 -0.026905 0.853991
0.017364 -0.026852 0.852313
0.018776 -0.026812 0.851023
0.020187 -0.026774 0.849834
0.021596 -0.026740 0.848755
0.023006 -0.026711 0.847833
0.024415 -0.026685 0.846981
0.025821 -0.026658 0.846134
0.027232 -0.026639 0.845544
0.028645 -0.026624 0.845066
0.030068 -0.026619 0.844908
0.031497 -0.026619 0.844913
0.032938 -0.026629 0.845230
0.034380 -0.026640 0.845573
0.035818 -0.026647 0.845774
0.037248 -0.026647 0.845780
0.038673 -0.026643 0.845655
0.040086 -0.026632 0.845310
0.041499 -0.026622 0.844981
0.042919 -0.026617 0.844823
0.044351 -0.026618 0.844886
0.045788 -0.026624 0.845055
0.047231 -0.026632 0.845302
0.048684 -0.026645 0.845722
0.050143 -0.026661 0.846219
0.051605 -0.026677 0.846734
0.053087 -0.026702 0.847548
0.054570 -0.026727 0.848318
0.056050 -0.026749 0.849024
0.057543 -0.026776 0.849871
0.059031 -0.026799 0.850614
0.060511 -0.026818 0.851205
0.062005 -0.026841 0.851952
0.063514 -0.026870 0.852871
0.065015 -0.026895 0.853650
0.066537 -0.026927 0.854664
0.068049 -0.026953 0.855516
0.069578 -0.026985 0.856528
0.071097 -0.027013 0.857391
0.072607 -0.027035 0.858100
0.074109 -0.027053 0.858693
0.075625 -0.027077 0.859427
0.077132 -0.027096 0.860027
0.078666 -0.027123 0.860912
0.080250 -0.027167 0.862283
0.081864 -0.027219 0.863936
0.083511 -0.027280 0.865867
0.085190 -0.027349 0.868060
0.086901 -0.027426 0.870504
0.088639 -0.027508 0.873127
0.090406 -0.027597 0.875951
0.092205 -0.027693 0.878978
0.094139 -0.027825 0.883179
0.096083 -0.027956 0.887346
0.098002 -0.028076 0.891157
0.099853 -0.028173 0.894239
0.101617 -0.028244 0.896464
0.103193 -0.028260 0.896993
0.104687 -0.028254 0.896803
0.106137 -0.028236 0.896238
0.107507 -0.028198 0.895032
0.108837 -0.028151 0.893533
0.110149 -0.028100 0.891918
0.111470 -0.028053 0.890433
0.112782 -0.028005 0.888905
0.114178 -0.027979 0.888079
0.115595 -0.027959 0.887430
0.117049 -0.027948 0.887080
0.118526 -0.027943 0.886911
0.120061 -0.027951 0.887176
0.121565 -0.027952 0.887200
0.123019 -0.027941 0.886871
0.124452 -0.027926 0.886399
0.125878 -0.027910 0.885890
0.127297 -0.027893 0.885342
0.128756 -0.027885 0.885085
0.130304 -0.027896 0.885434
0.131881 -0.027913 0.885973
0.133500 -0.027939 0.886781
0.135166 -0.027973 0.887877
0.137289 -0.028100 0.891912
0.139865 -0.028316 0.898779
-0.027068 -0.026592 0.892051
-0.025542 -0.026573 0.891408
-0.024021 -0.026557 0.890880
-0.022480 -0.026517 0.889523
-0.020942 -0.026474 0.888078
-0.019403 -0.026422 0.886343
-0.017869 -0.026370 0.884593
-0.016343 -0.026321 0.882943
-0.014825 -0.026276 0.881436
-0.013314 -0.026234 0.880029
-0.011810 -0.026199 0.878856
-0.010312 -0.026166 0.877748
-0.008814 -0.026127 0.876426
-0.007323 -0.026092 0.875259
-0.005837 -0.026065 0.874349
-0.004354 -0.026033 0.873286
-0.002875 -0.026009 0.872491
-0.001399 -0.025988 0.871778
0.000075 -0.025955 0.870678
0.001545 -0.025924 0.869620
0.003012 -0.025896 0.868697
0.004475 -0.025865 0.867652
0.005935 -0.025835 0.866630
0.007393 -0.025809 0.865767
0.008845 -0.025775 0.864626
0.010288 -0.025729 0.863077
0.011720 -0.025670 0.861099
0.013143 -0.025605 0.858944
0.014562 -0.025548 0.857006
0.015971 -0.025485 0.854902
0.017382 -0.025434 0.853209
0.018796 -0.025396 0.851925
0.020208 -0.025361 0.850748
0.021619 -0.025329 0.849665
0.023029 -0.025299 0.848670
0.024434 -0.025269 0.847654
0.025836 -0.025239 0.846651
0.027245 -0.025218 0.845956
0.028654 -0.025199 0.845315
0.030077 -0.025194 0.845142
0.031503 -0.025192 0.845074
0.032944 -0.025201 0.845395
0.034385 -0.025210 0.845679
0.035826 -0.025218 0.845953
0.037257 -0.025219 0.845968
0.038685 -0.025217 0.845927
0.040106 -0.025212 0.845729
0.041524 -0.025204 0.845492
0.042946 -0.025200 0.845352
0.044379 -0.025202 0.845426
0.045820 -0.025209 0.845646
0.047264 -0.025216 0.845897
0.048723 -0.025232 0.846404
0.050184 -0.025247 0.846915
0.051646 -0.025262 0.847415
0.053125 -0.025284 0.848144
0.054608 -0.025306 0.848912
0.056090 -0.025328 0.849625
0.057589 -0.025355 0.850548
0.059084 -0.025380 0.851372
0.060572 -0.025400 0.852051
0.062067 -0.025422 0.852806
0.063572 -0.025448 0.853651
0.065074 -0.025471 0.854429
0.066597 -0.025501 0.855437
0.068111 -0.025526 0.856292
0.069648 -0.025559 0.857394
0.071176 -0.025587 0.858343
0.072695 -0.025611 0.859137
0.074205 -0.025631 0.859813
0.075731 -0.025656 0.860630
0.077234 -0.025672 0.861172
0.078777 -0.025700 0.862125
0.080363 -0.025742 0.863508
0.081981 -0.025791 0.865170
0.083638 -0.025851 0.867188
0.085327 -0.025919 0.869458
0.087040 -0.025992 0.871900
0.088772 -0.026067 0.874439
0.090542 -0.026152 0.877264
0.092345 -0.026242 0.880312
0.094291 -0.026371 0.884611
0.096231 -0.026493 0.888713
0.098151 -0.026606 0.892515
0.099983 -0.026692 0.895406
0.101717 -0.026750 0.897345
0.103264 -0.026758 0.897611
0.104749 -0.026750 0.897329
0.106200 -0.026733 0.896773
0.107572 -0.026697 0.895579
0.108915 -0.026656 0.894172
0.110238 -0.026610 0.892646
0.111572 -0.026568 0.891245
0.112896 -0.026525 0.889809
0.114315 -0.026506 0.889141
0.115746 -0.026489 0.888591
0.117213 -0.026481 0.888322
0.118705 -0.026479 0.888246
0.120231 -0.026484 0.888425
0.121735 -0.026485 0.888444
0.123191 -0.026475 0.888111
0.124626 -0.026461 0.887638
0.126054 -0.026446 0.887131
0.127486 -0.026432 0.886656
0.128948 -0.026424 0.886406
0.130499 -0.026435 0.886762
0.132105 -0.026456 0.887477
0.133758 -0.026486 0.888489
0.135836 -0.026599 0.892277
0.138412 -0.026806 0.899209
-0.027160 -0.025165 0.895067
-0.025611 -0.025130 0.893815
-0.024074 -0.025103 0.892851
-0.022529 -0.025064 0.891476
-0.020984 -0.025018 0.889844
-0.019437 -0.024964 0.887920
-0.017897 -0.024909 0.885968
-0.016365 -0.024857 0.884112
-0.014841 -0.024809 0.882402
-0.013327 -0.024767 0.880903
-0.011822 -0.024733 0.879716
-0.010322 -0.024702 0.878606
-0.008823 -0.024665 0.877282
-0.007330 -0.024630 0.876043
-0.005842 -0.024602 0.875044
-0.004357 -0.024572 0.873977
-0.002877 -0.024550 0.873182
-0.001400 -0.024530 0.872489
0.000075 -0.024502 0.871475
0.001546 -0.024474 0.870488
0.003015 -0.024448 0.869560
0.004480 -0.024421 0.868591
0.005941 -0.024392 0.867590
0.007401 -0.024370 0.866802
0.008855 -0.024339 0.865670
0.010301 -0.024297 0.864184
0.011734 -0.024239 0.862128
0.013157 -0.024176 0.859886
0.014575 -0.024117 0.857790
0.015986 -0.024057 0.855657
0.017396 -0.024007 0.853882
0.018810 -0.023969 0.852532
0.020225 -0.023938 0.851438
0.021639 -0.023910 0.850442
0.023049 -0.023882 0.849444
0.024454 -0.023852 0.848361
0.025857 -0.023823 0.847333
0.027264 -0.023801 0.846549
0.028670 -0.023780 0.845803
0.030091 -0.023773 0.845554
0.031518 -0.023771 0.845476
0.032959 -0.023780 0.845795
0.034400 -0.023787 0.846063
0.035843 -0.023795 0.846347
0.037274 -0.023796 0.846367
0.038704 -0.023795 0.846339
0.040129 -0.023792 0.846224
0.041552 -0.023788 0.846077
0.042976 -0.023784 0.845947
0.044414 -0.023788 0.846100
0.045861 -0.023797 0.846397
0.047311 -0.023806 0.846741
0.048772 -0.023821 0.847257
0.050240 -0.023838 0.847856
0.051703 -0.023852 0.848349
0.053182 -0.023872 0.849063
0.054661 -0.023890 0.849735
0.056144 -0.023910 0.850440
0.057639 -0.023934 0.851285
0.059130 -0.023955 0.852033
0.060618 -0.023974 0.852710
0.062110 -0.023993 0.853398
0.063611 -0.024015 0.854177
0.065113 -0.024037 0.854948
0.066643 -0.024067 0.856029
0.068159 -0.024092 0.856893
0.069704 -0.024125 0.858083
0.071241 -0.024154 0.859123
0.072774 -0.024181 0.860073
0.074294 -0.024203 0.860842
0.075822 -0.024226 0.861670
0.077334 -0.024243 0.862281
0.078886 -0.024272 0.863312
0.080473 -0.024311 0.864687
0.082093 -0.024358 0.866352
0.083760 -0.024417 0.868455
0.085453 -0.024481 0.870745
0.087172 -0.024551 0.873215
0.088918 -0.024625 0.875872
0.090701 -0.024708 0.878807
0.092520 -0.024797 0.881979
0.094462 -0.024916 0.886216
0.096395 -0.025029 0.890227
0.098285 -0.025127 0.893727
0.100084 -0.025200 0.896314
0.101788 -0.025247 0.897973
0.103334 -0.025254 0.898221
0.104812 -0.025244 0.897866
0.106274 -0.025231 0.897397
0.107659 -0.025200 0.896302
0.109025 -0.025165 0.895072
0.110353 -0.025123 0.893571
0.111687 -0.025083 0.892162
0.113012 -0.025043 0.890718
0.114430 -0.025024 0.890040
0.115854 -0.025006 0.889419
0.117323 -0.024999 0.889156
0.118827 -0.024999 0.889160
0.120353 -0.025004 0.889333
0.121859 -0.025004 0.889351
0.123317 -0.024995 0.889020
0.124752 -0.024981 0.888537
0.126182 -0.024967 0.888027
0.127627 -0.024956 0.887636
0.129117 -0.024954 0.887565
0.130699 -0.024969 0.888116
0.132349 -0.024998 0.889120
0.134047 -0.025034 0.890411
0.136541 -0.025217 0.896908
0.139565 -0.025492 0.906704
0.141474 -0.027101 0.909118
-0.027222 -0.023702 0.897121
-0.025672 -0.023671 0.895954
-0.024127 -0.023642 0.894838
-0.022581 -0.023607 0.893527
-0.021028 -0.023559 0.891716
-0.019476 -0.023505 0.889686
-0.017930 -0.023450 0.887603
-0.016391 -0.023396 0.885544
-0.014861 -0.023344 0.883560
-0.013343 -0.023302 0.881962
-0.011835 -0.023268 0.880682
-0.010332 -0.023237 0.879507
-0.008832 -0.023201 0.878177
-0.007336 -0.023167 0.876867
-0.005847 -0.023138 0.875772
-0.004361 -0.023110 0.874701
-0.002880 -0.023088 0.873897
-0.001401 -0.023070 0.873217
0.000075 -0.023048 0.872363
0.001548 -0.023024 0.871462
0.003019 -0.023001 0.870602
0.004485 -0.022976 0.869637
0.005949 -0.022952 0.868721
0.007411 -0.022931 0.867954
0.008868 -0.022904 0.866902
0.010317 -0.022866 0.865485
0.011754 -0.022816 0.863587
0.013177 -0.022752 0.861184
0.014594 -0.022692 0.858903
0.016003 -0.022631 0.856581
0.017411 -0.022580 0.854636
0.018821 -0.022538 0.853061
0.020239 -0.022511 0.852048
0.021656 -0.022487 0.851127
0.023070 -0.022463 0.850212
0.024477 -0.022434 0.849133
0.025880 -0.022407 0.848092
0.027286 -0.022384 0.847222
0.028690 -0.022362 0.846388
0.030110 -0.022353 0.846069
0.031534 -0.022349 0.845906
0.032973 -0.022355 0.846148
0.034411 -0.022360 0.846316
0.035853 -0.022367 0.846582
0.037285 -0.022367 0.846601
0.038716 -0.022367 0.846595
0.040146 -0.022366 0.846574
0.041577 -0.022366 0.846574
0.043001 -0.022363 0.846442
0.044445 -0.022369 0.846675
0.045897 -0.022380 0.847065
0.047353 -0.022391 0.847497
0.048817 -0.022405 0.848037
0.050290 -0.022423 0.848709
0.051760 -0.022438 0.849272
0.053240 -0.022457 0.849988
0.054715 -0.022472 0.850578
0.056194 -0.022489 0.851197
0.057684 -0.022508 0.851945
0.059165 -0.022524 0.852538
0.060648 -0.022540 0.853128
0.062140 -0.022558 0.853809
0.063635 -0.022576 0.854504
0.065138 -0.022596 0.855271
0.066668 -0.022625 0.856347
0.068191 -0.022650 0.857301
0.069739 -0.022682 0.858507
0.071290 -0.022714 0.859718
0.072832 -0.022741 0.860758
0.074367 -0.022766 0.861691
0.075905 -0.022790 0.862614
0.077441 -0.022813 0.863472
0.079002 -0.022842 0.864582
0.080598 -0.022881 0.866033
0.082220 -0.022925 0.867697
0.083891 -0.022980 0.869809
0.085581 -0.023039 0.872047
0.087313 -0.023108 0.874634
0.089074 -0.023181 0.877409
0.090882 -0.023264 0.880557
0.092716 -0.023351 0.883846
0.094654 -0.023461 0.888016
0.096560 -0.023560 0.891749
0.098418 -0.023644 0.894941
0.100178 -0.023703 0.897152
0.101853 -0.023740 0.898549
0.103390 -0.023744 0.898707
0.104878 -0.023737 0.898434
0.106352 -0.023727 0.898057
0.107761 -0.023703 0.897151
0.109141 -0.023673 0.896026
0.110490 -0.023638 0.894687
0.111827 -0.023601 0.893285
0.113152 -0.023562 0.891822
0.114551 -0.023540 0.890977
0.115974 -0.023523 0.890338
0.117423 -0.023511 0.889912
0.118916 -0.023509 0.889830
0.120433 -0.023512 0.889917
0.121938 -0.023512 0.889927
0.123396 -0.023503 0.889587
0.124845 -0.023493 0.889199
0.126289 -0.023482 0.888781
0.127761 -0.023476 0.888570
0.129304 -0.023483 0.888851
0.130956 -0.023510 0.889866
0.132668 -0.023547 0.891261
0.134747 -0.023648 0.895065
0.137683 -0.023894 0.904406
-0.028963 -0.022354 0.904118
-0.027282 -0.022230 0.899104
-0.025727 -0.022200 0.897880
-0.024182 -0.022175 0.896883
-0.022633 -0.022143 0.895569
-0.021074 -0.022096 0.893660
-0.019518 -0.022045 0.891616
-0.017965 -0.021989 0.889353
-0.016420 -0.021934 0.887111
-0.014884 -0.021880 0.884936
-0.013362 -0.021838 0.883232
-0.011850 -0.021802 0.881788
-0.010345 -0.021773 0.880606
-0.008843 -0.021740 0.879286
-0.007346 -0.021707 0.877960
-0.005853 -0.021678 0.876769
-0.004366 -0.021651 0.875672
-0.002882 -0.021629 0.874788
-0.001403 -0.021612 0.874113
0.000075 -0.021591 0.873267
0.001550 -0.021569 0.872360
0.003022 -0.021550 0.871591
0.004491 -0.021528 0.870714
0.005958 -0.021510 0.869962
0.007423 -0.021493 0.869286
0.008882 -0.021469 0.868315
0.010333 -0.021434 0.866914
0.011774 -0.021389 0.865078
0.013195 -0.021322 0.862367
0.014611 -0.021261 0.859894
0.016017 -0.021198 0.857359
0.017423 -0.021145 0.855223
0.018831 -0.021102 0.853483
0.020253 -0.021081 0.852627
0.021675 -0.021062 0.851859
0.023093 -0.021042 0.851034
0.024505 -0.021019 0.850110
0.025911 -0.020993 0.849086
0.027318 -0.020972 0.848206
0.028721 -0.020949 0.847302
0.030142 -0.020941 0.846968
0.031559 -0.020932 0.846592
0.032993 -0.020934 0.846661
0.034425 -0.020934 0.846662
0.035860 -0.020936 0.846748
0.037288 -0.020934 0.846688
0.038723 -0.020936 0.846762
0.040154 -0.020936 0.846754
0.041589 -0.020938 0.846828
0.043022 -0.020938 0.846842
0.044474 -0.020948 0.847233
0.045933 -0.020960 0.847725
0.047399 -0.020975 0.848326
0.048873 -0.020992 0.849013
0.050353 -0.021010 0.849768
0.051821 -0.021023 0.850277
0.053299 -0.021039 0.850928
0.054770 -0.021052 0.851439
0.056240 -0.021063 0.851890
0.057714 -0.021075 0.852397
0.059189 -0.021087 0.852883
0.060671 -0.021102 0.853455
0.062158 -0.021116 0.854053
0.063653 -0.021133 0.854738
0.065167 -0.021156 0.855651
0.066704 -0.021185 0.856811
0.068236 -0.021211 0.857867
0.069799 -0.021245 0.859245
0.071359 -0.021277 0.860540
0.072908 -0.021305 0.861665
0.074454 -0.021330 0.862697
0.076010 -0.021358 0.863805
0.077557 -0.021381 0.864771
0.079130 -0.021411 0.865979
0.080730 -0.021448 0.867451
0.082355 -0.021489 0.869117
0.084021 -0.021539 0.871157
0.085721 -0.021597 0.873475
0.087466 -0.021663 0.876158
0.089247 -0.021736 0.879112
0.091086 -0.021821 0.882531
0.092952 -0.021909 0.886098
0.094888 -0.022010 0.890210
0.096776 -0.022098 0.893751
0.098607 -0.022170 0.896654
0.100329 -0.022215 0.898504
0.101968 -0.022242 0.899564
0.103499 -0.022244 0.899650
0.104989 -0.022237 0.899383
0.106465 -0.022228 0.899011
0.107886 -0.022208 0.898187
0.109279 -0.022182 0.897157
0.110643 -0.022152 0.895923
0.111993 -0.022119 0.894610
0.113318 -0.022083 0.893135
0.114705 -0.022059 0.892177
0.116116 -0.022040 0.891428
0.117543 -0.022025 0.890818
0.119025 -0.022021 0.890642
0.120541 -0.022023 0.890721
0.122048 -0.022023 0.890730
0.123508 -0.022015 0.890399
0.124984 -0.022010 0.890185
0.126444 -0.022002 0.889869
0.127957 -0.022003 0.889935
0.129557 -0.022020 0.890587
0.131270 -0.022055 0.892000
0.133324 -0.022145 0.895665
0.135797 -0.022303 0.902036
-0.030775 -0.022562 0.912516
-0.029110 -0.020927 0.908701
-0.027334 -0.020746 0.900819
-0.025778 -0.020719 0.899656
-0.024230 -0.020695 0.898632
-0.022677 -0.020665 0.897329
-0.021116 -0.020621 0.895421
-0.019559 -0.020576 0.893470
-0.018003 -0.020524 0.891208
-0.016453 -0.020471 0.888880
-0.014912 -0.020418 0.886604
-0.013386 -0.020376 0.884784
-0.011869 -0.020341 0.883247
-0.010361 -0.020312 0.881974
-0.008856 -0.020279 0.880567
-0.007355 -0.020246 0.879133
-0.005861 -0.020217 0.877843
-0.004371 -0.020189 0.876647
-0.002885 -0.020167 0.875676
-0.001404 -0.020153 0.875072
0.000075 -0.020134 0.874237
0.001552 -0.020115 0.873424
0.003026 -0.020099 0.872748
0.004497 -0.020081 0.871951
0.005966 -0.020064 0.871214
0.007435 -0.020052 0.870689
0.008898 -0.020033 0.869890
0.010354 -0.020005 0.868653
0.011800 -0.019967 0.867004
0.013222 -0.019901 0.864123
0.014637 -0.019839 0.861448
0.016041 -0.019773 0.858601
0.017441 -0.019716 0.856111
0.018843 -0.019669 0.854047
0.020268 -0.019651 0.853265
0.021691 -0.019633 0.852506
0.023113 -0.019616 0.851777
0.024529 -0.019597 0.850955
0.025941 -0.019577 0.850093
0.027353 -0.019559 0.849300
0.028761 -0.019540 0.848466
0.030180 -0.019530 0.848052
0.031599 -0.019521 0.847660
0.033028 -0.019519 0.847560
0.034451 -0.019514 0.847317
0.035877 -0.019510 0.847151
0.037305 -0.019508 0.847069
0.038741 -0.019509 0.847142
0.040173 -0.019510 0.847150
0.041613 -0.019513 0.847309
0.043058 -0.019519 0.847546
0.044512 -0.019528 0.847960
0.045977 -0.019542 0.848549
0.047451 -0.019558 0.849240
0.048930 -0.019575 0.850000
0.050407 -0.019591 0.850678
0.051877 -0.019603 0.851197
0.053348 -0.019615 0.851708
0.054816 -0.019625 0.852146
0.056284 -0.019634 0.852566
0.057753 -0.019644 0.852978
0.059223 -0.019653 0.853380
0.060706 -0.019666 0.853945
0.062193 -0.019680 0.854534
0.063683 -0.019694 0.855148
0.065199 -0.019715 0.856068
0.066737 -0.019742 0.857241
0.068272 -0.019767 0.858312
0.069836 -0.019799 0.859702
0.071404 -0.019831 0.861083
0.072968 -0.019860 0.862366
0.074537 -0.019890 0.863655
0.076111 -0.019920 0.864953
0.077685 -0.019948 0.866195
0.079270 -0.019979 0.867517
0.080875 -0.020013 0.869001
0.082502 -0.020051 0.870667
0.084177 -0.020100 0.872779
0.085888 -0.020155 0.875178
0.087651 -0.020220 0.878019
0.089453 -0.020293 0.881147
0.091316 -0.020376 0.884760
0.093188 -0.020459 0.888350
0.095104 -0.020548 0.892240
0.096977 -0.020626 0.895602
0.098789 -0.020688 0.898309
0.100484 -0.020724 0.899895
0.102117 -0.020747 0.900874
0.103659 -0.020751 0.901044
0.105151 -0.020745 0.900775
0.106630 -0.020736 0.900404
0.108054 -0.020717 0.899585
0.109459 -0.020695 0.898637
0.110828 -0.020667 0.897417
0.112191 -0.020639 0.896189
0.113520 -0.020605 0.894722
0.114907 -0.020583 0.893743
0.116294 -0.020561 0.892798
0.117707 -0.020544 0.892065
0.119167 -0.020536 0.891703
0.120673 -0.020535 0.891692
0.122182 -0.020536 0.891703
0.123668 -0.020532 0.891548
0.125184 -0.020534 0.891612
0.126687 -0.020533 0.891586
0.128269 -0.020545 0.892101
0.129927 -0.020569 0.893136
0.131704 -0.020610 0.894945
0.134083 -0.020744 0.900766
0.136916 -0.020945 0.909467
-0.027361 -0.019237 0.901702
-0.025807 -0.019215 0.900661
-0.024258 -0.019195 0.899687
-0.022711 -0.019172 0.898642
-0.021151 -0.019135 0.896919
-0.019597 -0.019099 0.895224
-0.018041 -0.019053 0.893070
-0.016488 -0.019004 0.890742
-0.014943 -0.018955 0.888446
-0.013411 -0.018912 0.886435
-0.011889 -0.018875 0.884700
-0.010377 -0.018846 0.883331
-0.008869 -0.018815 0.881902
-0.007365 -0.018781 0.880310
-0.005869 -0.018755 0.879083
-0.004377 -0.018729 0.877876
-0.002890 -0.018710 0.876979
-0.001406 -0.018699 0.876458
0.000075 -0.018685 0.875786
0.001555 -0.018669 0.875063
0.003032 -0.018655 0.874393
0.004505 -0.018636 0.873521
0.005976 -0.018618 0.872690
0.007447 -0.018607 0.872170
0.008915 -0.018592 0.871466
0.010375 -0.018570 0.870408
0.011828 -0.018540 0.869012
0.013254 -0.018480 0.866205
0.014671 -0.018421 0.863428
0.016072 -0.018354 0.860293
0.017468 -0.018293 0.857440
0.018865 -0.018242 0.855026
0.020288 -0.018221 0.854084
0.021711 -0.018204 0.853265
0.023136 -0.018190 0.852627
0.024558 -0.018176 0.851975
0.025975 -0.018160 0.851205
0.027392 -0.018145 0.850498
0.028804 -0.018129 0.849742
0.030223 -0.018118 0.849248
0.031640 -0.018108 0.848764
0.033065 -0.018102 0.848492
0.034481 -0.018093 0.848062
0.035901 -0.018086 0.847721
0.037326 -0.018082 0.847551
0.038759 -0.018082 0.847551
0.040196 -0.018084 0.847639
0.041641 -0.018089 0.847889
0.043092 -0.018096 0.848224
0.044557 -0.018109 0.848808
0.046028 -0.018124 0.849491
0.047504 -0.018138 0.850188
0.048985 -0.018155 0.850946
0.050462 -0.018169 0.851610
0.051934 -0.018180 0.852126
0.053406 -0.018190 0.852627
0.054874 -0.018199 0.853047
0.056338 -0.018206 0.853380
0.057803 -0.018213 0.853705
0.059269 -0.018220 0.854033
0.060748 -0.018231 0.854535
0.062237 -0.018244 0.855142
0.063734 -0.018259 0.855836
0.065258 -0.018280 0.856840
0.066799 -0.018306 0.858033
0.068341 -0.018330 0.859182
0.069906 -0.018360 0.860572
0.071488 -0.018392 0.862099
0.073069 -0.018424 0.863566
0.074650 -0.018454 0.864964
0.076236 -0.018484 0.866376
0.077827 -0.018514 0.867783
0.079408 -0.018540 0.869033
0.081015 -0.018572 0.870513
0.082653 -0.018609 0.872269
0.084340 -0.018656 0.874467
0.086064 -0.018710 0.876968
0.087840 -0.018773 0.879914
0.089648 -0.018840 0.883068
0.091524 -0.018919 0.886781
0.093403 -0.018996 0.890401
0.095306 -0.019076 0.894131
0.097172 -0.019146 0.897401
0.098966 -0.019199 0.899923
0.100644 -0.019229 0.901327
0.102269 -0.019248 0.902216
0.103814 -0.019252 0.902389
0.105308 -0.019246 0.902124
0.106789 -0.019238 0.901746
0.108222 -0.019222 0.900987
