1707
0.056928 -0.114891 0.884977
0.058399 -0.114842 0.884599
0.059887 -0.114828 0.884491
0.061395 -0.114853 0.884679
0.062908 -0.114883 0.884912
0.064419 -0.114910 0.885123
0.065914 -0.114909 0.885112
0.067349 -0.114804 0.884305
0.068764 -0.114670 0.883273
0.070141 -0.114481 0.881818
0.071474 -0.114228 0.879870
0.072783 -0.113949 0.877715
0.074088 -0.113674 0.875603
0.075367 -0.113372 0.873275
0.076650 -0.113086 0.871070
0.077948 -0.112834 0.869132
0.079256 -0.112605 0.867366
0.080591 -0.112421 0.865950
0.081956 -0.112286 0.864908
0.083315 -0.112147 0.863840
0.084708 -0.112058 0.863154
0.086113 -0.111987 0.862606
0.087526 -0.111930 0.862163
0.088934 -0.111867 0.861684
0.090357 -0.111826 0.861362
0.091775 -0.111779 0.861006
0.093182 -0.111721 0.860558
0.094571 -0.111643 0.859955
0.095958 -0.111566 0.859361
0.097370 -0.111518 0.858997
0.098772 -0.111462 0.858559
0.100183 -0.111417 0.858216
0.101585 -0.111363 0.857802
0.102974 -0.111297 0.857292
0.104358 -0.111228 0.856756
0.105751 -0.111170 0.856309
0.107157 -0.111126 0.855976
0.108595 -0.111117 0.855903
0.110075 -0.111151 0.856163
0.111568 -0.111196 0.856513
0.113117 -0.111295 0.857276
0.114618 -0.111346 0.857668
0.116161 -0.111435 0.858351
0.117725 -0.111542 0.859176
0.119295 -0.111652 0.860024
0.120829 -0.111726 0.860596
0.122439 -0.111868 0.861686
0.124006 -0.111968 0.862456
0.125480 -0.113444 0.862565
0.125554 -0.112048 0.863075
0.127038 -0.113533 0.863244
0.127127 -0.112149 0.863850
-0.015898 -0.121107 0.945193
-0.014298 -0.121093 0.945085
-0.012693 -0.121019 0.944507
-0.011091 -0.120966 0.944095
-0.009483 -0.120817 0.942937
-0.007878 -0.120642 0.941563
-0.006278 -0.120482 0.940319
-0.004684 -0.120367 0.939421
-0.003093 -0.120279 0.938731
-0.001505 -0.120189 0.938031
0.000081 -0.120094 0.937290
0.001663 -0.119904 0.935810
0.003240 -0.119733 0.934470
0.004812 -0.119546 0.933014
0.006383 -0.119424 0.932063
0.007949 -0.119275 0.930899
0.009518 -0.119223 0.930496
0.011086 -0.119170 0.930077
0.012656 -0.119142 0.929863
0.014229 -0.119155 0.929958
0.015802 -0.119160 0.929999
0.017377 -0.119176 0.930123
0.018945 -0.119150 0.929921
0.020510 -0.119108 0.929598
0.022056 -0.118974 0.928545
0.023604 -0.118859 0.927654
0.025127 -0.118648 0.926003
0.026630 -0.118372 0.923851
0.028098 -0.117978 0.920774
0.029531 -0.117485 0.916930
0.030935 -0.116932 0.912613
0.032329 -0.116398 0.908444
0.033735 -0.115952 0.904964
0.035159 -0.115604 0.902246
0.036616 -0.115389 0.900567
0.038084 -0.115224 0.899284
0.039552 -0.115071 0.898085
0.041010 -0.114903 0.896778
0.042455 -0.114710 0.895273
0.043890 -0.114506 0.893675
0.045325 -0.114314 0.892178
0.046756 -0.114126 0.890711
0.048183 -0.113939 0.889255
0.049615 -0.113775 0.887974
0.051042 -0.113610 0.886688
0.052476 -0.113470 0.885594
0.053918 -0.113354 0.884683
0.055368 -0.113260 0.883957
0.056821 -0.113179 0.883322
0.058278 -0.113108 0.882768
0.059751 -0.113071 0.882480
0.061254 -0.113092 0.882645
0.062762 -0.113121 0.882867
0.064272 -0.113151 0.883100
0.065777 -0.113172 0.883268
0.067236 -0.113114 0.882811
0.068664 -0.113009 0.881992
0.070056 -0.112849 0.880746
0.071408 -0.112633 0.879057
0.072724 -0.112369 0.877003
0.074023 -0.112092 0.874840
0.075302 -0.111795 0.872522
0.076583 -0.111512 0.870314
0.077873 -0.111253 0.868289
0.079186 -0.111037 0.866600
0.080535 -0.110876 0.865348
0.081909 -0.110756 0.864411
0.083284 -0.110641 0.863515
0.084692 -0.110574 0.862992
0.086104 -0.110514 0.862524
0.087510 -0.110449 0.862010
0.088933 -0.110406 0.861679
0.090356 -0.110365 0.861357
0.091767 -0.110310 0.860927
0.093173 -0.110251 0.860470
0.094568 -0.110182 0.859934
0.095938 -0.110086 0.859182
0.097339 -0.110027 0.858725
0.098740 -0.109971 0.858284
0.100142 -0.109917 0.857865
0.101544 -0.109866 0.857462
0.102935 -0.109802 0.856966
0.104320 -0.109735 0.856444
0.105711 -0.109677 0.855989
0.107115 -0.109633 0.855645
0.108542 -0.109613 0.855492
0.110021 -0.109645 0.855741
0.111522 -0.109699 0.856163
0.113082 -0.109808 0.857010
0.114595 -0.109870 0.857495
0.116149 -0.109969 0.858265
0.117733 -0.110093 0.859239
0.119306 -0.110204 0.860101
0.120852 -0.110288 0.860760
0.122474 -0.110439 0.861936
0.124054 -0.110548 0.862787
0.125616 -0.110639 0.863496
0.127202 -0.110749 0.864355
-0.015896 -0.119493 0.945107
-0.014300 -0.119504 0.945188
-0.012694 -0.119430 0.944602
-0.011092 -0.119379 0.944201
-0.009484 -0.119232 0.943035
-0.007879 -0.119059 0.941668
-0.006278 -0.118900 0.940413
-0.004684 -0.118798 0.939609
-0.003094 -0.118714 0.938938
-0.001506 -0.118640 0.938354
0.000081 -0.118561 0.937730
0.001663 -0.118372 0.936240
0.003241 -0.118189 0.934789
0.004813 -0.117992 0.933227
0.006384 -0.117859 0.932182
0.007948 -0.117691 0.930849
0.009517 -0.117627 0.930341
0.011086 -0.117583 0.929999
0.012656 -0.117568 0.929877
0.014230 -0.117582 0.929991
0.015803 -0.117588 0.930039
0.017377 -0.117600 0.930134
0.018939 -0.117536 0.929626
0.020493 -0.117434 0.928817
0.022024 -0.117225 0.927167
0.023553 -0.117035 0.925659
0.025049 -0.116714 0.923120
0.026524 -0.116339 0.920156
0.027965 -0.115866 0.916417
0.029394 -0.115392 0.912664
0.030803 -0.114892 0.908712
0.032217 -0.114459 0.905286
0.033642 -0.114101 0.902458
0.035087 -0.113839 0.900384
0.036544 -0.113638 0.898794
0.038013 -0.113487 0.897602
0.039478 -0.113337 0.896416
0.040934 -0.113173 0.895118
0.042380 -0.112993 0.893697
0.043814 -0.112794 0.892116
0.045246 -0.112605 0.890628
0.046675 -0.112422 0.889173
0.048105 -0.112249 0.887811
0.049534 -0.112087 0.886527
0.050959 -0.111925 0.885243
0.052385 -0.111774 0.884049
0.053823 -0.111657 0.883129
0.055261 -0.111546 0.882245
0.056706 -0.111455 0.881532
0.058160 -0.111385 0.880976
0.059623 -0.111336 0.880587
0.061111 -0.111335 0.880578
0.062619 -0.111370 0.880859
0.064131 -0.111409 0.881167
0.065635 -0.111434 0.881361
0.067105 -0.111401 0.881102
0.068539 -0.111311 0.880388
0.069936 -0.111164 0.879229
0.071293 -0.110964 0.877646
0.072622 -0.110727 0.875773
0.073935 -0.110477 0.873793
0.075221 -0.110197 0.871582
0.076508 -0.109930 0.869465
0.077804 -0.109684 0.867524
0.079132 -0.109492 0.866004
0.080489 -0.109347 0.864859
0.081886 -0.109260 0.864168
0.083275 -0.109167 0.863429
0.084691 -0.109110 0.862981
0.086104 -0.109051 0.862515
0.087502 -0.108976 0.861923
0.088916 -0.108924 0.861512
0.090337 -0.108882 0.861174
0.091747 -0.108827 0.860743
0.093154 -0.108770 0.860294
0.094551 -0.108704 0.859773
0.095920 -0.108609 0.859018
0.097320 -0.108551 0.858559
0.098730 -0.108505 0.858194
0.100133 -0.108454 0.857789
0.101546 -0.108414 0.857473
0.102954 -0.108370 0.857127
0.104348 -0.108313 0.856674
0.105742 -0.108257 0.856233
0.107147 -0.108214 0.855895
0.108563 -0.108184 0.855657
0.110029 -0.108203 0.855808
0.111520 -0.108245 0.856141
0.113068 -0.108342 0.856905
0.114593 -0.108414 0.857476
0.116158 -0.108522 0.858330
0.117743 -0.108646 0.859312
0.119326 -0.108765 0.860251
0.120885 -0.108859 0.860997
0.122500 -0.109001 0.862117
0.124092 -0.109119 0.863055
0.125676 -0.109228 0.863911
0.127264 -0.109337 0.864777
-0.017496 -0.117905 0.945216
-0.015900 -0.117920 0.945333
-0.014302 -0.117920 0.945338
-0.012696 -0.117845 0.944732
-0.011093 -0.117781 0.944224
-0.009486 -0.117658 0.943237
-0.007880 -0.117487 0.941863
-0.006280 -0.117330 0.940605
-0.004685 -0.117229 0.939797
-0.003095 -0.117157 0.939223
-0.001506 -0.117086 0.938651
0.000081 -0.117021 0.938126
0.001664 -0.116846 0.936723
0.003242 -0.116653 0.935178
0.004815 -0.116457 0.933608
0.006386 -0.116327 0.932562
0.007951 -0.116150 0.931145
0.009519 -0.116075 0.930545
0.011089 -0.116043 0.930288
0.012659 -0.116018 0.930087
0.014231 -0.116013 0.930045
0.015803 -0.116017 0.930083
0.017374 -0.116004 0.929973
0.018930 -0.115903 0.929167
0.020472 -0.115742 0.927873
0.021987 -0.115461 0.925622
0.023493 -0.115172 0.923307
0.024966 -0.114767 0.920062
0.026415 -0.114306 0.916367
0.027848 -0.113831 0.912556
0.029277 -0.113391 0.909027
0.030691 -0.112941 0.905418
0.032121 -0.112587 0.902581
0.033562 -0.112304 0.900318
0.035011 -0.112070 0.898442
0.036470 -0.111885 0.896956
0.037942 -0.111755 0.895916
0.039401 -0.111598 0.894655
0.040855 -0.111438 0.893374
0.042298 -0.111262 0.891960
0.043732 -0.111075 0.890463
0.045163 -0.110892 0.888997
0.046595 -0.110724 0.887650
0.048027 -0.110566 0.886379
0.049458 -0.110414 0.885159
0.050880 -0.110253 0.883872
0.052299 -0.110094 0.882598
0.053735 -0.109980 0.881686
0.055170 -0.109870 0.880801
0.056608 -0.109771 0.880005
0.058054 -0.109691 0.879370
0.059509 -0.109633 0.878902
0.060981 -0.109609 0.878709
0.062475 -0.109623 0.878825
0.063976 -0.109650 0.879039
0.065477 -0.109675 0.879237
0.066950 -0.109653 0.879065
0.068388 -0.109575 0.878439
0.069788 -0.109442 0.877370
0.071161 -0.109273 0.876014
0.072501 -0.109061 0.874320
0.073828 -0.108838 0.872531
0.075128 -0.108585 0.870503
0.076435 -0.108352 0.868636
0.077746 -0.108133 0.866875
0.079091 -0.107968 0.865556
0.080458 -0.107839 0.864523
0.081863 -0.107765 0.863924
0.083259 -0.107682 0.863257
0.084674 -0.107625 0.862801
0.086087 -0.107569 0.862351
0.087485 -0.107495 0.861759
0.088898 -0.107442 0.861334
0.090308 -0.107387 0.860899
0.091718 -0.107334 0.860470
0.093117 -0.107270 0.859959
0.094516 -0.107207 0.859454
0.095894 -0.107123 0.858782
0.097312 -0.107087 0.858488
0.098732 -0.107052 0.858214
0.100155 -0.107023 0.857977
0.101596 -0.107013 0.857894
0.103014 -0.106980 0.857631
0.104410 -0.106925 0.857189
0.105804 -0.106869 0.856742
0.107210 -0.106827 0.856404
0.108618 -0.106787 0.856088
0.110074 -0.106796 0.856155
0.111563 -0.106835 0.856471
0.113100 -0.106920 0.857149
0.114605 -0.106972 0.857565
0.116159 -0.107068 0.858339
0.117744 -0.107190 0.859315
0.119328 -0.107308 0.860260
0.120911 -0.107422 0.861178
0.122549 -0.107583 0.862464
0.124167 -0.107721 0.863571
0.125786 -0.107857 0.864665
0.127388 -0.107976 0.865621
-0.017511 -0.116404 0.946040
-0.015915 -0.116426 0.946219
-0.014314 -0.116414 0.946119
-0.012705 -0.116329 0.945431
-0.011097 -0.116229 0.944613
-0.009490 -0.116108 0.943636
-0.007883 -0.115927 0.942160
-0.006281 -0.115763 0.940826
-0.004686 -0.115662 0.940005
-0.003096 -0.115600 0.939508
-0.001507 -0.115529 0.938929
0.000081 -0.115466 0.938413
0.001665 -0.115306 0.937113
0.003244 -0.115116 0.935571
0.004817 -0.114922 0.933996
0.006388 -0.114782 0.932854
0.007953 -0.114595 0.931339
0.009520 -0.114509 0.930640
0.011090 -0.114478 0.930384
0.012659 -0.114442 0.930097
0.014229 -0.114426 0.929963
0.015800 -0.114418 0.929899
0.017367 -0.114380 0.929590
0.018914 -0.114234 0.928407
0.020441 -0.113994 0.926450
0.021937 -0.113632 0.923507
0.023419 -0.113248 0.920390
0.024873 -0.112789 0.916656
0.026312 -0.112313 0.912794
0.027746 -0.111873 0.909215
0.029180 -0.111480 0.906019
0.030605 -0.111093 0.902875
0.032040 -0.110779 0.900325
0.033485 -0.110525 0.898259
0.034932 -0.110298 0.896414
0.036390 -0.110124 0.895003
0.037859 -0.109996 0.893962
0.039315 -0.109842 0.892708
0.040770 -0.109696 0.891520
0.042219 -0.109545 0.890292
0.043651 -0.109362 0.888805
0.045084 -0.109193 0.887431
0.046513 -0.109027 0.886084
0.047943 -0.108872 0.884823
0.049372 -0.108724 0.883624
0.050797 -0.108577 0.882424
0.052209 -0.108412 0.881090
0.053643 -0.108299 0.880169
0.055075 -0.108189 0.879276
0.056510 -0.108092 0.878485
0.057948 -0.108004 0.877770
0.059400 -0.107947 0.877304
0.060870 -0.107922 0.877102
0.062348 -0.107914 0.877038
0.063839 -0.107929 0.877159
0.065337 -0.107953 0.877352
0.066800 -0.107921 0.877097
0.068233 -0.107843 0.876459
0.069642 -0.107729 0.875533
0.071019 -0.107573 0.874272
0.072366 -0.107379 0.872695
0.073713 -0.107192 0.871172
0.075026 -0.106965 0.869325
0.076348 -0.106758 0.867645
0.077680 -0.106573 0.866139
0.079048 -0.106444 0.865091
0.080433 -0.106341 0.864252
0.081846 -0.106279 0.863750
0.083249 -0.106206 0.863160
0.084665 -0.106151 0.862709
0.086078 -0.106095 0.862259
0.087468 -0.106014 0.861597
0.088880 -0.105960 0.861159
0.090288 -0.105904 0.860707
0.091697 -0.105851 0.860271
0.093089 -0.105780 0.859700
0.094496 -0.105728 0.859277
0.095882 -0.105655 0.858682
0.097310 -0.105629 0.858469
0.098742 -0.105609 0.858307
0.100188 -0.105603 0.858260
0.101641 -0.105605 0.858275
0.103078 -0.105592 0.858164
0.104495 -0.105557 0.857881
0.105911 -0.105523 0.857608
0.107330 -0.105493 0.857361
0.108748 -0.105462 0.857114
0.110205 -0.105469 0.857171
0.111693 -0.105507 0.857473
0.113212 -0.105572 0.858003
0.114706 -0.105611 0.858324
0.116249 -0.105694 0.859000
0.117822 -0.105803 0.859886
0.119396 -0.105910 0.860751
0.121004 -0.106044 0.861838
0.122659 -0.106215 0.863234
0.124313 -0.106382 0.864592
0.125961 -0.106540 0.865870
0.127581 -0.106670 0.866932
0.128996 -0.108098 0.866592
0.129182 -0.106782 0.867838
-0.017533 -0.114943 0.947217
-0.015934 -0.114960 0.947359
-0.014328 -0.114920 0.947029
-0.012717 -0.114836 0.946336
-0.011103 -0.114689 0.945121
-0.009494 -0.114558 0.944042
-0.007885 -0.114357 0.942389
-0.006283 -0.114197 0.941064
-0.004687 -0.114084 0.940132
-0.003096 -0.114021 0.939619
-0.001507 -0.113950 0.939033
0.000081 -0.113900 0.938618
0.001665 -0.113756 0.937432
0.003245 -0.113570 0.935904
0.004819 -0.113379 0.934327
0.006390 -0.113237 0.933152
0.007954 -0.113040 0.931534
0.009521 -0.112944 0.930739
0.011091 -0.112911 0.930473
0.012660 -0.112874 0.930166
0.014227 -0.112834 0.929835
0.015796 -0.112812 0.929654
0.017360 -0.112761 0.929231
0.018894 -0.112542 0.927426
0.020404 -0.112220 0.924777
0.021880 -0.111778 0.921131
0.023340 -0.111315 0.917316
0.024778 -0.110807 0.913134
0.026216 -0.110363 0.909471
0.027652 -0.109959 0.906141
0.029091 -0.109609 0.903260
0.030522 -0.109265 0.900422
0.031960 -0.108978 0.898061
0.033405 -0.108740 0.896096
0.034852 -0.108528 0.894350
0.036307 -0.108358 0.892952
0.037776 -0.108242 0.891992
0.039232 -0.108100 0.890827
0.040685 -0.107959 0.889662
0.042132 -0.107813 0.888458
0.043569 -0.107653 0.887136
0.045003 -0.107495 0.885836
0.046430 -0.107333 0.884505
0.047863 -0.107192 0.883339
0.049295 -0.107059 0.882242
0.050723 -0.106926 0.881148
0.052134 -0.106765 0.879820
0.053566 -0.106654 0.878905
0.054990 -0.106534 0.877920
0.056422 -0.106437 0.877116
0.057853 -0.106341 0.876329
0.059303 -0.106284 0.875859
0.060764 -0.106250 0.875580
0.062238 -0.106240 0.875496
0.063720 -0.106243 0.875517
0.065201 -0.106244 0.875528
0.066654 -0.106201 0.875179
0.068078 -0.106115 0.874467
0.069490 -0.106013 0.873629
0.070874 -0.105875 0.872485
0.072240 -0.105715 0.871170
0.073601 -0.105555 0.869854
0.074942 -0.105372 0.868346
0.076277 -0.105190 0.866842
0.077632 -0.105039 0.865602
0.079016 -0.104935 0.864739
0.080416 -0.104854 0.864075
0.081838 -0.104804 0.863660
0.083255 -0.104750 0.863218
0.084671 -0.104696 0.862774
0.086086 -0.104643 0.862337
0.087469 -0.104554 0.861601
0.088871 -0.104490 0.861071
0.090270 -0.104424 0.860532
0.091678 -0.104371 0.860093
0.093062 -0.104293 0.859449
0.094476 -0.104250 0.859094
0.095878 -0.104195 0.858641
0.097316 -0.104181 0.858526
0.098761 -0.104174 0.858470
0.100237 -0.104200 0.858681
0.101721 -0.104232 0.858949
0.103182 -0.104241 0.859026
0.104622 -0.104229 0.858923
0.106061 -0.104216 0.858817
0.107492 -0.104196 0.858654
0.108913 -0.104167 0.858414
0.110392 -0.104193 0.858626
0.111896 -0.104242 0.859029
0.113418 -0.104306 0.859560
0.114903 -0.104335 0.859797
0.116442 -0.104411 0.860427
0.117992 -0.104496 0.861127
0.119558 -0.104593 0.861919
0.121171 -0.104727 0.863029
0.122853 -0.104918 0.864601
0.124550 -0.105116 0.866237
0.126230 -0.105296 0.867718
0.127870 -0.105439 0.868894
-0.015957 -0.113514 0.948695
-0.014342 -0.113429 0.947983
-0.012726 -0.113311 0.946994
-0.011107 -0.113128 0.945463
-0.009497 -0.112984 0.944260
-0.007886 -0.112775 0.942517
-0.006284 -0.112627 0.941274
-0.004688 -0.112505 0.940256
-0.003096 -0.112441 0.939722
-0.001507 -0.112371 0.939136
0.000081 -0.112334 0.938831
0.001666 -0.112207 0.937770
0.003246 -0.112036 0.936341
0.004822 -0.111856 0.934838
0.006394 -0.111714 0.933649
0.007958 -0.111519 0.932020
0.009526 -0.111424 0.931220
0.011096 -0.111380 0.930852
0.012664 -0.111329 0.930433
0.014228 -0.111264 0.929886
0.015795 -0.111229 0.929598
0.017357 -0.111167 0.929074
0.018874 -0.110852 0.926445
0.020364 -0.110440 0.922999
0.021822 -0.109925 0.918696
0.023261 -0.109388 0.914208
0.024680 -0.108828 0.909526
0.026123 -0.108437 0.906261
0.027563 -0.108076 0.903245
0.029005 -0.107760 0.900599
0.030441 -0.107455 0.898056
0.031882 -0.107196 0.895888
0.033325 -0.106964 0.893946
0.034771 -0.106765 0.892287
0.036224 -0.106600 0.890905
0.037686 -0.106476 0.889871
0.039143 -0.106347 0.888795
0.040597 -0.106220 0.887731
0.042045 -0.106088 0.886628
0.043485 -0.105943 0.885419
0.044920 -0.105798 0.884205
0.046349 -0.105647 0.882946
0.047787 -0.105529 0.881954
0.049219 -0.105401 0.880887
0.050651 -0.105282 0.879894
0.052060 -0.105124 0.878572
0.053484 -0.105003 0.877559
0.054900 -0.104874 0.876484
0.056330 -0.104778 0.875681
0.057759 -0.104685 0.874900
0.059207 -0.104629 0.874439
0.060665 -0.104595 0.874148
0.062130 -0.104574 0.873978
0.063603 -0.104567 0.873914
0.065074 -0.104556 0.873823
0.066524 -0.104513 0.873463
0.067939 -0.104418 0.872675
0.069362 -0.104340 0.872016
0.070759 -0.104226 0.871064
0.072146 -0.104102 0.870035
0.073528 -0.103976 0.868981
0.074896 -0.103837 0.867817
0.076241 -0.103670 0.866425
0.077610 -0.103543 0.865359
0.079002 -0.103450 0.864579
0.080409 -0.103380 0.864000
0.081838 -0.103340 0.863665
0.083272 -0.103308 0.863396
0.084689 -0.103255 0.862954
0.086104 -0.103203 0.862518
0.087494 -0.103123 0.861845
0.088880 -0.103040 0.861159
0.090270 -0.102966 0.860534
0.091678 -0.102913 0.860091
0.093061 -0.102834 0.859437
0.094467 -0.102783 0.859009
0.095886 -0.102748 0.858711
0.097343 -0.102753 0.858759
0.098808 -0.102767 0.858874
0.100306 -0.102814 0.859267
0.101810 -0.102867 0.859707
0.103303 -0.102905 0.860031
0.104767 -0.102916 0.860116
0.106232 -0.102927 0.860208
0.107689 -0.102929 0.860224
0.109133 -0.102919 0.860144
0.110635 -0.102964 0.860517
0.112156 -0.103025 0.861030
0.113687 -0.103093 0.861598
0.115164 -0.103111 0.861752
0.116701 -0.103182 0.862343
0.118230 -0.103245 0.862867
0.119788 -0.103330 0.863578
0.121416 -0.103474 0.864779
0.123128 -0.103683 0.866533
0.124855 -0.103902 0.868358
0.126555 -0.104093 0.869954
0.128214 -0.104246 0.871235
-0.015981 -0.112078 0.950150
-0.014355 -0.111921 0.948823
-0.012732 -0.111758 0.947435
-0.011110 -0.111550 0.945674
-0.009498 -0.111395 0.944358
-0.007887 -0.111189 0.942612
-0.006285 -0.111042 0.941369
-0.004688 -0.110920 0.940338
-0.003097 -0.110858 0.939807
-0.001507 -0.110790 0.939230
0.000081 -0.110767 0.939035
0.001667 -0.110654 0.938080
0.003248 -0.110498 0.936754
0.004824 -0.110331 0.935343
0.006397 -0.110192 0.934160
0.007963 -0.110000 0.932535
0.009531 -0.109908 0.931751
0.011101 -0.109852 0.931278
0.012668 -0.109790 0.930756
0.014230 -0.109702 0.930009
0.015795 -0.109655 0.929612
0.017356 -0.109583 0.928996
0.018854 -0.109164 0.925451
0.020325 -0.108663 0.921196
0.021761 -0.108063 0.916110
0.023179 -0.107456 0.910970
0.024579 -0.106846 0.905795
0.026028 -0.106510 0.902951
0.027472 -0.106190 0.900239
0.028918 -0.105913 0.897884
0.030359 -0.105647 0.895630
0.031803 -0.105415 0.893662
0.033249 -0.105208 0.891908
0.034699 -0.105035 0.890439
0.036152 -0.104882 0.889145
0.037612 -0.104761 0.888119
0.039069 -0.104643 0.887121
0.040524 -0.104528 0.886148
0.041968 -0.104392 0.884995
0.043409 -0.104261 0.883878
0.044842 -0.104119 0.882678
0.046269 -0.103972 0.881434
0.047711 -0.103867 0.880539
0.049145 -0.103752 0.879564
0.050580 -0.103645 0.878660
0.051991 -0.103498 0.877410
0.053413 -0.103378 0.876395
0.054822 -0.103241 0.875235
0.056250 -0.103146 0.874432
0.057671 -0.103044 0.873567
0.059117 -0.102990 0.873110
0.060573 -0.102958 0.872832
0.062026 -0.102919 0.872507
0.063483 -0.102891 0.872265
0.064944 -0.102869 0.872083
0.066391 -0.102826 0.871721
0.067810 -0.102743 0.871016
0.069258 -0.102708 0.870713
0.070680 -0.102635 0.870099
0.072095 -0.102556 0.869427
0.073492 -0.102453 0.868557
0.074883 -0.102348 0.867661
0.076235 -0.102194 0.866357
0.077612 -0.102079 0.865388
0.079003 -0.101986 0.864599
0.080418 -0.101927 0.864091
0.081840 -0.101878 0.863682
0.083283 -0.101857 0.863506
0.084709 -0.101817 0.863160
0.086125 -0.101766 0.862728
0.087521 -0.101694 0.862116
0.088914 -0.101620 0.861494
0.090305 -0.101546 0.860865
0.091713 -0.101494 0.860424
0.093097 -0.101417 0.859773
0.094503 -0.101366 0.859342
0.095924 -0.101332 0.859055
0.097383 -0.101340 0.859116
0.098851 -0.101356 0.859251
0.100367 -0.101419 0.859790
0.101891 -0.101490 0.860391
0.103408 -0.101551 0.860904
0.104896 -0.101583 0.861176
0.106385 -0.101615 0.861446
0.107854 -0.101626 0.861546
0.109321 -0.101636 0.861629
0.110850 -0.101703 0.862194
0.112399 -0.101786 0.862897
0.113949 -0.101866 0.863581
0.115438 -0.101893 0.863804
0.116979 -0.101963 0.864398
0.118511 -0.102023 0.864911
0.120074 -0.102110 0.865642
0.121729 -0.102271 0.867008
0.123479 -0.102506 0.869004
0.125225 -0.102733 0.870932
0.126933 -0.102924 0.872551
0.128596 -0.103075 0.873828
-0.017621 -0.110681 0.951985
-0.015996 -0.110568 0.951017
-0.014365 -0.110390 0.949487
-0.012737 -0.110195 0.947805
-0.011111 -0.109964 0.945825
-0.009497 -0.109791 0.944334
-0.007886 -0.109589 0.942595
-0.006285 -0.109445 0.941359
-0.004688 -0.109325 0.940325
-0.003097 -0.109264 0.939797
-0.001507 -0.109207 0.939313
0.000081 -0.109197 0.939222
0.001667 -0.109097 0.938366
0.003249 -0.108955 0.937146
0.004827 -0.108804 0.935841
0.006401 -0.108669 0.934681
0.007968 -0.108492 0.933158
0.009538 -0.108401 0.932380
0.011108 -0.108348 0.931918
0.012678 -0.108297 0.931485
0.014243 -0.108220 0.930819
0.015809 -0.108174 0.930426
0.017350 -0.107973 0.928700
0.018824 -0.107426 0.923993
0.020269 -0.106810 0.918694
0.021680 -0.106110 0.912676
0.023072 -0.105424 0.906769
0.024477 -0.104875 0.902053
0.025936 -0.104611 0.899779
0.027384 -0.104330 0.897358
0.028834 -0.104089 0.895288
0.030281 -0.103860 0.893321
0.031731 -0.103664 0.891636
0.033178 -0.103474 0.890000
0.034632 -0.103324 0.888710
0.036082 -0.103175 0.887432
0.037539 -0.103057 0.886409
0.038997 -0.102950 0.885491
0.040457 -0.102856 0.884682
0.041903 -0.102733 0.883626
0.043347 -0.102615 0.882614
0.044783 -0.102487 0.881506
0.046207 -0.102341 0.880254
0.047639 -0.102219 0.879207
0.049066 -0.102097 0.878160
0.050499 -0.101992 0.877256
0.051908 -0.101847 0.876006
0.053327 -0.101730 0.874997
0.054739 -0.101604 0.873915
0.056170 -0.101520 0.873195
0.057590 -0.101421 0.872343
0.059034 -0.101368 0.871890
0.060488 -0.101335 0.871602
0.061932 -0.101287 0.871193
0.063376 -0.101241 0.870790
0.064833 -0.101217 0.870585
0.066283 -0.101184 0.870303
0.067702 -0.101106 0.869634
0.069169 -0.101102 0.869595
0.070611 -0.101061 0.869246
0.072041 -0.101005 0.868765
0.073451 -0.100925 0.868074
0.074869 -0.100859 0.867508
0.076229 -0.100718 0.866297
0.077615 -0.100615 0.865413
0.079012 -0.100531 0.864690
0.080433 -0.100480 0.864251
0.081855 -0.100433 0.863847
0.083308 -0.100424 0.863764
0.084743 -0.100394 0.863512
0.086160 -0.100345 0.863084
0.087557 -0.100273 0.862470
0.088951 -0.100201 0.861845
0.090343 -0.100129 0.861228
0.091752 -0.100078 0.860788
0.093146 -0.100012 0.860219
0.094561 -0.099970 0.859866
0.095993 -0.099948 0.859670
0.097454 -0.099956 0.859742
0.098923 -0.099971 0.859872
0.100448 -0.100043 0.860485
0.101974 -0.100113 0.861090
0.103502 -0.100183 0.861689
0.105012 -0.100234 0.862131
0.106534 -0.100294 0.862648
0.108026 -0.100325 0.862918
0.109526 -0.100364 0.863248
0.111082 -0.100450 0.863992
0.112647 -0.100544 0.864797
0.114211 -0.100634 0.865573
0.115716 -0.100670 0.865880
0.117262 -0.100741 0.866490
0.118801 -0.100803 0.867027
0.120381 -0.100899 0.867855
0.122053 -0.101069 0.869315
0.123821 -0.101313 0.871414
0.125574 -0.101540 0.873363
0.127285 -0.101727 0.874970
0.128948 -0.101872 0.876218
-0.019270 -0.109288 0.953915
-0.017631 -0.109128 0.952521
-0.016001 -0.108993 0.951344
-0.014368 -0.108803 0.949683
-0.012736 -0.108582 0.947756
-0.011110 -0.108345 0.945687
-0.009495 -0.108166 0.944123
-0.007885 -0.107969 0.942405
-0.006284 -0.107838 0.941261
-0.004688 -0.107719 0.940224
-0.003096 -0.107659 0.939699
-0.001507 -0.107605 0.939222
0.000081 -0.107605 0.939222
0.001667 -0.107518 0.938463
0.003250 -0.107400 0.937439
0.004829 -0.107275 0.936342
0.006406 -0.107165 0.935381
0.007976 -0.107012 0.934052
0.009548 -0.106933 0.933363
0.011120 -0.106882 0.932913
0.012692 -0.106833 0.932490
0.014258 -0.106759 0.931840
0.015808 -0.106587 0.930338
0.017324 -0.106242 0.927331
0.018773 -0.105571 0.921470
0.020193 -0.104855 0.915220
0.021580 -0.104084 0.908495
0.022979 -0.103469 0.903126
0.024395 -0.102998 0.899012
0.025863 -0.102792 0.897212
0.027314 -0.102548 0.895083
0.028770 -0.102343 0.893297
0.030223 -0.102150 0.891614
0.031681 -0.101990 0.890216
0.033129 -0.101816 0.888698
0.034588 -0.101690 0.887594
0.036037 -0.101544 0.886322
0.037489 -0.101418 0.885221
0.038945 -0.101312 0.884302
0.040403 -0.101221 0.883501
0.041847 -0.101101 0.882457
0.043294 -0.100995 0.881534
0.044732 -0.100877 0.880501
0.046155 -0.100734 0.879255
0.047587 -0.100621 0.878265
0.049009 -0.100491 0.877132
0.050440 -0.100387 0.876223
0.051848 -0.100246 0.874989
0.053266 -0.100131 0.873993
0.054672 -0.100001 0.872854
0.056102 -0.099918 0.872134
0.057514 -0.099811 0.871193
0.058956 -0.099758 0.870735
0.060403 -0.099717 0.870378
0.061845 -0.099669 0.869958
0.063284 -0.099620 0.869528
0.064738 -0.099595 0.869312
0.066187 -0.099564 0.869039
0.067612 -0.099499 0.868474
0.069092 -0.099516 0.868622
0.070548 -0.099499 0.868471
0.071997 -0.099472 0.868239
0.073421 -0.099413 0.867726
0.074861 -0.099377 0.867407
0.076236 -0.099258 0.866370
0.077629 -0.099167 0.865575
0.079027 -0.099085 0.864858
0.080447 -0.099034 0.864410
0.081870 -0.098986 0.864000
0.083323 -0.098978 0.863923
0.084768 -0.098959 0.863764
0.086194 -0.098921 0.863423
0.087601 -0.098861 0.862902
0.088995 -0.098789 0.862278
0.090389 -0.098720 0.861671
0.091801 -0.098671 0.861244
0.093204 -0.098615 0.860758
0.094630 -0.098585 0.860490
0.096071 -0.098571 0.860369
0.097534 -0.098579 0.860444
0.099011 -0.098602 0.860640
0.100537 -0.098671 0.861249
0.102065 -0.098741 0.861854
0.103604 -0.098819 0.862538
0.105127 -0.098880 0.863071
0.106650 -0.098940 0.863590
0.108164 -0.098989 0.864017
0.109689 -0.099047 0.864525
0.111259 -0.099144 0.865374
0.112840 -0.099247 0.866276
0.114424 -0.099352 0.867185
0.115942 -0.099396 0.867573
0.117504 -0.099477 0.868278
0.119052 -0.099544 0.868864
0.120659 -0.099658 0.869860
0.122348 -0.099836 0.871416
0.124124 -0.100080 0.873544
0.125871 -0.100295 0.875423
0.127584 -0.100479 0.877028
0.129259 -0.100629 0.878332
-0.017633 -0.107527 0.952641
-0.016002 -0.107384 0.951374
-0.014367 -0.107191 0.949663
-0.012733 -0.106952 0.947542
-0.011107 -0.106718 0.945475
-0.009493 -0.106543 0.943925
-0.007885 -0.106372 0.942405
-0.006285 -0.106264 0.941449
-0.004689 -0.106158 0.940513
-0.003097 -0.106100 0.939995
-0.001507 -0.106045 0.939511
0.000081 -0.106034 0.939411
0.001668 -0.105948 0.938653
0.003251 -0.105845 0.937737
0.004832 -0.105746 0.936858
0.006409 -0.105639 0.935915
0.007982 -0.105509 0.934764
0.009556 -0.105441 0.934157
0.011130 -0.105392 0.933724
0.012702 -0.105342 0.933280
0.014272 -0.105283 0.932758
0.015799 -0.104953 0.929832
0.017283 -0.104418 0.925098
0.018699 -0.103602 0.917864
0.020099 -0.102825 0.910979
0.021488 -0.102107 0.904620
0.022898 -0.101577 0.899924
0.024327 -0.101194 0.896533
0.025794 -0.101004 0.894851
0.027254 -0.100806 0.893092
0.028716 -0.100638 0.891610
0.030176 -0.100481 0.890219
0.031636 -0.100338 0.888953
0.033088 -0.100186 0.887602
0.034546 -0.100062 0.886504
0.035993 -0.099918 0.885229
0.037443 -0.099794 0.884133
0.038897 -0.099691 0.883219
0.040354 -0.099601 0.882423
0.041800 -0.099493 0.881463
0.043246 -0.099391 0.880556
0.044679 -0.099266 0.879454
0.046103 -0.099133 0.878270
0.047529 -0.099011 0.877192
0.048948 -0.098881 0.876039
0.050376 -0.098778 0.875125
0.051788 -0.098649 0.873986
0.053206 -0.098539 0.873010
0.054616 -0.098420 0.871957
0.056044 -0.098338 0.871234
0.057450 -0.098224 0.870217
0.058884 -0.098162 0.869674
0.060323 -0.098111 0.869219
0.061751 -0.098045 0.868636
0.063176 -0.097978 0.868041
0.064627 -0.097953 0.867818
0.066079 -0.097931 0.867621
0.067510 -0.097879 0.867167
0.069002 -0.097916 0.867492
0.070476 -0.097926 0.867583
0.071937 -0.097919 0.867519
0.073376 -0.097882 0.867189
0.074829 -0.097865 0.867042
0.076220 -0.097770 0.866196
0.077622 -0.097691 0.865498
0.079028 -0.097620 0.864870
0.080448 -0.097569 0.864419
0.081870 -0.097523 0.864006
0.083323 -0.097513 0.863923
0.084776 -0.097505 0.863847
0.086212 -0.097476 0.863597
0.087636 -0.097437 0.863242
0.089040 -0.097377 0.862711
0.090443 -0.097317 0.862187
0.091864 -0.097278 0.861836
0.093277 -0.097232 0.861428
0.094705 -0.097203 0.861176
0.096148 -0.097191 0.861065
0.097621 -0.097208 0.861216
0.099099 -0.097229 0.861406
0.100617 -0.097288 0.861932
0.102137 -0.097348 0.862462
0.103677 -0.097426 0.863147
0.105200 -0.097485 0.863672
0.106725 -0.097544 0.864198
0.108261 -0.097612 0.864796
0.109811 -0.097690 0.865492
0.111396 -0.097797 0.866435
0.112978 -0.097899 0.867336
0.114561 -0.097999 0.868223
0.116090 -0.098051 0.868683
0.117658 -0.098133 0.869415
0.119210 -0.098201 0.870012
0.120830 -0.098322 0.871092
0.122543 -0.098516 0.872804
0.124323 -0.098758 0.874949
0.126066 -0.098964 0.876778
0.127792 -0.099154 0.878459
0.129505 -0.099329 0.880006
0.132403 -0.101906 0.889482
0.131168 -0.099461 0.881183
-0.017630 -0.105893 0.952469
-0.015997 -0.105739 0.951080
-0.014363 -0.105549 0.949372
-0.012732 -0.105334 0.947440
-0.011106 -0.105105 0.945376
-0.009492 -0.104933 0.943833
-0.007886 -0.104785 0.942502
-0.006287 -0.104691 0.941655
-0.004691 -0.104599 0.940832
-0.003098 -0.104543 0.940325
-0.001508 -0.104488 0.939830
0.000081 -0.104464 0.939616
0.001668 -0.104379 0.938847
0.003252 -0.104278 0.937943
0.004833 -0.104184 0.937093
0.006411 -0.104081 0.936168
0.007985 -0.103962 0.935103
0.009559 -0.103895 0.934493
0.011134 -0.103846 0.934059
0.012708 -0.103808 0.933717
0.014262 -0.103630 0.932114
0.015760 -0.103117 0.927504
0.017205 -0.102385 0.920916
0.018594 -0.101471 0.912693
0.020000 -0.100781 0.906486
0.021403 -0.100174 0.901027
0.022828 -0.099747 0.897190
0.024274 -0.099455 0.894563
0.025739 -0.099271 0.892910
0.027203 -0.099108 0.891442
0.028672 -0.098976 0.890248
0.030137 -0.098844 0.889064
0.031601 -0.098723 0.887979
0.033055 -0.098583 0.886722
0.034511 -0.098459 0.885606
0.035959 -0.098326 0.884404
0.037408 -0.098205 0.883314
0.038861 -0.098104 0.882408
0.040320 -0.098024 0.881688
0.041765 -0.097917 0.880731
0.043210 -0.097816 0.879821
0.044642 -0.097696 0.878736
0.046066 -0.097565 0.877559
0.047482 -0.097427 0.876321
0.048903 -0.097306 0.875235
0.050331 -0.097206 0.874332
0.051746 -0.097089 0.873278
0.053169 -0.096991 0.872395
0.054583 -0.096883 0.871423
0.055999 -0.096784 0.870536
0.057396 -0.096659 0.869409
0.058823 -0.096588 0.868769
0.060243 -0.096510 0.868076
0.061664 -0.096437 0.867415
0.063086 -0.096370 0.866810
0.064529 -0.096336 0.866506
0.065973 -0.096306 0.866240
0.067414 -0.096272 0.865934
0.068904 -0.096309 0.866268
0.070384 -0.096330 0.866450
0.071851 -0.096332 0.866475
0.073301 -0.096314 0.866308
0.074763 -0.096310 0.866276
0.076176 -0.096246 0.865693
0.077593 -0.096188 0.865175
0.079015 -0.096138 0.864723
0.080442 -0.096096 0.864347
0.081871 -0.096058 0.864008
0.083323 -0.096049 0.863923
0.084784 -0.096049 0.863923
0.086228 -0.096031 0.863764
0.087662 -0.096002 0.863506
0.089085 -0.095962 0.863146
0.090497 -0.095912 0.862696
0.091926 -0.095882 0.862421
0.093340 -0.095837 0.862017
0.094779 -0.095818 0.861845
0.096226 -0.095808 0.861755
0.097700 -0.095825 0.861906
0.099170 -0.095837 0.862020
0.100687 -0.095895 0.862538
0.102199 -0.095945 0.862988
0.103729 -0.096011 0.863583
0.105253 -0.096069 0.864106
0.106780 -0.096129 0.864640
0.108328 -0.096205 0.865330
0.109890 -0.096292 0.866113
0.111479 -0.096400 0.867080
0.113061 -0.096499 0.867974
0.114645 -0.096598 0.868858
0.116184 -0.096656 0.869384
0.117743 -0.096729 0.870045
0.119297 -0.096796 0.870648
0.120927 -0.096924 0.871793
0.122639 -0.097112 0.873486
0.124411 -0.097343 0.875564
0.126177 -0.097564 0.877556
0.127932 -0.097772 0.879421
0.129690 -0.097977 0.881266
0.131423 -0.098158 0.882893
-0.017620 -0.104217 0.951911
-0.015988 -0.104069 0.950559
-0.014360 -0.103915 0.949149
-0.012732 -0.103728 0.947440
-0.011107 -0.103512 0.945467
-0.009493 -0.103344 0.943931
-0.007887 -0.103209 0.942703
-0.006289 -0.103129 0.941967
-0.004693 -0.103052 0.941267
-0.003100 -0.102988 0.940681
-0.001508 -0.102932 0.940174
0.000081 -0.102895 0.939830
0.001668 -0.102808 0.939037
0.003253 -0.102709 0.938136
0.004835 -0.102628 0.937389
0.006414 -0.102537 0.936561
0.007989 -0.102429 0.935579
0.009564 -0.102362 0.934962
0.011140 -0.102317 0.934549
0.012715 -0.102283 0.934244
0.014267 -0.102084 0.932427
0.018487 -0.099351 0.907458
0.019907 -0.098783 0.902275
0.021328 -0.098303 0.897892
0.022769 -0.097973 0.894876
0.024234 -0.097779 0.893106
0.025699 -0.097608 0.891536
0.027167 -0.097469 0.890269
0.028640 -0.097357 0.889253
0.030107 -0.097240 0.888184
0.031573 -0.097131 0.887183
0.033025 -0.096992 0.885917
0.034479 -0.096868 0.884785
0.035926 -0.096738 0.883595
0.037374 -0.096619 0.882508
0.038827 -0.096521 0.881616
0.040284 -0.096442 0.880893
0.041731 -0.096344 0.880000
0.043171 -0.096238 0.879023
0.044602 -0.096119 0.877939
0.046025 -0.095992 0.876779
0.047440 -0.095856 0.875535
0.048856 -0.095730 0.874389
0.050282 -0.095631 0.873484
0.051702 -0.095526 0.872527
0.053124 -0.095431 0.871654
0.054541 -0.095333 0.870761
0.055956 -0.095235 0.869863
0.057346 -0.095101 0.868643
0.058759 -0.095012 0.867828
0.060171 -0.094925 0.867030
0.061583 -0.094842 0.866274
0.063004 -0.094776 0.865674
0.064445 -0.094743 0.865374
0.065893 -0.094722 0.865182
0.067332 -0.094689 0.864877
0.068814 -0.094717 0.865132
0.070291 -0.094735 0.865303
0.071762 -0.094747 0.865410
0.073220 -0.094740 0.865345
0.074689 -0.094747 0.865413
0.076116 -0.094702 0.865002
0.077540 -0.094656 0.864578
0.078968 -0.094616 0.864210
0.080396 -0.094577 0.863857
0.081840 -0.094558 0.863680
0.083300 -0.094558 0.863679
0.084768 -0.094567 0.863764
0.086229 -0.094568 0.863770
0.087680 -0.094558 0.863682
0.089113 -0.094529 0.863421
0.090535 -0.094490 0.863064
0.091973 -0.094468 0.862863
0.093396 -0.094432 0.862533
0.094845 -0.094423 0.862451
0.096302 -0.094422 0.862440
0.097778 -0.094440 0.862603
0.099249 -0.094452 0.862711
0.100758 -0.094499 0.863146
0.102250 -0.094529 0.863421
0.103770 -0.094584 0.863924
0.105294 -0.094641 0.864440
0.106820 -0.094699 0.864969
0.108381 -0.094785 0.865756
0.109955 -0.094880 0.866622
0.111535 -0.094978 0.867517
0.113117 -0.095075 0.868404
0.114701 -0.095171 0.869283
0.116221 -0.095212 0.869658
0.117769 -0.095276 0.870239
0.119310 -0.095332 0.870748
0.120916 -0.095437 0.871714
0.122614 -0.095612 0.873310
0.124384 -0.095838 0.875374
0.126166 -0.096068 0.877474
0.127961 -0.096303 0.879617
0.129784 -0.096553 0.881905
0.131574 -0.096773 0.883914
-0.015981 -0.102413 0.950136
-0.014354 -0.102267 0.948787
-0.012731 -0.102112 0.947347
-0.011108 -0.101920 0.945565
-0.009494 -0.101755 0.944040
-0.007889 -0.101634 0.942915
-0.006291 -0.101566 0.942281
-0.004695 -0.101501 0.941684
-0.003101 -0.101439 0.941102
-0.001509 -0.101393 0.940681
0.000081 -0.101355 0.940325
0.001669 -0.101268 0.939520
0.003254 -0.101170 0.938612
0.004837 -0.101089 0.937860
0.006417 -0.101000 0.937028
0.007992 -0.100883 0.935946
0.009568 -0.100817 0.935331
0.011143 -0.100767 0.934867
0.012719 -0.100727 0.934500
0.014263 -0.100478 0.932188
0.017005 -0.098112 0.910233
0.018387 -0.097283 0.902548
0.019838 -0.096917 0.899155
0.021289 -0.096602 0.896229
0.022755 -0.096395 0.894304
0.024216 -0.096193 0.892436
0.025678 -0.096017 0.890802
0.027147 -0.095889 0.889612
0.028621 -0.095789 0.888685
0.030088 -0.095673 0.887614
0.031549 -0.095557 0.886531
0.033004 -0.095429 0.885345
0.034457 -0.095307 0.884214
0.035903 -0.095179 0.883031
0.037351 -0.095065 0.881966
0.038803 -0.094969 0.881079
0.040255 -0.094881 0.880262
0.041697 -0.094776 0.879288
0.043135 -0.094670 0.878303
0.044561 -0.094545 0.877144
0.045987 -0.094428 0.876063
0.047405 -0.094303 0.874901
0.048825 -0.094189 0.873841
0.050251 -0.094092 0.872947
0.051680 -0.094007 0.872158
0.053102 -0.093914 0.871295
0.054515 -0.093811 0.870336
0.055923 -0.093705 0.869352
0.057306 -0.093563 0.868038
0.058706 -0.093456 0.867040
0.060110 -0.093361 0.866160
0.061526 -0.093287 0.865470
0.062945 -0.093222 0.864873
0.064380 -0.093183 0.864506
0.065821 -0.093153 0.864235
0.067257 -0.093119 0.863915
0.068724 -0.093128 0.863999
0.070193 -0.093138 0.864096
0.071668 -0.093158 0.864273
0.073131 -0.093159 0.864289
0.074598 -0.093167 0.864365
0.076037 -0.093140 0.864114
0.077474 -0.093112 0.863849
0.078910 -0.093083 0.863579
0.080346 -0.093055 0.863320
0.081798 -0.093046 0.863236
0.083258 -0.093047 0.863251
0.084735 -0.093066 0.863423
0.086212 -0.093085 0.863597
0.087681 -0.093094 0.863688
0.089132 -0.093086 0.863605
0.090573 -0.093066 0.863421
0.092021 -0.093054 0.863313
0.093453 -0.093026 0.863057
0.094904 -0.093018 0.862981
0.096362 -0.093018 0.862975
0.097840 -0.093036 0.863146
0.099310 -0.093047 0.863242
0.100800 -0.093075 0.863506
0.102281 -0.093094 0.863682
0.103800 -0.093146 0.864168
0.105323 -0.093202 0.864681
0.106843 -0.093252 0.865150
0.108403 -0.093336 0.865929
0.109975 -0.093428 0.866784
0.111544 -0.093515 0.867587
0.113126 -0.093610 0.868473
0.114710 -0.093705 0.869355
0.116230 -0.093746 0.869729
0.117778 -0.093807 0.870299
0.119306 -0.093852 0.870717
0.120876 -0.093928 0.871419
0.122537 -0.094072 0.872761
0.124292 -0.094284 0.874725
0.126084 -0.094519 0.876908
0.127908 -0.094773 0.879255
0.129789 -0.095061 0.881933
0.131630 -0.095315 0.884289
0.133390 -0.097007 0.886048
0.133484 -0.095572 0.886672
-0.015975 -0.100767 0.949811
-0.014352 -0.100640 0.948612
-0.012732 -0.100516 0.947439
-0.011111 -0.100338 0.945768
-0.009498 -0.100187 0.944344
-0.007893 -0.100089 0.943416
-0.006295 -0.100031 0.942874
-0.004699 -0.099988 0.942462
-0.003104 -0.099926 0.941883
-0.001511 -0.099882 0.941466
0.000081 -0.099835 0.941021
0.001670 -0.099740 0.940129
0.003256 -0.099624 0.939039
0.004839 -0.099534 0.938182
0.006419 -0.099435 0.937249
0.007993 -0.099310 0.936074
0.009568 -0.099235 0.935365
0.011144 -0.099184 0.934890
0.012719 -0.099147 0.934534
0.018313 -0.095367 0.898908
0.019803 -0.095224 0.897559
0.021281 -0.095050 0.895923
0.022743 -0.094829 0.893840
0.024201 -0.094623 0.891890
0.025660 -0.094441 0.890177
0.027128 -0.094313 0.888974
0.028598 -0.094206 0.887965
0.030062 -0.094090 0.886875
0.031521 -0.093967 0.885716
0.032976 -0.093849 0.884600
0.034429 -0.093732 0.883493
0.035878 -0.093616 0.882407
0.037325 -0.093505 0.881356
0.038772 -0.093402 0.880383
0.040219 -0.093304 0.879468
0.041655 -0.093191 0.878398
0.043087 -0.093078 0.877328
0.044512 -0.092956 0.876180
0.045940 -0.092849 0.875170
0.047357 -0.092726 0.874010
0.048780 -0.092621 0.873029
0.050210 -0.092537 0.872229
0.051643 -0.092462 0.871529
0.053069 -0.092380 0.870754
0.054486 -0.092288 0.869885
0.055893 -0.092183 0.868896
0.057276 -0.092044 0.867588
0.058669 -0.091929 0.866506
0.060067 -0.091826 0.865535
0.061476 -0.091745 0.864767
0.062889 -0.091674 0.864101
0.064317 -0.091628 0.863663
0.065756 -0.091598 0.863385
0.067189 -0.091563 0.863049
0.068648 -0.091562 0.863047
0.070114 -0.091571 0.863126
0.071581 -0.091582 0.863227
0.073035 -0.091575 0.863162
0.074494 -0.091574 0.863154
0.075930 -0.091547 0.862899
0.077365 -0.091518 0.862632
0.078807 -0.091499 0.862450
0.080249 -0.091481 0.862283
0.081708 -0.091482 0.862291
0.083182 -0.091500 0.862463
0.084667 -0.091529 0.862736
0.086153 -0.091558 0.863008
0.087646 -0.091594 0.863347
0.089124 -0.091613 0.863521
0.090584 -0.091613 0.863523
0.092050 -0.091620 0.863588
0.093501 -0.091611 0.863501
0.094952 -0.091602 0.863423
0.096412 -0.091602 0.863424
0.097889 -0.091619 0.863582
0.099351 -0.091621 0.863597
0.100831 -0.091638 0.863764
0.102310 -0.091655 0.863923
0.103819 -0.091699 0.864333
0.105335 -0.091746 0.864775
0.106864 -0.091804 0.865321
0.108423 -0.091885 0.866092
0.109986 -0.091968 0.866867
0.111552 -0.092051 0.867651
0.113133 -0.092144 0.868527
0.114706 -0.092229 0.869325
0.116217 -0.092261 0.869629
0.117752 -0.092312 0.870109
0.119266 -0.092345 0.870426
0.120800 -0.092393 0.870876
0.122422 -0.092506 0.871939
0.124159 -0.092703 0.873793
0.125950 -0.092934 0.875977
0.127789 -0.093195 0.878434
0.129708 -0.093508 0.881382
0.131590 -0.093787 0.884016
0.133456 -0.094049 0.886489
0.135267 -0.095773 0.888537
0.135236 -0.094246 0.888337
-0.015988 -0.099235 0.950556
-0.014364 -0.099115 0.949406
-0.012740 -0.098971 0.948031
-0.011119 -0.098808 0.946465
-0.009505 -0.098660 0.945051
-0.007899 -0.098564 0.944128
-0.006299 -0.098498 0.943494
-0.004702 -0.098455 0.943081
-0.003106 -0.098394 0.942504
-0.001512 -0.098352 0.942099
0.000081 -0.098317 0.941763
0.001672 -0.098225 0.940879
0.003258 -0.098110 0.939777
0.004842 -0.098000 0.938726
0.006422 -0.097899 0.937760
0.007996 -0.097756 0.936392
0.009571 -0.097677 0.935631
0.011146 -0.097620 0.935089
0.012722 -0.097583 0.934729
0.018311 -0.093832 0.898799
0.019802 -0.093697 0.897511
0.021275 -0.093502 0.895637
0.022734 -0.093276 0.893477
0.024192 -0.093073 0.891533
0.025649 -0.092893 0.889810
0.027114 -0.092758 0.888516
0.028580 -0.092643 0.887411
0.030041 -0.092521 0.886241
0.031498 -0.092398 0.885069
0.032952 -0.092283 0.883960
0.034404 -0.092168 0.882864
0.035857 -0.092065 0.881877
0.037303 -0.091956 0.880828
0.038745 -0.091843 0.879751
0.040182 -0.091729 0.878659
0.041611 -0.091606 0.877479
0.043038 -0.091486 0.876331
0.044466 -0.091375 0.875263
0.045894 -0.091272 0.874279
0.047318 -0.091168 0.873285
0.048744 -0.091075 0.872388
0.050177 -0.091000 0.871670
0.051611 -0.090928 0.870988
0.053041 -0.090857 0.870300
0.054458 -0.090766 0.869432
0.055865 -0.090663 0.868447
0.057246 -0.090526 0.867136
0.058640 -0.090415 0.866065
0.060037 -0.090314 0.865101
0.061445 -0.090234 0.864337
0.062857 -0.090164 0.863665
0.064284 -0.090118 0.863223
0.065716 -0.090079 0.862855
0.067142 -0.090036 0.862437
0.068586 -0.090018 0.862266
0.070037 -0.090010 0.862185
0.071489 -0.090002 0.862109
0.072933 -0.089985 0.861951
0.074375 -0.089967 0.861779
0.075809 -0.089939 0.861516
0.077242 -0.089912 0.861253
0.078682 -0.089894 0.861081
0.080123 -0.089878 0.860923
0.081593 -0.089894 0.861081
0.083073 -0.089921 0.861335
0.084572 -0.089966 0.861767
0.086074 -0.090012 0.862214
0.087584 -0.090067 0.862738
0.089079 -0.090104 0.863090
0.090557 -0.090123 0.863270
0.092026 -0.090132 0.863356
0.093486 -0.090132 0.863359
0.094953 -0.090140 0.863432
0.096422 -0.090149 0.863518
0.097901 -0.090166 0.863682
0.099371 -0.090175 0.863770
0.100849 -0.090191 0.863923
0.102329 -0.090208 0.864083
0.103840 -0.090251 0.864502
0.105356 -0.090299 0.864955
0.106896 -0.090364 0.865581
0.108455 -0.090444 0.866347
0.110007 -0.090516 0.867036
0.111562 -0.090588 0.867730
0.113143 -0.090680 0.868605
0.114706 -0.090755 0.869322
0.116206 -0.090778 0.869545
0.117718 -0.090811 0.869861
0.119218 -0.090833 0.870077
0.120727 -0.090861 0.870347
0.122299 -0.090937 0.871067
0.123995 -0.091101 0.872638
0.125777 -0.091323 0.874768
0.127603 -0.091572 0.877154
0.129524 -0.091883 0.880136
0.131443 -0.092186 0.883032
0.133344 -0.092469 0.885742
0.135137 -0.092671 0.887682
-0.016027 -0.097861 0.952866
-0.014385 -0.097650 0.950815
-0.012751 -0.097451 0.948877
-0.011129 -0.097291 0.947313
-0.009513 -0.097145 0.945890
-0.007906 -0.097050 0.944968
-0.006304 -0.096976 0.944247
-0.004706 -0.096933 0.943829
-0.003108 -0.096873 0.943251
-0.001513 -0.096823 0.942759
0.000081 -0.096798 0.942511
0.001673 -0.096707 0.941625
0.003261 -0.096592 0.940514
0.004845 -0.096473 0.939351
0.006426 -0.096372 0.938363
0.008000 -0.096219 0.936882
0.009576 -0.096143 0.936133
0.011136 -0.095946 0.934217
0.012679 -0.095675 0.931579
0.016849 -0.092625 0.901879
0.018305 -0.092280 0.898523
0.019794 -0.092138 0.897145
0.021268 -0.091955 0.895362
0.022725 -0.091725 0.893125
0.024184 -0.091534 0.891261
0.025641 -0.091356 0.889526
0.027103 -0.091215 0.888157
0.028566 -0.091092 0.886957
0.030023 -0.090963 0.885698
0.031475 -0.090832 0.884426
0.032929 -0.090720 0.883333
0.034383 -0.090616 0.882321
0.035835 -0.090516 0.881347
0.037280 -0.090408 0.880294
0.038717 -0.090287 0.879119
0.040144 -0.090155 0.877833
0.041567 -0.090023 0.876550
0.042989 -0.089897 0.875319
0.044415 -0.089790 0.874275
0.045843 -0.089690 0.873308
0.047275 -0.089607 0.872493
0.048705 -0.089524 0.871685
0.050143 -0.089460 0.871071
0.051580 -0.089399 0.870473
0.053015 -0.089337 0.869870
0.054430 -0.089247 0.868993
0.055842 -0.089155 0.868094
0.057223 -0.089021 0.866793
0.058617 -0.088913 0.865736
0.060014 -0.088814 0.864774
0.061421 -0.088734 0.864001
0.062826 -0.088656 0.863242
0.064246 -0.088602 0.862711
0.065671 -0.088556 0.862263
0.067089 -0.088504 0.861760
0.068525 -0.088478 0.861501
0.069968 -0.088460 0.861333
0.071410 -0.088443 0.861161
0.072844 -0.088417 0.860907
0.074276 -0.088389 0.860633
0.075700 -0.088353 0.860283
0.077124 -0.088318 0.859943
0.078562 -0.088300 0.859770
0.080001 -0.088284 0.859612
0.081469 -0.088300 0.859770
0.082947 -0.088326 0.860028
0.084445 -0.088372 0.860468
0.085953 -0.088427 0.861007
0.087478 -0.088497 0.861695
0.088990 -0.088552 0.862223
0.090493 -0.088597 0.862662
0.091979 -0.088623 0.862916
0.093455 -0.088639 0.863077
0.094923 -0.088648 0.863160
0.096393 -0.088657 0.863251
0.097863 -0.088667 0.863347
0.099342 -0.088684 0.863515
0.100821 -0.088701 0.863679
0.102311 -0.088727 0.863932
0.103832 -0.088779 0.864439
0.105359 -0.088835 0.864979
0.106899 -0.088899 0.865603
0.108458 -0.088978 0.866372
0.110011 -0.089049 0.867065
0.111557 -0.089113 0.867688
0.113136 -0.089202 0.868549
0.114698 -0.089275 0.869263
0.116186 -0.089289 0.869398
0.117686 -0.089312 0.869625
0.119183 -0.089332 0.869821
0.120667 -0.089342 0.869919
0.122203 -0.089390 0.870380
0.123857 -0.089522 0.871669
0.125596 -0.089711 0.873514
0.127390 -0.089935 0.875695
0.129296 -0.090232 0.878588
0.131227 -0.090540 0.881583
0.133142 -0.090830 0.884402
0.134958 -0.091046 0.886510
0.136898 -0.092848 0.889377
0.136716 -0.091219 0.888195
-0.017736 -0.096784 0.958199
-0.016058 -0.096435 0.954743
-0.014406 -0.096177 0.952186
-0.012763 -0.095933 0.949773
-0.011138 -0.095764 0.948094
-0.009521 -0.095619 0.946659
-0.007913 -0.095534 0.945822
-0.006310 -0.095460 0.945090
-0.004710 -0.095418 0.944670
-0.003111 -0.095367 0.944171
-0.001514 -0.095316 0.943663
0.000081 -0.095292 0.943426
0.001674 -0.095192 0.942438
0.003264 -0.095080 0.941328
0.004848 -0.094942 0.939958
0.006428 -0.094814 0.938690
0.008001 -0.094643 0.936995
0.009577 -0.094566 0.936231
0.011118 -0.094208 0.932696
0.016847 -0.091086 0.901785
0.018310 -0.090781 0.898766
0.019794 -0.090619 0.897164
0.021264 -0.090419 0.895181
0.022720 -0.090192 0.892935
0.024177 -0.089995 0.890986
0.025628 -0.089804 0.889088
0.027089 -0.089665 0.887710
0.028546 -0.089526 0.886341
0.030001 -0.089398 0.885072
0.031449 -0.089262 0.883719
0.032905 -0.089158 0.882693
0.034359 -0.089057 0.881694
0.035813 -0.088967 0.880807
0.037254 -0.088853 0.879671
0.038686 -0.088726 0.878414
0.040107 -0.088585 0.877025
0.041525 -0.088446 0.875650
0.042940 -0.088313 0.874329
0.044370 -0.088217 0.873380
0.045805 -0.088137 0.872591
0.047242 -0.088066 0.871880
0.048680 -0.088002 0.871247
0.050128 -0.087957 0.870807
0.051565 -0.087898 0.870222
0.053005 -0.087845 0.869700
0.054420 -0.087756 0.868818
0.055831 -0.087665 0.867918
0.057212 -0.087535 0.866623
0.058607 -0.087429 0.865576
0.059997 -0.087323 0.864532
0.061403 -0.087244 0.863743
0.062801 -0.087158 0.862896
0.064214 -0.087096 0.862283
0.065632 -0.087043 0.861756
0.067049 -0.086991 0.861242
0.068477 -0.086956 0.860897
0.069905 -0.086922 0.860554
0.071332 -0.086887 0.860214
0.072756 -0.086852 0.859864
0.074172 -0.086808 0.859432
0.075587 -0.086764 0.858999
0.077008 -0.086729 0.858644
0.078443 -0.086711 0.858468
0.079880 -0.086695 0.858308
0.081339 -0.086703 0.858392
0.082814 -0.086729 0.858645
0.084309 -0.086773 0.859086
0.085822 -0.086835 0.859695
