1703
0.032669 -0.073308 0.838331
0.034056 -0.073245 0.837609
0.035444 -0.073187 0.836944
0.036837 -0.073143 0.836445
0.038223 -0.073089 0.835823
0.039600 -0.073022 0.835055
0.040989 -0.072983 0.834610
0.042377 -0.072943 0.834155
0.043767 -0.072909 0.833766
0.045169 -0.072896 0.833622
0.046579 -0.072897 0.833631
0.047983 -0.072889 0.833544
0.049386 -0.072882 0.833453
0.050786 -0.072869 0.833303
0.052171 -0.072835 0.832919
0.053561 -0.072811 0.832642
0.054945 -0.072779 0.832279
0.056319 -0.072737 0.831797
0.057708 -0.072715 0.831550
0.059114 -0.072715 0.831543
0.060536 -0.072735 0.831777
0.061985 -0.072784 0.832339
0.063471 -0.072876 0.833387
0.064959 -0.072964 0.834396
0.066479 -0.073085 0.835779
0.068005 -0.073206 0.837167
0.069543 -0.073336 0.838646
0.071101 -0.073481 0.840303
0.072672 -0.073633 0.842044
0.074249 -0.073785 0.843784
0.075843 -0.073949 0.845657
0.077410 -0.074080 0.847161
0.078974 -0.074204 0.848581
0.080564 -0.074348 0.850222
0.082141 -0.074474 0.851666
0.083725 -0.074603 0.853136
0.085392 -0.074800 0.855387
0.087048 -0.074981 0.857458
0.088714 -0.075164 0.859556
0.090410 -0.075366 0.861869
0.092112 -0.075567 0.864168
0.093783 -0.075737 0.866106
0.095442 -0.075892 0.867880
0.097104 -0.076044 0.869620
0.098760 -0.076188 0.871263
0.100396 -0.076312 0.872679
0.102059 -0.076452 0.874284
0.103766 -0.076621 0.876220
0.105496 -0.076802 0.878290
0.107255 -0.077000 0.880545
0.109036 -0.077206 0.882908
0.110802 -0.077397 0.885091
0.112561 -0.077579 0.887168
0.114273 -0.077723 0.888813
0.115966 -0.077850 0.890274
0.117662 -0.077977 0.891724
0.119367 -0.078107 0.893205
0.121094 -0.078246 0.894803
0.122839 -0.078395 0.896497
0.124587 -0.078541 0.898175
0.126389 -0.078718 0.900199
0.128206 -0.078900 0.902273
0.130049 -0.079093 0.904486
0.131928 -0.079303 0.906885
0.133811 -0.079511 0.909266
0.135677 -0.079704 0.911473
0.137551 -0.079898 0.913688
0.139437 -0.080094 0.915927
0.141290 -0.080267 0.917908
0.143160 -0.080446 0.919955
0.145020 -0.080615 0.921892
0.146846 -0.080762 0.923574
0.148665 -0.080903 0.925177
0.150515 -0.081056 0.926936
0.152296 -0.081171 0.928243
-0.022548 -0.076508 0.892222
-0.021026 -0.076456 0.891609
-0.019499 -0.076379 0.890714
-0.017968 -0.076272 0.889462
-0.016434 -0.076132 0.887829
-0.014900 -0.075965 0.885883
-0.013372 -0.075792 0.883873
-0.011849 -0.075608 0.881725
-0.010333 -0.075424 0.879580
-0.008824 -0.075239 0.877417
-0.007322 -0.075038 0.875080
-0.005827 -0.074846 0.872840
-0.004341 -0.074663 0.870705
-0.002863 -0.074519 0.869020
-0.001392 -0.074399 0.867623
0.000075 -0.074269 0.866110
0.001536 -0.074137 0.864574
0.002992 -0.074001 0.862983
0.004441 -0.073838 0.861087
0.005883 -0.073669 0.859112
0.007322 -0.073529 0.857474
0.008754 -0.073382 0.855767
0.010181 -0.073244 0.854157
0.011602 -0.073099 0.852461
0.013019 -0.072961 0.850851
0.014429 -0.072817 0.849172
0.015839 -0.072701 0.847817
0.017247 -0.072594 0.846577
0.018658 -0.072515 0.845657
0.020064 -0.072432 0.844685
0.021475 -0.072374 0.844005
0.022882 -0.072310 0.843257
0.024282 -0.072234 0.842372
0.025676 -0.072150 0.841392
0.027073 -0.072082 0.840603
0.028463 -0.072003 0.839688
0.029854 -0.071935 0.838889
0.031251 -0.071887 0.838331
0.032647 -0.071839 0.837772
0.034033 -0.071776 0.837040
0.035420 -0.071719 0.836374
0.036808 -0.071669 0.835786
0.038186 -0.071603 0.835012
0.039560 -0.071535 0.834226
0.040941 -0.071483 0.833617
0.042324 -0.071439 0.833101
0.043708 -0.071398 0.832633
0.045107 -0.071386 0.832488
0.046515 -0.071386 0.832488
0.047917 -0.071378 0.832401
0.049319 -0.071370 0.832307
0.050720 -0.071362 0.832212
0.052108 -0.071336 0.831908
0.053499 -0.071316 0.831666
0.054887 -0.071293 0.831400
0.056271 -0.071265 0.831080
0.057665 -0.071252 0.830924
0.059076 -0.071259 0.831007
0.060504 -0.071286 0.831325
0.061957 -0.071341 0.831966
0.063443 -0.071432 0.833018
0.064936 -0.071525 0.834107
0.066457 -0.071644 0.835495
0.067981 -0.071761 0.836867
0.069516 -0.071887 0.838324
0.071071 -0.072026 0.839952
0.072635 -0.072169 0.841616
0.074212 -0.072319 0.843367
0.075800 -0.072474 0.845179
0.077367 -0.072604 0.846687
0.078930 -0.072725 0.848109
0.080520 -0.072866 0.849750
0.082095 -0.072990 0.851191
0.083684 -0.073121 0.852720
0.085340 -0.073306 0.854872
0.087003 -0.073489 0.857009
0.088678 -0.073676 0.859198
0.090383 -0.073884 0.861612
0.092095 -0.074089 0.864009
0.093783 -0.074269 0.866106
0.095442 -0.074421 0.867880
0.097104 -0.074570 0.869620
0.098751 -0.074704 0.871179
0.100376 -0.074818 0.872506
0.102018 -0.074940 0.873934
0.103703 -0.075091 0.875690
0.105419 -0.075259 0.877651
0.107178 -0.075452 0.879907
0.108956 -0.075654 0.882264
0.110733 -0.075850 0.884541
0.112503 -0.076035 0.886704
0.114214 -0.076177 0.888359
0.115908 -0.076303 0.889831
0.117603 -0.076427 0.891279
0.119307 -0.076554 0.892750
0.121018 -0.076681 0.894241
0.122747 -0.076818 0.895832
0.124493 -0.076961 0.897498
0.126282 -0.077126 0.899431
0.128098 -0.077305 0.901514
0.129956 -0.077504 0.903832
0.131846 -0.077718 0.906327
0.133729 -0.077922 0.908711
0.135592 -0.078110 0.910902
0.137460 -0.078297 0.913085
0.139329 -0.078480 0.915220
0.141180 -0.078650 0.917194
0.143050 -0.078826 0.919248
0.144911 -0.078993 0.921196
0.146737 -0.079138 0.922886
0.148567 -0.079282 0.924568
0.150418 -0.079434 0.926340
0.152185 -0.079539 0.927564
-0.024063 -0.076529 0.892460
-0.024050 -0.074974 0.891956
-0.022533 -0.074943 0.891596
-0.021006 -0.074875 0.890789
-0.019477 -0.074786 0.889726
-0.017946 -0.074672 0.888368
-0.016411 -0.074525 0.886620
-0.014881 -0.074370 0.884776
-0.013357 -0.074209 0.882863
-0.011837 -0.074036 0.880808
-0.010323 -0.073864 0.878754
-0.008817 -0.073691 0.876695
-0.007316 -0.073497 0.874397
-0.005823 -0.073311 0.872182
-0.004338 -0.073139 0.870133
-0.002862 -0.072997 0.868438
-0.001391 -0.072879 0.867040
0.000074 -0.072758 0.865604
0.001535 -0.072635 0.864136
0.002991 -0.072501 0.862540
0.004439 -0.072341 0.860633
0.005880 -0.072169 0.858591
0.007317 -0.072031 0.856946
0.008748 -0.071880 0.855156
0.010173 -0.071738 0.853469
0.011593 -0.071597 0.851782
0.013010 -0.071468 0.850254
0.014419 -0.071328 0.848585
0.015829 -0.071221 0.847310
0.017238 -0.071122 0.846138
0.018648 -0.071045 0.845223
0.020052 -0.070958 0.844179
0.021460 -0.070893 0.843417
0.022864 -0.070824 0.842594
0.024260 -0.070743 0.841629
0.025653 -0.070661 0.840648
0.027049 -0.070596 0.839875
0.028441 -0.070527 0.839051
0.029834 -0.070466 0.838331
0.031233 -0.070425 0.837843
0.032630 -0.070383 0.837347
0.034019 -0.070328 0.836695
0.035403 -0.070267 0.835957
0.036786 -0.070210 0.835280
0.038158 -0.070136 0.834402
0.039523 -0.070055 0.833444
0.040899 -0.069999 0.832771
0.042281 -0.069956 0.832260
0.043664 -0.069917 0.831799
0.045063 -0.069905 0.831663
0.046468 -0.069905 0.831654
0.047869 -0.069897 0.831567
0.049269 -0.069889 0.831472
0.050670 -0.069883 0.831390
0.052061 -0.069864 0.831171
0.053457 -0.069851 0.831014
0.054851 -0.069838 0.830854
0.056245 -0.069824 0.830697
0.057644 -0.069818 0.830628
0.059055 -0.069826 0.830718
0.060488 -0.069859 0.831115
0.061947 -0.069920 0.831832
0.063428 -0.070002 0.832814
0.064926 -0.070100 0.833971
0.066451 -0.070221 0.835419
0.067968 -0.070330 0.836708
0.069496 -0.070445 0.838077
0.071049 -0.070580 0.839684
0.072618 -0.070725 0.841414
0.074195 -0.070873 0.843177
0.075785 -0.071028 0.845011
0.077358 -0.071161 0.846597
0.078935 -0.071292 0.848164
0.080519 -0.071425 0.849743
0.082088 -0.071540 0.851113
0.083675 -0.071668 0.852630
0.085322 -0.071841 0.854686
0.086976 -0.072013 0.856742
0.088651 -0.072199 0.858943
0.090366 -0.072409 0.861449
0.092087 -0.072618 0.863933
0.093775 -0.072794 0.866029
0.095425 -0.072936 0.867719
0.097076 -0.073075 0.869373
0.098712 -0.073198 0.870838
0.100327 -0.073303 0.872082
0.101956 -0.073414 0.873406
0.103630 -0.073554 0.875073
0.105333 -0.073711 0.876936
0.107089 -0.073900 0.879182
0.108857 -0.074091 0.881463
0.110643 -0.074290 0.883826
0.112424 -0.074480 0.886084
0.114157 -0.074633 0.887910
0.115861 -0.074765 0.889474
0.117567 -0.074893 0.891003
0.119268 -0.075016 0.892464
0.120977 -0.075140 0.893941
0.122693 -0.075266 0.895436
0.124426 -0.075399 0.897019
0.126214 -0.075561 0.898947
0.128029 -0.075736 0.901026
0.129884 -0.075930 0.903333
0.131774 -0.076140 0.905831
0.133656 -0.076340 0.908213
0.135503 -0.076516 0.910303
0.137357 -0.076692 0.912396
0.139208 -0.076862 0.914426
0.141056 -0.077027 0.916391
0.142925 -0.077200 0.918445
0.144797 -0.077371 0.920476
0.146637 -0.077520 0.922257
0.148482 -0.077670 0.924037
0.150319 -0.077812 0.925730
0.152069 -0.077907 0.926858
-0.025553 -0.073447 0.891783
-0.024037 -0.073422 0.891481
-0.022517 -0.073380 0.890963
-0.020988 -0.073301 0.890006
-0.019455 -0.073193 0.888699
-0.017922 -0.073072 0.887224
-0.016392 -0.072938 0.885596
-0.014866 -0.072796 0.883874
-0.013345 -0.072646 0.882059
-0.011826 -0.072476 0.879994
-0.010314 -0.072306 0.877927
-0.008808 -0.072131 0.875799
-0.007309 -0.071944 0.873531
-0.005818 -0.071769 0.871409
-0.004335 -0.071614 0.869531
-0.002860 -0.071476 0.867853
-0.001390 -0.071368 0.866540
0.000074 -0.071256 0.865179
0.001534 -0.071134 0.863702
0.002989 -0.071003 0.862107
0.004437 -0.070845 0.860191
0.005876 -0.070670 0.858067
0.007313 -0.070534 0.856415
0.008743 -0.070389 0.854648
0.010166 -0.070244 0.852889
0.011585 -0.070105 0.851201
0.013002 -0.069984 0.849738
0.014410 -0.069847 0.848073
0.015820 -0.069744 0.846817
0.017230 -0.069654 0.845729
0.018638 -0.069573 0.844745
0.020041 -0.069486 0.843681
0.021445 -0.069416 0.842842
0.022845 -0.069341 0.841923
0.024241 -0.069261 0.840950
0.025635 -0.069187 0.840056
0.027031 -0.069125 0.839301
0.028425 -0.069064 0.838562
0.029819 -0.069011 0.837916
0.031215 -0.068964 0.837352
0.032611 -0.068924 0.836859
0.033997 -0.068865 0.836144
0.035376 -0.068797 0.835327
0.036752 -0.068729 0.834502
0.038118 -0.068649 0.833522
0.039481 -0.068569 0.832554
0.040855 -0.068513 0.831879
0.042240 -0.068479 0.831461
0.043626 -0.068448 0.831086
0.045027 -0.068442 0.831013
0.046428 -0.068436 0.830938
0.047828 -0.068429 0.830853
0.049223 -0.068416 0.830698
0.050627 -0.068416 0.830692
0.052023 -0.068405 0.830556
0.053427 -0.068404 0.830552
0.054831 -0.068404 0.830548
0.056235 -0.068404 0.830544
0.057639 -0.068405 0.830555
0.059055 -0.068417 0.830711
0.060487 -0.068449 0.831098
0.061946 -0.068508 0.831816
0.063427 -0.068589 0.832799
0.064925 -0.068685 0.833956
0.066449 -0.068803 0.835394
0.067961 -0.068904 0.836618
0.069482 -0.069010 0.837906
0.071028 -0.069136 0.839442
0.072596 -0.069279 0.841171
0.074174 -0.069425 0.842943
0.075764 -0.069576 0.844780
0.077344 -0.069712 0.846433
0.078927 -0.069847 0.848070
0.080511 -0.069978 0.849658
0.082074 -0.070086 0.850967
0.083661 -0.070210 0.852483
0.085306 -0.070379 0.854527
0.086951 -0.070541 0.856502
0.088626 -0.070723 0.858705
0.090349 -0.070936 0.861289
0.092078 -0.071147 0.863851
0.093757 -0.071313 0.865869
0.095405 -0.071451 0.867542
0.097046 -0.071579 0.869098
0.098670 -0.071692 0.870470
0.100275 -0.071787 0.871630
0.101894 -0.071890 0.872871
0.103556 -0.072019 0.874446
0.105236 -0.072158 0.876128
0.106980 -0.072335 0.878280
0.108737 -0.072517 0.880487
0.110532 -0.072719 0.882940
0.112323 -0.072912 0.885290
0.114087 -0.073084 0.887369
0.115802 -0.073220 0.889021
0.117520 -0.073353 0.890646
0.119220 -0.073473 0.892099
0.120929 -0.073595 0.893583
0.122633 -0.073712 0.894995
0.124364 -0.073841 0.896570
0.126151 -0.074000 0.898499
0.127952 -0.074164 0.900482
0.129802 -0.074352 0.902766
0.131675 -0.074548 0.905152
0.133543 -0.074737 0.907443
0.135376 -0.074903 0.909455
0.137228 -0.075075 0.911541
0.139063 -0.075233 0.913471
0.140909 -0.075395 0.915435
0.142774 -0.075563 0.917472
0.144646 -0.075731 0.919515
0.146497 -0.075885 0.921380
0.148355 -0.076038 0.923245
0.150205 -0.076185 0.925030
0.151970 -0.076286 0.926256
-0.027047 -0.071900 0.891341
-0.025537 -0.071893 0.891255
-0.024021 -0.071863 0.890880
-0.022497 -0.071806 0.890183
-0.020964 -0.071710 0.888983
-0.019430 -0.071597 0.887583
-0.017902 -0.071486 0.886205
-0.016376 -0.071363 0.884687
-0.014854 -0.071241 0.883171
-0.013337 -0.071109 0.881533
-0.011820 -0.070948 0.879542
-0.010308 -0.070780 0.877463
-0.008802 -0.070595 0.875163
-0.007303 -0.070409 0.872865
-0.005813 -0.070238 0.870734
-0.004332 -0.070088 0.868875
-0.002858 -0.069954 0.867224
-0.001390 -0.069863 0.866091
0.000074 -0.069755 0.864746
0.001534 -0.069630 0.863203
0.002987 -0.069495 0.861528
0.004433 -0.069334 0.859530
0.005872 -0.069162 0.857401
0.007307 -0.069029 0.855753
0.008737 -0.068893 0.854069
0.010160 -0.068752 0.852324
0.011578 -0.068616 0.850631
0.012993 -0.068497 0.849156
0.014400 -0.068363 0.847495
0.015810 -0.068263 0.846256
0.017220 -0.068183 0.845259
0.018627 -0.068103 0.844276
0.020027 -0.068011 0.843132
0.021429 -0.067935 0.842192
0.022825 -0.067854 0.841182
0.024217 -0.067769 0.840136
0.025612 -0.067703 0.839314
0.027010 -0.067649 0.838649
0.028406 -0.067597 0.837994
0.029799 -0.067545 0.837352
0.031197 -0.067505 0.836861
0.032592 -0.067466 0.836372
0.033977 -0.067409 0.835663
0.035356 -0.067344 0.834857
0.036727 -0.067270 0.833949
0.038092 -0.067190 0.832956
0.039454 -0.067112 0.831988
0.040828 -0.067059 0.831325
0.042213 -0.067026 0.830924
0.043606 -0.067008 0.830697
0.045006 -0.067002 0.830628
0.046406 -0.066996 0.830550
0.047810 -0.066995 0.830536
0.049209 -0.066989 0.830460
0.050613 -0.066989 0.830465
0.052009 -0.066978 0.830326
0.053416 -0.066983 0.830389
0.054820 -0.066983 0.830382
0.056224 -0.066983 0.830389
0.057634 -0.066990 0.830474
0.059053 -0.067008 0.830697
0.060481 -0.067033 0.831008
0.061933 -0.067084 0.831643
0.063407 -0.067157 0.832544
0.064905 -0.067250 0.833698
0.066429 -0.067367 0.835149
0.067948 -0.067473 0.836460
0.069476 -0.067584 0.837841
0.071022 -0.067708 0.839373
0.072590 -0.067847 0.841097
0.074168 -0.067990 0.842866
0.075751 -0.068132 0.844634
0.077329 -0.068265 0.846277
0.078925 -0.068408 0.848057
0.080511 -0.068537 0.849655
0.082075 -0.068644 0.850983
0.083669 -0.068772 0.852568
0.085314 -0.068936 0.854604
0.086943 -0.069083 0.856420
0.088609 -0.069254 0.858537
0.090323 -0.069455 0.861034
0.092043 -0.069655 0.863515
0.093712 -0.069811 0.865450
0.095358 -0.069946 0.867114
0.096995 -0.070069 0.868644
0.098618 -0.070179 0.870009
0.100222 -0.070272 0.871164
0.101832 -0.070367 0.872338
0.103481 -0.070486 0.873815
0.105140 -0.070608 0.875325
0.106859 -0.070767 0.877291
0.108592 -0.070930 0.879312
0.110395 -0.071134 0.881844
0.112195 -0.071331 0.884283
0.113994 -0.071521 0.886643
0.115743 -0.071676 0.888564
0.117495 -0.071829 0.890457
0.119208 -0.071954 0.892013
0.120916 -0.072073 0.893493
0.122619 -0.072187 0.894898
0.124352 -0.072314 0.896480
0.126126 -0.072463 0.898322
0.127901 -0.072608 0.900125
0.129735 -0.072784 0.902297
0.131578 -0.072960 0.904483
0.133430 -0.073137 0.906675
0.135250 -0.073292 0.908603
0.137113 -0.073468 0.910778
0.138959 -0.073630 0.912791
0.140803 -0.073788 0.914745
0.142654 -0.073945 0.916701
0.144537 -0.074117 0.918823
0.146388 -0.074267 0.920691
0.148248 -0.074420 0.922580
0.150111 -0.074570 0.924447
0.151888 -0.074676 0.925756
0.153685 -0.076360 0.927152
0.153599 -0.074747 0.926637
-0.028548 -0.070376 0.891182
-0.027042 -0.070376 0.891182
-0.025526 -0.070350 0.890854
-0.024009 -0.070320 0.890464
-0.022483 -0.070254 0.889638
-0.020947 -0.070145 0.888255
-0.019414 -0.070034 0.886851
-0.017889 -0.069932 0.885554
-0.016366 -0.069821 0.884144
-0.014847 -0.069709 0.882737
-0.013330 -0.069582 0.881117
-0.011813 -0.069418 0.879044
-0.010301 -0.069246 0.876865
-0.008793 -0.069043 0.874295
-0.007295 -0.068853 0.871896
-0.005807 -0.068689 0.869818
-0.004328 -0.068549 0.868047
-0.002855 -0.068428 0.866507
-0.001389 -0.068347 0.865483
0.000074 -0.068247 0.864215
0.001533 -0.068120 0.862606
0.002985 -0.067981 0.860853
0.004429 -0.067818 0.858779
0.005868 -0.067661 0.856792
0.007303 -0.067538 0.855238
0.008732 -0.067413 0.853651
0.010155 -0.067275 0.851914
0.011572 -0.067140 0.850206
0.012985 -0.067016 0.848633
0.014391 -0.066886 0.846980
0.015801 -0.066790 0.845761
0.017211 -0.066712 0.844783
0.018618 -0.066639 0.843862
0.020016 -0.066542 0.842628
0.021412 -0.066455 0.841529
0.022807 -0.066376 0.840523
0.024200 -0.066298 0.839542
0.025595 -0.066235 0.838736
0.026994 -0.066188 0.838150
0.028389 -0.066137 0.837497
0.029782 -0.066087 0.836861
0.031178 -0.066048 0.836370
0.032573 -0.066009 0.835885
0.033957 -0.065953 0.835170
0.035338 -0.065895 0.834437
0.036712 -0.065829 0.833601
0.038077 -0.065752 0.832629
0.039442 -0.065682 0.831732
0.040820 -0.065637 0.831162
0.042209 -0.065611 0.830840
0.043602 -0.065594 0.830626
0.045006 -0.065594 0.830628
0.046406 -0.065588 0.830548
0.047809 -0.065587 0.830532
0.049208 -0.065580 0.830449
0.050613 -0.065581 0.830460
0.052004 -0.065564 0.830245
0.053411 -0.065568 0.830300
0.054813 -0.065567 0.830281
0.056218 -0.065568 0.830300
0.057623 -0.065570 0.830324
0.059043 -0.065588 0.830549
0.060469 -0.065612 0.830847
0.061915 -0.065655 0.831400
0.063383 -0.065720 0.832224
0.064884 -0.065816 0.833440
0.066416 -0.065938 0.834980
0.067936 -0.066043 0.836312
0.069471 -0.066159 0.837779
0.071023 -0.066286 0.839382
0.072590 -0.066421 0.841100
0.074167 -0.066560 0.842862
0.075743 -0.066694 0.844547
0.077321 -0.066823 0.846192
0.078925 -0.066970 0.848050
0.080511 -0.067097 0.849660
0.082083 -0.067208 0.851065
0.083693 -0.067346 0.852808
0.085338 -0.067507 0.854847
0.086951 -0.067638 0.856500
0.088607 -0.067797 0.858516
0.090301 -0.067979 0.860827
0.092004 -0.068163 0.863149
0.093663 -0.068309 0.865002
0.095309 -0.068440 0.866666
0.096945 -0.068561 0.868195
0.098568 -0.068669 0.869564
0.100171 -0.068760 0.870721
0.101771 -0.068847 0.871818
0.103409 -0.068957 0.873203
0.105044 -0.069061 0.874525
0.106746 -0.069206 0.876365
0.108454 -0.069351 0.878196
0.110254 -0.069550 0.880713
0.112053 -0.069743 0.883164
0.113875 -0.069945 0.885717
0.115639 -0.070107 0.887770
0.117427 -0.070278 0.889939
0.119163 -0.070415 0.891672
0.120883 -0.070539 0.893243
0.122585 -0.070650 0.894644
0.124313 -0.070773 0.896203
0.126076 -0.070912 0.897964
0.127825 -0.071041 0.899593
0.129643 -0.071204 0.901662
0.131481 -0.071374 0.903813
0.133330 -0.071546 0.905996
0.135135 -0.071691 0.907830
0.136996 -0.071863 0.910004
0.138842 -0.072022 0.912022
0.140684 -0.072176 0.913973
0.142534 -0.072331 0.915933
0.144430 -0.072505 0.918137
0.146294 -0.072660 0.920100
0.148168 -0.072816 0.922081
0.150032 -0.072965 0.923965
0.151810 -0.073069 0.925281
0.153520 -0.073139 0.926161
0.156723 -0.075497 0.935935
0.155227 -0.073205 0.927002
-0.030046 -0.068846 0.890923
-0.028542 -0.068849 0.890973
-0.027031 -0.068839 0.890834
-0.025515 -0.068810 0.890463
-0.023997 -0.068775 0.890012
-0.022469 -0.068704 0.889091
-0.020934 -0.068599 0.887726
-0.019404 -0.068497 0.886408
-0.017880 -0.068397 0.885112
-0.016359 -0.068294 0.883782
-0.014842 -0.068192 0.882463
-0.013326 -0.068068 0.880856
-0.011810 -0.067914 0.878860
-0.010299 -0.067745 0.876678
-0.008789 -0.067533 0.873939
-0.007290 -0.067334 0.871357
-0.005803 -0.067172 0.869260
-0.004325 -0.067029 0.867420
-0.002853 -0.066912 0.865896
-0.001388 -0.066839 0.864956
0.000074 -0.066741 0.863693
0.001531 -0.066610 0.861990
0.002982 -0.066473 0.860218
0.004426 -0.066312 0.858139
0.005863 -0.066160 0.856170
0.007298 -0.066042 0.854642
0.008726 -0.065921 0.853073
0.010148 -0.065786 0.851333
0.011564 -0.065653 0.849613
0.012976 -0.065532 0.848044
0.014383 -0.065410 0.846465
0.015791 -0.065316 0.845252
0.017200 -0.065241 0.844273
0.018605 -0.065163 0.843271
0.020002 -0.065068 0.842036
0.021397 -0.064983 0.840938
0.022793 -0.064911 0.840011
0.024186 -0.064837 0.839051
0.025582 -0.064781 0.838320
0.026980 -0.064735 0.837733
0.028375 -0.064686 0.837088
0.029767 -0.064636 0.836449
0.031163 -0.064598 0.835956
0.032560 -0.064565 0.835533
0.033943 -0.064511 0.834827
0.035327 -0.064461 0.834175
0.036704 -0.064402 0.833425
0.038073 -0.064334 0.832538
0.039438 -0.064266 0.831655
0.040824 -0.064233 0.831233
0.042213 -0.064209 0.830922
0.043607 -0.064193 0.830713
0.045011 -0.064193 0.830715
0.046411 -0.064186 0.830629
0.047810 -0.064180 0.830542
0.049209 -0.064173 0.830460
0.050613 -0.064174 0.830465
0.052003 -0.064157 0.830242
0.053410 -0.064160 0.830291
0.054812 -0.064159 0.830271
0.056217 -0.064160 0.830291
0.057623 -0.064162 0.830318
0.059043 -0.064180 0.830549
0.060469 -0.064203 0.830845
0.061908 -0.064240 0.831319
0.063375 -0.064302 0.832126
0.064877 -0.064396 0.833345
0.066415 -0.064521 0.834964
0.067936 -0.064626 0.836313
0.069478 -0.064745 0.837859
0.071030 -0.064869 0.839460
0.072596 -0.065001 0.841167
0.074166 -0.065131 0.842853
0.075742 -0.065261 0.844536
0.077321 -0.065388 0.846184
0.078932 -0.065538 0.848122
0.080519 -0.065664 0.849745
0.082100 -0.065779 0.851241
0.083718 -0.065920 0.853064
0.085364 -0.066078 0.855108
0.086961 -0.066193 0.856602
0.088606 -0.066341 0.858510
0.090280 -0.066505 0.860631
0.091963 -0.066670 0.862767
0.093605 -0.066801 0.864463
0.095250 -0.066930 0.866131
0.096887 -0.067050 0.867679
0.098510 -0.067156 0.869058
0.100114 -0.067246 0.870225
0.101720 -0.067336 0.871387
0.103356 -0.067442 0.872762
0.104968 -0.067530 0.873898
0.106648 -0.067658 0.875557
0.108328 -0.067784 0.877180
0.110103 -0.067964 0.879512
0.111901 -0.068153 0.881963
0.113745 -0.068365 0.884707
0.115554 -0.068552 0.887116
0.117378 -0.068741 0.889571
0.119150 -0.068896 0.891580
0.120881 -0.069024 0.893232
0.122582 -0.069132 0.894624
0.124286 -0.069238 0.896004
0.126033 -0.069366 0.897662
0.127768 -0.069485 0.899194
0.129574 -0.069638 0.901176
0.131409 -0.069804 0.903322
0.133256 -0.069972 0.905494
0.135060 -0.070114 0.907332
0.136908 -0.070275 0.909418
0.138751 -0.070430 0.911421
0.140592 -0.070581 0.913376
0.142442 -0.070732 0.915340
0.144337 -0.070903 0.917551
0.146215 -0.071062 0.919604
0.148088 -0.071215 0.921587
0.149939 -0.071355 0.923390
0.151716 -0.071456 0.924706
0.153440 -0.071531 0.925679
0.155163 -0.071604 0.926621
-0.030046 -0.067334 0.890907
-0.028535 -0.067323 0.890753
-0.027023 -0.067308 0.890556
-0.025504 -0.067274 0.890107
-0.023987 -0.067238 0.889638
-0.022460 -0.067170 0.888729
-0.020928 -0.067074 0.887462
-0.019401 -0.066981 0.886234
-0.017876 -0.066883 0.884934
-0.016355 -0.066782 0.883595
-0.014839 -0.066681 0.882269
-0.013325 -0.066566 0.880747
-0.011809 -0.066416 0.878761
-0.010299 -0.066257 0.876655
-0.008788 -0.066044 0.873840
-0.007290 -0.065849 0.871256
-0.005803 -0.065692 0.869172
-0.004324 -0.065546 0.867252
-0.002852 -0.065425 0.865650
-0.001387 -0.065347 0.864616
0.000074 -0.065238 0.863174
0.001530 -0.065095 0.861285
0.002980 -0.064961 0.859506
0.004422 -0.064804 0.857424
0.005860 -0.064668 0.855637
0.007293 -0.064549 0.854058
0.008720 -0.064430 0.852485
0.010140 -0.064292 0.850659
0.011554 -0.064162 0.848931
0.012963 -0.064033 0.847229
0.014372 -0.063926 0.845808
0.015779 -0.063834 0.844598
0.017187 -0.063759 0.843607
0.018589 -0.063678 0.842526
0.019985 -0.063589 0.841355
0.021379 -0.063502 0.840207
0.022776 -0.063439 0.839373
0.024170 -0.063373 0.838498
0.025568 -0.063324 0.837848
0.026968 -0.063286 0.837342
0.028367 -0.063248 0.836842
0.029761 -0.063205 0.836275
0.031156 -0.063168 0.835781
0.032553 -0.063136 0.835360
0.033934 -0.063077 0.834582
0.035317 -0.063028 0.833936
0.036692 -0.062968 0.833133
0.038063 -0.062907 0.832325
0.039432 -0.062846 0.831527
0.040824 -0.062825 0.831246
0.042214 -0.062802 0.830945
0.043612 -0.062792 0.830807
0.045017 -0.062792 0.830812
0.046416 -0.062785 0.830716
0.047810 -0.062773 0.830552
0.049210 -0.062766 0.830471
0.050614 -0.062767 0.830473
0.052000 -0.062745 0.830182
0.053406 -0.062748 0.830223
0.054808 -0.062746 0.830203
0.056213 -0.062748 0.830223
0.057618 -0.062750 0.830253
0.059043 -0.062772 0.830549
0.060469 -0.062795 0.830847
0.061903 -0.062826 0.831252
0.063370 -0.062887 0.832061
0.064871 -0.062978 0.833271
0.066403 -0.063095 0.834818
0.067924 -0.063197 0.836163
0.069471 -0.063319 0.837779
0.071023 -0.063440 0.839382
0.072590 -0.063569 0.841095
0.074166 -0.063702 0.842853
0.075742 -0.063829 0.844536
0.077321 -0.063954 0.846184
0.078932 -0.064101 0.848128
0.080527 -0.064230 0.849829
0.082124 -0.064355 0.851492
0.083760 -0.064506 0.853490
0.085409 -0.064663 0.855561
0.087006 -0.064775 0.857044
0.088633 -0.064905 0.858763
0.090279 -0.065045 0.860617
0.091934 -0.065187 0.862496
0.093566 -0.065308 0.864100
0.095210 -0.065434 0.865767
0.096857 -0.065558 0.867407
0.098481 -0.065663 0.868796
0.100093 -0.065757 0.870043
0.101698 -0.065844 0.871192
0.103324 -0.065942 0.872492
0.104916 -0.066016 0.873464
0.106573 -0.066128 0.874946
0.108220 -0.066230 0.876303
0.109969 -0.066392 0.878443
0.111753 -0.066570 0.880793
0.113603 -0.066782 0.883607
0.115446 -0.066985 0.886285
0.117305 -0.067191 0.889015
0.119114 -0.067364 0.891306
0.120858 -0.067497 0.893064
0.122558 -0.067602 0.894447
0.124246 -0.067698 0.895717
0.125977 -0.067814 0.897259
0.127698 -0.067923 0.898702
0.129490 -0.068067 0.900598
0.131327 -0.068230 0.902758
0.133174 -0.068394 0.904937
0.134978 -0.068534 0.906781
0.136825 -0.068691 0.908862
0.138677 -0.068848 0.910935
0.140515 -0.068994 0.912873
0.142364 -0.069143 0.914839
0.144247 -0.069305 0.916978
0.146123 -0.069460 0.919028
0.147980 -0.069602 0.920913
0.149826 -0.069737 0.922697
0.151600 -0.069835 0.924000
0.153355 -0.069923 0.925166
0.155095 -0.070003 0.926215
-0.031552 -0.065824 0.890901
-0.030044 -0.065821 0.890861
-0.028531 -0.065805 0.890651
-0.027017 -0.065784 0.890373
-0.025496 -0.065744 0.889822
-0.023975 -0.065696 0.889177
-0.022447 -0.065624 0.888196
-0.020917 -0.065537 0.887019
-0.019393 -0.065453 0.885890
-0.017869 -0.065358 0.884601
-0.016352 -0.065271 0.883419
-0.014838 -0.065178 0.882168
-0.013323 -0.065066 0.880652
-0.011809 -0.064926 0.878756
-0.010300 -0.064778 0.876746
-0.008790 -0.064577 0.874031
-0.007292 -0.064393 0.871539
-0.005805 -0.064239 0.869461
-0.004325 -0.064091 0.867449
-0.002853 -0.063971 0.865828
-0.001387 -0.063875 0.864535
0.000074 -0.063750 0.862832
0.001529 -0.063597 0.860759
0.002978 -0.063452 0.858810
0.004418 -0.063294 0.856667
0.005855 -0.063170 0.854984
0.007286 -0.063048 0.853331
0.008712 -0.062925 0.851666
0.010130 -0.062792 0.849867
0.011543 -0.062660 0.848077
0.012950 -0.062530 0.846329
0.014358 -0.062433 0.845007
0.015765 -0.062348 0.843862
0.017170 -0.062269 0.842787
0.018572 -0.062194 0.841773
0.019970 -0.062114 0.840695
0.021364 -0.062035 0.839629
0.022763 -0.061981 0.838887
0.024158 -0.061922 0.838090
0.025558 -0.061880 0.837521
0.026960 -0.061848 0.837098
0.028361 -0.061818 0.836686
0.029759 -0.061783 0.836209
0.031157 -0.061752 0.835790
0.032553 -0.061721 0.835371
0.033934 -0.061663 0.834591
0.035317 -0.061615 0.833941
0.036695 -0.061561 0.833204
0.038066 -0.061501 0.832402
0.039439 -0.061448 0.831677
0.040836 -0.061433 0.831478
0.042230 -0.061416 0.831254
0.043628 -0.061407 0.831128
0.045037 -0.061412 0.831188
0.046437 -0.061405 0.831093
0.047828 -0.061387 0.830853
0.049223 -0.061375 0.830697
0.050623 -0.061370 0.830621
0.052009 -0.061348 0.830326
0.053411 -0.061346 0.830304
0.054814 -0.061345 0.830293
0.056218 -0.061346 0.830304
0.057623 -0.061348 0.830326
0.059043 -0.061365 0.830549
0.060469 -0.061387 0.830853
0.061904 -0.061417 0.831260
0.063371 -0.061477 0.832072
0.064872 -0.061566 0.833279
0.066397 -0.061675 0.834745
0.067917 -0.061773 0.836077
0.069464 -0.061892 0.837689
0.071016 -0.062011 0.839296
0.072584 -0.062138 0.841023
0.074167 -0.062274 0.842862
0.075743 -0.062399 0.844547
0.077321 -0.062520 0.846192
0.078939 -0.062669 0.848208
0.080542 -0.062801 0.849990
0.082164 -0.062942 0.851901
0.083819 -0.063104 0.854089
0.085479 -0.063264 0.856255
0.087077 -0.063373 0.857739
0.088686 -0.063487 0.859280
0.090298 -0.063599 0.860798
0.091926 -0.063719 0.862418
0.093538 -0.063824 0.863845
0.095172 -0.063941 0.865425
0.096827 -0.064068 0.867137
0.098451 -0.064171 0.868538
0.100063 -0.064264 0.869787
0.101667 -0.064348 0.870931
0.103284 -0.064438 0.872149
0.104866 -0.064504 0.873046
0.106512 -0.064608 0.874444
0.108146 -0.064701 0.875703
0.109869 -0.064844 0.877644
0.111638 -0.065010 0.879886
0.113473 -0.065210 0.882595
0.115338 -0.065421 0.885454
0.117221 -0.065637 0.888382
0.119057 -0.065822 0.890881
0.120824 -0.065965 0.892813
0.122533 -0.066072 0.894270
0.124208 -0.066159 0.895441
0.125924 -0.066266 0.896885
0.127644 -0.066371 0.898317
0.129410 -0.066499 0.900041
0.131259 -0.066665 0.902286
0.133118 -0.066833 0.904559
0.134925 -0.066970 0.906422
0.136771 -0.067124 0.908504
0.138633 -0.067282 0.910646
0.140469 -0.067425 0.912572
0.142318 -0.067570 0.914544
0.144201 -0.067729 0.916687
0.146062 -0.067873 0.918643
0.147897 -0.068003 0.920397
0.149709 -0.068119 0.921974
0.151451 -0.068202 0.923092
0.153205 -0.068288 0.924260
0.154976 -0.068380 0.925503
-0.031546 -0.064301 0.890725
-0.030033 -0.064287 0.890533
-0.028520 -0.064269 0.890283
-0.027006 -0.064248 0.890000
-0.025485 -0.064208 0.889441
-0.023965 -0.064162 0.888798
-0.022439 -0.064097 0.887897
-0.020912 -0.064018 0.886809
-0.019390 -0.063943 0.885772
-0.017867 -0.063851 0.884498
-0.016352 -0.063773 0.883413
-0.014838 -0.063683 0.882168
-0.013323 -0.063574 0.880660
-0.011809 -0.063438 0.878776
-0.010300 -0.063294 0.876786
-0.008792 -0.063110 0.874233
-0.007294 -0.062937 0.871839
-0.005807 -0.062788 0.869767
-0.004327 -0.062648 0.867832
-0.002854 -0.062529 0.866183
-0.001387 -0.062411 0.864556
0.000074 -0.062275 0.862664
0.001529 -0.062117 0.860483
0.002976 -0.061965 0.858375
0.004416 -0.061811 0.856242
0.005852 -0.061691 0.854572
0.007281 -0.061560 0.852755
0.008705 -0.061431 0.850980
0.010122 -0.061299 0.849148
0.011532 -0.061165 0.847295
0.012938 -0.061040 0.845565
0.014347 -0.060952 0.844336
0.015752 -0.060869 0.843183
0.017154 -0.060786 0.842038
0.018554 -0.060708 0.840957
0.019952 -0.060636 0.839965
0.021347 -0.060566 0.838984
0.022748 -0.060518 0.838321
0.024146 -0.060470 0.837669
0.025550 -0.060441 0.837256
0.026955 -0.060417 0.836927
0.028359 -0.060394 0.836614
0.029762 -0.060372 0.836301
0.031161 -0.060343 0.835903
0.032558 -0.060313 0.835486
0.033938 -0.060255 0.834689
0.035321 -0.060207 0.834021
0.036698 -0.060153 0.833273
0.038073 -0.060101 0.832545
0.039453 -0.060059 0.831969
0.040855 -0.060052 0.831868
0.042257 -0.060047 0.831796
0.043661 -0.060043 0.831753
0.045075 -0.060053 0.831889
0.046476 -0.060047 0.831797
0.047868 -0.060029 0.831551
0.049260 -0.060012 0.831313
0.050655 -0.060000 0.831149
0.052037 -0.059973 0.830775
0.053431 -0.059961 0.830611
0.054829 -0.059954 0.830518
0.056228 -0.059950 0.830455
0.057634 -0.059951 0.830471
0.059053 -0.059967 0.830697
0.060486 -0.059995 0.831079
0.061927 -0.060030 0.831564
0.063400 -0.060094 0.832447
0.064896 -0.060176 0.833583
0.066415 -0.060275 0.834965
0.067928 -0.060365 0.836213
0.069468 -0.060475 0.837738
0.071015 -0.060587 0.839283
0.072583 -0.060712 0.841017
0.074168 -0.060846 0.842866
0.075745 -0.060968 0.844560
0.077322 -0.061086 0.846197
0.078940 -0.061232 0.848210
0.080550 -0.061366 0.850073
0.082196 -0.061522 0.852236
0.083878 -0.061700 0.854697
0.085551 -0.061864 0.856975
0.087158 -0.061977 0.858540
0.088765 -0.062086 0.860046
0.090352 -0.062178 0.861315
0.091954 -0.062276 0.862680
0.093547 -0.062366 0.863929
0.095171 -0.062473 0.865410
0.096816 -0.062591 0.867040
0.098432 -0.062687 0.868367
0.100034 -0.062771 0.869535
0.101646 -0.062859 0.870752
0.103252 -0.062940 0.871883
0.104834 -0.063005 0.872782
0.106480 -0.063106 0.874176
0.108112 -0.063196 0.875427
0.109802 -0.063318 0.877108
0.111544 -0.063465 0.879152
0.113345 -0.063642 0.881598
0.115196 -0.063841 0.884363
0.117081 -0.064055 0.887318
0.118940 -0.064249 0.890004
0.120730 -0.064401 0.892119
0.122461 -0.064519 0.893745
0.124146 -0.064609 0.894999
0.125862 -0.064714 0.896445
0.127581 -0.064817 0.897874
0.129345 -0.064940 0.899585
0.131203 -0.065108 0.901904
0.133061 -0.065271 0.904172
0.134882 -0.065413 0.906136
0.136730 -0.065564 0.908232
0.138592 -0.065719 0.910377
0.140427 -0.065858 0.912300
0.142276 -0.066000 0.914270
0.144144 -0.066148 0.916323
0.145987 -0.066282 0.918170
0.147802 -0.066400 0.919803
0.149579 -0.066499 0.921173
0.151300 -0.066571 0.922172
0.153068 -0.066662 0.923433
0.154872 -0.066766 0.924882
-0.033036 -0.062761 0.890306
-0.031526 -0.062752 0.890181
-0.030017 -0.062743 0.890051
-0.028503 -0.062722 0.889749
-0.026990 -0.062702 0.889460
-0.025472 -0.062668 0.888986
-0.023952 -0.062623 0.888345
-0.022430 -0.062565 0.887523
-0.020905 -0.062493 0.886507
-0.019386 -0.062427 0.885571
-0.017867 -0.062351 0.884487
-0.016354 -0.062282 0.883506
-0.014839 -0.062195 0.882269
-0.013326 -0.062094 0.880841
-0.011813 -0.061967 0.879035
-0.010303 -0.061827 0.877048
-0.008797 -0.061664 0.874739
-0.007300 -0.061507 0.872520
-0.005811 -0.061363 0.870466
-0.004330 -0.061226 0.868526
-0.002856 -0.061103 0.866783
-0.001388 -0.060970 0.864903
0.000074 -0.060819 0.862753
0.001529 -0.060658 0.860475
0.002976 -0.060503 0.858274
0.004415 -0.060342 0.855993
0.005849 -0.060212 0.854149
0.007276 -0.060072 0.852165
0.008697 -0.059935 0.850208
0.010112 -0.059800 0.848307
0.011522 -0.059675 0.846528
0.012927 -0.059555 0.844822
0.014334 -0.059468 0.843588
0.015738 -0.059386 0.842429
0.017139 -0.059305 0.841272
0.018536 -0.059225 0.840138
0.019935 -0.059161 0.839228
0.021333 -0.059103 0.838407
0.022734 -0.059061 0.837822
0.024134 -0.059021 0.837256
0.025542 -0.059003 0.837001
0.026949 -0.058987 0.836763
0.028359 -0.058976 0.836614
0.029768 -0.058966 0.836464
0.031167 -0.058938 0.836079
0.032562 -0.058904 0.835591
0.033941 -0.058846 0.834775
0.035321 -0.058793 0.834019
0.036694 -0.058735 0.833199
0.038073 -0.058690 0.832555
0.039462 -0.058662 0.832150
0.040868 -0.058660 0.832131
0.042276 -0.058662 0.832156
0.043688 -0.058669 0.832260
0.045107 -0.058686 0.832493
0.046510 -0.058680 0.832414
0.047904 -0.058663 0.832171
0.049295 -0.058644 0.831905
0.050685 -0.058626 0.831649
0.052063 -0.058594 0.831189
0.053452 -0.058576 0.830943
0.054845 -0.058564 0.830770
0.056239 -0.058553 0.830613
0.057644 -0.058554 0.830621
0.059065 -0.058571 0.830859
0.060504 -0.058603 0.831325
0.061951 -0.058643 0.831892
0.063431 -0.058711 0.832851
0.064921 -0.058786 0.833913
0.066434 -0.058877 0.835212
0.067941 -0.058959 0.836376
0.069474 -0.059061 0.837815
0.071015 -0.059164 0.839283
0.072583 -0.059286 0.841015
0.074161 -0.059411 0.842788
0.075736 -0.059530 0.844468
0.077314 -0.059646 0.846111
0.078932 -0.059788 0.848129
0.080558 -0.059931 0.850156
0.082236 -0.060107 0.852648
0.083938 -0.060294 0.855305
0.085630 -0.060468 0.857775
0.087255 -0.060589 0.859490
0.088855 -0.060689 0.860917
0.090416 -0.060761 0.861928
0.092000 -0.060844 0.863111
0.093574 -0.060919 0.864178
0.095180 -0.061012 0.865492
0.096816 -0.061121 0.867040
0.098432 -0.061215 0.868367
0.100033 -0.061296 0.869527
0.101645 -0.061382 0.870738
0.103248 -0.061460 0.871850
0.104831 -0.061524 0.872754
0.106466 -0.061616 0.874064
0.108099 -0.061705 0.875322
0.109768 -0.061811 0.876834
0.111487 -0.061943 0.878696
0.113261 -0.062101 0.880940
0.115106 -0.062294 0.883676
0.116978 -0.062496 0.886543
0.118837 -0.062686 0.889236
0.120629 -0.062836 0.891367
0.122370 -0.062956 0.893076
0.124057 -0.063047 0.894355
0.125775 -0.063150 0.895824
0.127505 -0.063257 0.897343
0.129279 -0.063383 0.899128
0.131134 -0.063545 0.901429
0.132992 -0.063705 0.903698
0.134825 -0.063850 0.905749
0.136674 -0.063999 0.907860
0.138537 -0.064150 0.910015
0.140371 -0.064286 0.911937
0.142218 -0.064424 0.913898
0.144071 -0.064563 0.915861
0.145897 -0.064686 0.917606
0.147708 -0.064799 0.919221
0.149466 -0.064888 0.920477
0.151171 -0.064952 0.921384
0.152949 -0.065046 0.922716
0.154785 -0.065162 0.924364
-0.034520 -0.061214 0.889758
-0.033015 -0.061214 0.889758
-0.031509 -0.061210 0.889697
-0.030001 -0.061202 0.889583
-0.028484 -0.061175 0.889183
-0.026973 -0.061155 0.888899
-0.025457 -0.061124 0.888441
-0.023936 -0.061075 0.887729
-0.022416 -0.061024 0.886998
-0.020897 -0.060966 0.886158
-0.019381 -0.060909 0.885320
-0.017866 -0.060847 0.884416
-0.016356 -0.060791 0.883609
-0.014841 -0.060707 0.882383
-0.013329 -0.060613 0.881020
-0.011816 -0.060494 0.879287
-0.010306 -0.060357 0.877298
-0.008802 -0.060210 0.875164
-0.007305 -0.060069 0.873117
-0.005815 -0.059929 0.871083
-0.004333 -0.059796 0.869149
-0.002858 -0.059670 0.867315
-0.001388 -0.059529 0.865259
0.000074 -0.059369 0.862937
0.001529 -0.059206 0.860569
0.002976 -0.059049 0.858283
0.004414 -0.058881 0.855838
0.005847 -0.058741 0.853809
0.007273 -0.058597 0.851722
0.008692 -0.058456 0.849672
0.010105 -0.058322 0.847721
0.011514 -0.058201 0.845963
0.012918 -0.058084 0.844259
0.014324 -0.057997 0.843002
0.015727 -0.057917 0.841829
0.017127 -0.057838 0.840678
0.018525 -0.057765 0.839619
0.019926 -0.057713 0.838863
0.021324 -0.057657 0.838053
0.022725 -0.057618 0.837480
0.024127 -0.057585 0.837005
0.025537 -0.057573 0.836836
0.026944 -0.057558 0.836614
0.028359 -0.057558 0.836614
0.029770 -0.057553 0.836542
0.031170 -0.057527 0.836158
0.032565 -0.057492 0.835663
0.033947 -0.057441 0.834910
0.035326 -0.057389 0.834157
0.036704 -0.057338 0.833423
0.038088 -0.057300 0.832870
0.039481 -0.057279 0.832557
0.040888 -0.057278 0.832550
0.042297 -0.057281 0.832585
0.043714 -0.057293 0.832761
0.045140 -0.057316 0.833091
0.046549 -0.057316 0.833102
0.047944 -0.057301 0.832872
0.049340 -0.057287 0.832668
0.050727 -0.057263 0.832323
0.052095 -0.057220 0.831707
0.053475 -0.057192 0.831298
0.054867 -0.057178 0.831091
0.056255 -0.057161 0.830848
0.057661 -0.057162 0.830861
0.059088 -0.057184 0.831183
0.060534 -0.057223 0.831741
0.061983 -0.057262 0.832318
0.063463 -0.057328 0.833278
0.064949 -0.057397 0.834269
0.066456 -0.057481 0.835489
0.067956 -0.057554 0.836558
0.069483 -0.057648 0.837918
0.071016 -0.057742 0.839296
0.072583 -0.057861 0.841017
0.074153 -0.057977 0.842700
0.075727 -0.058092 0.844369
0.077305 -0.058204 0.846010
0.078924 -0.058344 0.848035
0.080573 -0.058500 0.850308
0.082283 -0.058695 0.853139
0.084013 -0.058896 0.856066
0.085725 -0.059079 0.858725
0.087367 -0.059208 0.860602
0.088953 -0.059295 0.861866
0.090489 -0.059347 0.862624
0.092047 -0.059412 0.863557
0.093611 -0.059478 0.864516
0.095199 -0.059557 0.865669
0.096827 -0.059658 0.867137
0.098442 -0.059749 0.868460
0.100043 -0.059828 0.869610
0.101645 -0.059906 0.870738
0.103248 -0.059982 0.871850
0.104831 -0.060044 0.872754
0.106466 -0.060135 0.874064
0.108100 -0.060222 0.875328
0.109768 -0.060325 0.876837
0.111476 -0.060447 0.878609
0.113235 -0.060594 0.880741
0.115053 -0.060768 0.883270
0.116909 -0.060957 0.886019
0.118744 -0.061130 0.888539
0.120522 -0.061271 0.890582
0.122264 -0.061389 0.892301
0.123950 -0.061477 0.893581
0.125669 -0.061579 0.895068
0.127400 -0.061685 0.896600
0.129185 -0.061814 0.898476
0.131040 -0.061973 0.900782
0.132909 -0.062134 0.903133
0.134754 -0.062282 0.905275
0.136614 -0.062432 0.907463
0.138477 -0.062581 0.909625
0.140310 -0.062713 0.911541
0.142154 -0.062847 0.913491
0.143993 -0.062976 0.915364
0.145817 -0.063096 0.917102
0.147616 -0.063202 0.918646
0.149358 -0.063282 0.919811
0.151060 -0.063344 0.920709
0.152837 -0.063435 0.922040
0.154675 -0.063550 0.923706
0.156579 -0.065258 0.925730
0.156486 -0.063651 0.925181
-0.034534 -0.059731 0.890129
-0.033010 -0.059696 0.889613
-0.031494 -0.059674 0.889279
-0.029986 -0.059664 0.889139
-0.028469 -0.059636 0.888707
-0.026958 -0.059617 0.888427
-0.025443 -0.059586 0.887969
-0.023921 -0.059533 0.887181
-0.022405 -0.059489 0.886532
-0.020889 -0.059440 0.885800
-0.019375 -0.059391 0.885068
-0.017863 -0.059338 0.884270
-0.016356 -0.059294 0.883625
-0.014841 -0.059212 0.882394
-0.013329 -0.059120 0.881029
-0.011817 -0.059009 0.879378
-0.010308 -0.058882 0.877477
-0.008805 -0.058751 0.875520
-0.007309 -0.058620 0.873577
-0.005819 -0.058490 0.871642
-0.004336 -0.058360 0.869699
-0.002859 -0.058230 0.867769
-0.001389 -0.058091 0.865688
0.000074 -0.057935 0.863359
0.001530 -0.057771 0.860921
0.002977 -0.057612 0.858553
0.004415 -0.057441 0.856003
0.005846 -0.057283 0.853647
0.007270 -0.057134 0.851436
0.008688 -0.056993 0.849323
0.010101 -0.056862 0.847382
0.011510 -0.056746 0.845648
0.012914 -0.056636 0.844014
0.014318 -0.056547 0.842674
0.015721 -0.056467 0.841489
0.017118 -0.056385 0.840261
0.018516 -0.056314 0.839210
0.019918 -0.056269 0.838535
0.021317 -0.056220 0.837806
0.022721 -0.056187 0.837322
0.024125 -0.056161 0.836927
0.025537 -0.056155 0.836836
0.026944 -0.056140 0.836614
0.028359 -0.056140 0.836614
0.029770 -0.056135 0.836536
0.031170 -0.056109 0.836150
0.032564 -0.056075 0.835650
0.033949 -0.056030 0.834974
0.035333 -0.055985 0.834302
0.036718 -0.055947 0.833742
0.038110 -0.055921 0.833353
0.039511 -0.055910 0.833190
0.040919 -0.055910 0.833183
0.042332 -0.055915 0.833270
0.043750 -0.055928 0.833450
0.045178 -0.055950 0.833785
0.046589 -0.055952 0.833815
0.047989 -0.055941 0.833659
0.049387 -0.055928 0.833461
0.050775 -0.055906 0.833124
0.052150 -0.055869 0.832575
0.053525 -0.055836 0.832086
0.054918 -0.055821 0.831868
0.056307 -0.055804 0.831615
0.057714 -0.055805 0.831630
0.059139 -0.055823 0.831895
0.060586 -0.055861 0.832461
0.062036 -0.055900 0.833036
0.063513 -0.055960 0.833930
0.064993 -0.056020 0.834834
0.066495 -0.056097 0.835977
0.067988 -0.056163 0.836959
0.069503 -0.056244 0.838163
0.071029 -0.056330 0.839454
0.072583 -0.056436 0.841021
0.074139 -0.056537 0.842539
0.075712 -0.056649 0.844195
0.077288 -0.056758 0.845826
0.078915 -0.056900 0.847944
0.080588 -0.057070 0.850473
0.082324 -0.057277 0.853567
0.084074 -0.057487 0.856691
0.085805 -0.057677 0.859521
0.087448 -0.057803 0.861399
0.089027 -0.057882 0.862580
0.090554 -0.057927 0.863243
0.092094 -0.057977 0.863993
0.093648 -0.058035 0.864863
0.095228 -0.058107 0.865931
0.096847 -0.058201 0.867324
0.098453 -0.058283 0.868557
0.100054 -0.058360 0.869704
0.101655 -0.058436 0.870830
0.103262 -0.058512 0.871967
0.104854 -0.058578 0.872947
0.106491 -0.058666 0.874266
0.108133 -0.058756 0.875596
0.109793 -0.058852 0.877036
0.111491 -0.058966 0.878730
0.113217 -0.059092 0.880605
0.114999 -0.059243 0.882855
0.116817 -0.059408 0.885319
0.118625 -0.059564 0.887646
0.120388 -0.059694 0.889586
0.122125 -0.059809 0.891286
0.123818 -0.059899 0.892631
0.125535 -0.059998 0.894111
0.127264 -0.060101 0.895644
0.129074 -0.060239 0.897704
0.130943 -0.060401 0.900120
0.132826 -0.060566 0.902573
0.134696 -0.060721 0.904881
0.136568 -0.060874 0.907157
0.138417 -0.061012 0.909229
0.140233 -0.061134 0.911041
0.142060 -0.061258 0.912883
0.143882 -0.061377 0.914657
0.145694 -0.061489 0.916328
0.147493 -0.061593 0.917881
0.149235 -0.061672 0.919053
0.150935 -0.061732 0.919949
0.152697 -0.061816 0.921195
0.154516 -0.061920 0.922756
0.157280 -0.062398 0.929873
-0.036120 -0.058354 0.892141
-0.034545 -0.058241 0.890415
-0.033004 -0.058178 0.889465
-0.031477 -0.058134 0.888786
-0.029968 -0.058122 0.888604
-0.028452 -0.058094 0.888173
-0.026944 -0.058080 0.887965
-0.025428 -0.058045 0.887422
-0.023910 -0.058003 0.886782
-0.022397 -0.057966 0.886223
-0.020884 -0.057925 0.885583
-0.019371 -0.057879 0.884887
-0.017863 -0.057838 0.884255
-0.016356 -0.057796 0.883615
-0.014841 -0.057715 0.882383
-0.013329 -0.057626 0.881020
-0.011819 -0.057524 0.879459
-0.010311 -0.057407 0.877663
-0.008808 -0.057286 0.875815
-0.007312 -0.057165 0.873965
-0.005823 -0.057048 0.872179
-0.004339 -0.056920 0.870230
-0.002861 -0.056793 0.868289
-0.001390 -0.056662 0.866280
0.000074 -0.056510 0.863952
0.001530 -0.056340 0.861363
0.002978 -0.056185 0.858988
0.004416 -0.056007 0.856267
0.005846 -0.055836 0.853659
0.007270 -0.055686 0.851352
0.008687 -0.055547 0.849232
0.010099 -0.055415 0.847222
0.011509 -0.055308 0.845571
0.012913 -0.055201 0.843937
0.014317 -0.055112 0.842586
0.015719 -0.055035 0.841408
0.017117 -0.054956 0.840192
0.018514 -0.054887 0.839142
0.019919 -0.054848 0.838545
0.021320 -0.054805 0.837891
0.022723 -0.054775 0.837422
0.024127 -0.054748 0.837020
0.025539 -0.054742 0.836921
0.026947 -0.054726 0.836686
0.028359 -0.054722 0.836614
0.029770 -0.054716 0.836534
0.031173 -0.054696 0.836217
0.032570 -0.054668 0.835789
0.033959 -0.054630 0.835210
0.035347 -0.054592 0.834638
0.036737 -0.054562 0.834167
0.038133 -0.054541 0.833856
0.039535 -0.054531 0.833695
0.040944 -0.054530 0.833678
0.042357 -0.054534 0.833749
0.043775 -0.054545 0.833921
0.045198 -0.054561 0.834162
0.046614 -0.054568 0.834267
0.048020 -0.054563 0.834190
0.049424 -0.054557 0.834092
0.050819 -0.054540 0.833837
0.052200 -0.054510 0.833378
0.053577 -0.054478 0.832887
0.054971 -0.054464 0.832678
0.056362 -0.054448 0.832432
0.057772 -0.054450 0.832459
0.059197 -0.054467 0.832719
0.060645 -0.054503 0.833271
0.062096 -0.054540 0.833834
0.063567 -0.054593 0.834644
0.065042 -0.054647 0.835470
0.066539 -0.054716 0.836526
0.068020 -0.054770 0.837354
0.069523 -0.054839 0.838401
0.071042 -0.054918 0.839609
0.072590 -0.055015 0.841093
0.074138 -0.055109 0.842534
0.075711 -0.055217 0.844187
0.077280 -0.055319 0.845741
0.078928 -0.055472 0.848088
0.080627 -0.055655 0.850878
0.082383 -0.055870 0.854175
0.084152 -0.056087 0.857491
0.085899 -0.056281 0.860461
0.087536 -0.056399 0.862257
0.089105 -0.056470 0.863340
0.090626 -0.056508 0.863925
0.092149 -0.056546 0.864511
0.093703 -0.056602 0.865367
0.095265 -0.056661 0.866268
0.096868 -0.056742 0.867504
0.098464 -0.056817 0.868649
0.100073 -0.056897 0.869871
0.101667 -0.056966 0.870929
0.103285 -0.057047 0.872159
0.104888 -0.057117 0.873230
0.106525 -0.057203 0.874552
0.108168 -0.057290 0.875880
0.109829 -0.057384 0.877318
0.111506 -0.057484 0.878851
0.113212 -0.057596 0.880566
0.114970 -0.057731 0.882629
0.116751 -0.057875 0.884818
0.118541 -0.058019 0.887023
0.120290 -0.058139 0.888865
0.122024 -0.058249 0.890551
0.123714 -0.058337 0.891884
0.125427 -0.058432 0.893343
0.127152 -0.058531 0.894857
0.128987 -0.058678 0.897096
0.130858 -0.058837 0.899534
0.132757 -0.059005 0.902106
0.134653 -0.059168 0.904593
0.136525 -0.059317 0.906871
0.138347 -0.059441 0.908768
0.140145 -0.059552 0.910471
0.141953 -0.059665 0.912197
0.143757 -0.059774 0.913865
0.145569 -0.059884 0.915541
0.147366 -0.059986 0.917092
0.149108 -0.060063 0.918272
0.150818 -0.060126 0.919235
0.152578 -0.060207 0.920474
0.154365 -0.060297 0.921854
-0.037716 -0.056974 0.894224
-0.036148 -0.056885 0.892828
-0.034559 -0.056754 0.890776
-0.033003 -0.056669 0.889433
-0.031467 -0.056611 0.888520
-0.029959 -0.056598 0.888330
-0.028440 -0.056565 0.887810
-0.026931 -0.056547 0.887520
-0.025415 -0.056512 0.886973
-0.023898 -0.056471 0.886332
-0.022385 -0.056435 0.885765
-0.020875 -0.056400 0.885209
-0.019365 -0.056361 0.884603
-0.017857 -0.056322 0.883984
-0.016352 -0.056286 0.883428
-0.014841 -0.056217 0.882348
-0.013329 -0.056132 0.881005
-0.011819 -0.056034 0.879465
-0.010313 -0.055930 0.877842
-0.008811 -0.055818 0.876078
-0.007314 -0.055700 0.874234
-0.005826 -0.055597 0.872610
-0.004341 -0.055478 0.870743
-0.002863 -0.055355 0.868809
-0.001391 -0.055232 0.866883
0.000074 -0.055084 0.864564
0.001531 -0.054919 0.861978
0.002980 -0.054768 0.859594
0.004419 -0.054588 0.856780
0.005848 -0.054411 0.854002
0.007272 -0.054263 0.851681
0.008690 -0.054123 0.849474
0.010101 -0.053990 0.847391
0.011512 -0.053889 0.845808
0.012918 -0.053790 0.844246
0.014322 -0.053705 0.842910
0.015725 -0.053630 0.841737
0.017125 -0.053557 0.840596
0.018523 -0.053490 0.839549
0.019928 -0.053452 0.838954
0.021330 -0.053411 0.838302
0.022734 -0.053381 0.837830
0.024139 -0.053355 0.837425
0.025551 -0.053348 0.837315
0.026957 -0.053328 0.836999
0.028367 -0.053318 0.836843
0.029776 -0.053308 0.836686
0.031178 -0.053288 0.836371
0.032577 -0.053262 0.835970
0.033970 -0.053231 0.835476
0.035362 -0.053200 0.834989
0.036756 -0.053174 0.834590
0.038152 -0.053155 0.834279
0.039548 -0.053135 0.833973
0.040957 -0.053134 0.833954
0.042367 -0.053133 0.833947
0.043781 -0.053139 0.834031
0.045200 -0.053149 0.834196
0.046619 -0.053160 0.834355
0.048025 -0.053155 0.834280
0.049435 -0.053154 0.834270
0.050836 -0.053144 0.834111
0.052227 -0.053125 0.833811
0.053616 -0.053104 0.833489
0.055018 -0.053097 0.833378
0.056420 -0.053091 0.833284
0.057836 -0.053098 0.833387
0.059257 -0.053109 0.833567
0.060706 -0.053143 0.834099
0.062151 -0.053173 0.834573
