1710
0.119145 -0.041690 0.891537
0.120822 -0.041749 0.892798
0.122549 -0.041823 0.894382
0.124300 -0.041903 0.896106
0.126104 -0.042000 0.898168
0.127827 -0.042067 0.899605
0.129547 -0.042132 0.900994
0.131243 -0.042188 0.902182
0.132911 -0.042233 0.903151
0.135844 -0.042675 0.912597
-0.016351 -0.039810 0.883349
-0.014850 -0.039790 0.882925
-0.013347 -0.039760 0.882247
-0.011846 -0.039727 0.881507
-0.010340 -0.039667 0.880189
-0.008836 -0.039595 0.878593
-0.007332 -0.039494 0.876346
-0.005832 -0.039365 0.873491
-0.004339 -0.039225 0.870377
-0.002859 -0.039108 0.867784
-0.001389 -0.039018 0.865778
0.000074 -0.038957 0.864430
0.001534 -0.038902 0.863200
0.002989 -0.038851 0.862075
0.004440 -0.038794 0.860824
0.005886 -0.038736 0.859517
0.007327 -0.038668 0.858027
0.008767 -0.038622 0.856995
0.010203 -0.038575 0.855947
0.011636 -0.038528 0.854916
0.013064 -0.038479 0.853827
0.014488 -0.038426 0.852654
0.015910 -0.038379 0.851606
0.017330 -0.038336 0.850644
0.018753 -0.038305 0.849957
0.020184 -0.038294 0.849724
0.021630 -0.038310 0.850075
0.023073 -0.038321 0.850313
0.024521 -0.038337 0.850663
0.025971 -0.038354 0.851055
0.027420 -0.038369 0.851376
0.028866 -0.038378 0.851583
0.030321 -0.038397 0.852001
0.031773 -0.038412 0.852325
0.033232 -0.038433 0.852793
0.034691 -0.038451 0.853212
0.036148 -0.038467 0.853566
0.037606 -0.038482 0.853899
0.039064 -0.038496 0.854207
0.040519 -0.038507 0.854448
0.041977 -0.038519 0.854718
0.043440 -0.038536 0.855078
0.044900 -0.038547 0.855342
0.046354 -0.038555 0.855500
0.047813 -0.038565 0.855730
0.049279 -0.038580 0.856069
0.050749 -0.038597 0.856442
0.052524 -0.038839 0.861810
0.054351 -0.039106 0.867725
0.056187 -0.039364 0.873468
0.057993 -0.039589 0.878446
0.059783 -0.039792 0.882954
0.061254 -0.039778 0.882642
0.062722 -0.039762 0.882297
0.064197 -0.039752 0.882072
0.065688 -0.039752 0.882065
0.067165 -0.039744 0.881883
0.068628 -0.039728 0.881530
0.070091 -0.039712 0.881181
0.071565 -0.039703 0.880994
0.073033 -0.039692 0.880731
0.074499 -0.039679 0.880460
0.075977 -0.039674 0.880337
0.077456 -0.039669 0.880232
0.078936 -0.039665 0.880149
0.080441 -0.039674 0.880332
0.081963 -0.039690 0.880692
0.083480 -0.039703 0.880991
0.084989 -0.039712 0.881195
0.086503 -0.039724 0.881449
0.088001 -0.039727 0.881526
0.089492 -0.039728 0.881528
0.090991 -0.039731 0.881614
0.092482 -0.039732 0.881620
0.093981 -0.039735 0.881697
0.095471 -0.039735 0.881698
0.096989 -0.039746 0.881944
0.098501 -0.039755 0.882135
0.100032 -0.039771 0.882487
0.101585 -0.039794 0.883011
0.103179 -0.039834 0.883879
0.104773 -0.039872 0.884727
0.106382 -0.039914 0.885671
0.108013 -0.039964 0.886768
0.109604 -0.039997 0.887509
0.111185 -0.040026 0.888155
0.112768 -0.040055 0.888792
0.114353 -0.040084 0.889435
0.115954 -0.040118 0.890184
0.117568 -0.040155 0.891012
0.119221 -0.040204 0.892106
0.120903 -0.040262 0.893391
0.122643 -0.040338 0.895068
0.124405 -0.040419 0.896864
0.126210 -0.040511 0.898919
0.127921 -0.040572 0.900270
0.129629 -0.040630 0.901561
0.131311 -0.040679 0.902648
0.133500 -0.040882 0.907155
-0.016478 -0.038610 0.890203
-0.014846 -0.038284 0.882691
-0.013346 -0.038262 0.882188
-0.011847 -0.038237 0.881619
-0.010344 -0.038188 0.880496
-0.008842 -0.038131 0.879175
-0.007339 -0.038046 0.877217
-0.005838 -0.037926 0.874443
-0.004344 -0.037789 0.871295
-0.002862 -0.037668 0.868491
-0.001390 -0.037568 0.866197
0.000074 -0.037502 0.864671
0.001534 -0.037445 0.863362
0.002989 -0.037393 0.862159
0.004441 -0.037342 0.860981
0.005887 -0.037282 0.859600
0.007327 -0.037214 0.858032
0.008767 -0.037173 0.857078
0.010205 -0.037131 0.856122
0.011638 -0.037087 0.855099
0.013070 -0.037046 0.854164
0.014495 -0.036999 0.853078
0.015918 -0.036954 0.852044
0.017340 -0.036916 0.851167
0.018766 -0.036890 0.850563
0.020201 -0.036884 0.850423
0.021648 -0.036900 0.850789
0.023097 -0.036917 0.851187
0.024548 -0.036936 0.851614
0.026002 -0.036957 0.852092
0.027456 -0.036974 0.852487
0.028908 -0.036989 0.852831
0.030365 -0.037007 0.853245
0.031820 -0.037021 0.853579
0.033275 -0.037035 0.853904
0.034730 -0.037047 0.854172
0.036182 -0.037055 0.854358
0.037634 -0.037062 0.854526
0.039085 -0.037068 0.854671
0.040537 -0.037075 0.854824
0.041994 -0.037086 0.855072
0.043457 -0.037101 0.855418
0.044913 -0.037109 0.855604
0.046364 -0.037112 0.855685
0.047818 -0.037118 0.855822
0.049275 -0.037126 0.855989
0.050804 -0.037186 0.857374
0.052596 -0.037430 0.862996
0.054440 -0.037696 0.869145
0.056296 -0.037957 0.875150
0.058115 -0.038180 0.880303
0.059840 -0.038332 0.883799
0.061305 -0.038314 0.883381
0.062768 -0.038295 0.882943
0.064244 -0.038285 0.882713
0.065736 -0.038285 0.882713
0.067220 -0.038280 0.882601
0.068690 -0.038268 0.882326
0.070160 -0.038256 0.882051
0.071636 -0.038248 0.881867
0.073106 -0.038237 0.881610
0.074567 -0.038222 0.881267
0.076040 -0.038213 0.881069
0.077512 -0.038205 0.880872
0.078987 -0.038198 0.880714
0.080485 -0.038202 0.880811
0.081999 -0.038214 0.881080
0.083506 -0.038222 0.881268
0.085013 -0.038230 0.881449
0.086520 -0.038237 0.881614
0.088010 -0.038237 0.881614
0.089509 -0.038240 0.881694
0.091017 -0.038248 0.881866
0.092518 -0.038252 0.881964
0.094028 -0.038260 0.882141
0.095538 -0.038267 0.882312
0.097067 -0.038282 0.882659
0.098592 -0.038295 0.882951
0.100129 -0.038312 0.883341
0.101694 -0.038339 0.883958
0.103280 -0.038373 0.884748
0.104864 -0.038405 0.885492
0.106463 -0.038442 0.886339
0.108072 -0.038481 0.887250
0.109650 -0.038509 0.887884
0.111230 -0.038536 0.888514
0.112813 -0.038564 0.889149
0.114400 -0.038592 0.889807
0.116023 -0.038632 0.890715
0.117651 -0.038672 0.891642
0.119319 -0.038724 0.892841
0.121016 -0.038784 0.894232
0.122759 -0.038857 0.895916
0.124510 -0.038931 0.897624
0.126303 -0.039016 0.899583
0.128004 -0.039071 0.900848
0.129686 -0.039119 0.901957
0.131354 -0.039162 0.902940
0.134107 -0.039523 0.911274
-0.014842 -0.036778 0.882456
-0.013344 -0.036759 0.882020
-0.011847 -0.036739 0.881544
-0.010345 -0.036700 0.880599
-0.008845 -0.036653 0.879465
-0.007344 -0.036583 0.877786
-0.005843 -0.036473 0.875140
-0.004348 -0.036344 0.872064
-0.002864 -0.036225 0.869207
-0.001391 -0.036122 0.866721
0.000074 -0.036047 0.864927
0.001534 -0.035989 0.863524
0.002989 -0.035935 0.862231
0.004441 -0.035882 0.860964
0.005887 -0.035824 0.859569
0.007326 -0.035758 0.857988
0.008768 -0.035721 0.857117
0.010205 -0.035682 0.856176
0.011639 -0.035641 0.855176
0.013072 -0.035606 0.854335
0.014499 -0.035564 0.853327
0.015923 -0.035521 0.852312
0.017348 -0.035489 0.851527
0.018776 -0.035468 0.851021
0.020213 -0.035465 0.850955
0.021663 -0.035482 0.851382
0.023116 -0.035504 0.851903
0.024569 -0.035522 0.852333
0.026027 -0.035545 0.852883
0.027482 -0.035562 0.853291
0.028936 -0.035577 0.853647
0.030392 -0.035592 0.854009
0.031851 -0.035609 0.854423
0.033306 -0.035620 0.854677
0.034758 -0.035627 0.854854
0.036207 -0.035631 0.854955
0.037657 -0.035635 0.855048
0.039102 -0.035635 0.855036
0.040554 -0.035641 0.855175
0.042011 -0.035651 0.855418
0.043475 -0.035665 0.855769
0.044928 -0.035671 0.855893
0.046379 -0.035673 0.855963
0.047824 -0.035672 0.855923
0.049337 -0.035720 0.857076
0.050937 -0.035826 0.859628
0.052759 -0.036078 0.865668
0.054617 -0.036341 0.871970
0.056480 -0.036592 0.878016
0.058231 -0.036761 0.882051
0.059885 -0.036861 0.884457
0.061340 -0.036837 0.883878
0.062803 -0.036818 0.883434
0.064278 -0.036808 0.883187
0.065771 -0.036808 0.883187
0.067256 -0.036804 0.883084
0.068734 -0.036796 0.882888
0.070211 -0.036787 0.882688
0.071695 -0.036783 0.882587
0.073173 -0.036776 0.882419
0.074643 -0.036765 0.882161
0.076110 -0.036754 0.881888
0.077577 -0.036742 0.881611
0.079044 -0.036732 0.881352
0.080527 -0.036728 0.881269
0.082025 -0.036732 0.881360
0.083523 -0.036736 0.881449
0.085022 -0.036739 0.881534
0.086520 -0.036743 0.881614
0.088010 -0.036743 0.881614
0.089517 -0.036749 0.881780
0.091036 -0.036761 0.882050
0.092548 -0.036769 0.882251
0.094079 -0.036784 0.882615
0.095607 -0.036798 0.882955
0.097150 -0.036817 0.883408
0.098687 -0.036833 0.883799
0.100245 -0.036857 0.884365
0.101813 -0.036884 0.885001
0.103394 -0.036914 0.885723
0.104969 -0.036941 0.886378
0.106545 -0.036968 0.887027
0.108121 -0.036994 0.887651
0.109686 -0.037016 0.888176
0.111265 -0.037042 0.888795
0.112839 -0.037065 0.889354
0.114437 -0.037096 0.890094
0.116082 -0.037141 0.891167
0.117723 -0.037183 0.892190
0.119417 -0.037241 0.893579
0.121143 -0.037307 0.895166
0.122898 -0.037381 0.896931
0.124649 -0.037451 0.898625
0.126431 -0.037529 0.900494
0.128108 -0.037575 0.901585
0.129779 -0.037617 0.902605
0.131421 -0.037650 0.903401
-0.014929 -0.035488 0.887607
-0.013343 -0.035263 0.881983
-0.011847 -0.035248 0.881604
-0.010348 -0.035219 0.880880
-0.008849 -0.035177 0.879840
-0.007348 -0.035114 0.878273
-0.005847 -0.035016 0.875817
-0.004352 -0.034898 0.872850
-0.002866 -0.034781 0.869925
-0.001392 -0.034677 0.867335
0.000074 -0.034598 0.865362
0.001535 -0.034538 0.863861
0.002990 -0.034483 0.862476
0.004441 -0.034425 0.861039
0.005886 -0.034366 0.859546
0.007326 -0.034302 0.857953
0.008767 -0.034264 0.857003
0.010204 -0.034224 0.856003
0.011638 -0.034187 0.855084
0.013072 -0.034157 0.854321
0.014502 -0.034123 0.853475
0.015929 -0.034089 0.852634
0.017359 -0.034068 0.852094
0.018792 -0.034054 0.851749
0.020228 -0.034048 0.851593
0.021675 -0.034058 0.851849
0.023126 -0.034075 0.852266
0.024579 -0.034091 0.852689
0.026036 -0.034112 0.853195
0.027495 -0.034132 0.853706
0.028953 -0.034150 0.854147
0.030410 -0.034164 0.854513
0.031867 -0.034178 0.854852
0.033325 -0.034191 0.855172
0.034781 -0.034201 0.855418
0.036231 -0.034205 0.855515
0.037681 -0.034208 0.855595
0.039127 -0.034207 0.855582
0.040576 -0.034210 0.855649
0.042031 -0.034217 0.855828
0.043497 -0.034232 0.856191
0.044947 -0.034234 0.856243
0.046394 -0.034233 0.856228
0.047833 -0.034227 0.856088
0.049409 -0.034317 0.858326
0.051086 -0.034469 0.862133
0.052935 -0.034726 0.868566
0.054818 -0.034990 0.875170
0.056683 -0.035230 0.881175
0.058363 -0.035345 0.884054
0.059950 -0.035400 0.885414
0.061400 -0.035373 0.884750
0.062858 -0.035352 0.884213
0.064328 -0.035338 0.883876
0.065822 -0.035338 0.883876
0.067304 -0.035332 0.883710
0.068784 -0.035324 0.883528
0.070269 -0.035320 0.883420
0.071755 -0.035316 0.883324
0.073241 -0.035313 0.883247
0.074721 -0.035307 0.883085
0.076197 -0.035299 0.882886
0.077663 -0.035287 0.882585
0.079122 -0.035272 0.882220
0.080589 -0.035262 0.881955
0.082072 -0.035258 0.881866
0.083555 -0.035255 0.881783
0.085038 -0.035251 0.881700
0.086528 -0.035251 0.881694
0.088018 -0.035251 0.881694
0.089535 -0.035262 0.881955
0.091073 -0.035280 0.882406
0.092606 -0.035296 0.882802
0.094156 -0.035317 0.883345
0.095698 -0.035335 0.883793
0.097259 -0.035360 0.884402
0.098807 -0.035379 0.884877
0.100377 -0.035405 0.885530
0.101948 -0.035430 0.886174
0.103530 -0.035459 0.886890
0.105086 -0.035478 0.887370
0.106642 -0.035497 0.887831
0.108186 -0.035511 0.888184
0.109740 -0.035528 0.888610
0.111309 -0.035549 0.889146
0.112875 -0.035569 0.889638
0.114474 -0.035598 0.890376
0.116130 -0.035645 0.891538
0.117786 -0.035690 0.892661
0.119495 -0.035750 0.894163
0.121234 -0.035817 0.895843
0.123003 -0.035891 0.897694
0.124767 -0.035962 0.899474
0.126549 -0.036037 0.901337
0.128215 -0.036077 0.902338
0.129874 -0.036114 0.903266
0.131489 -0.036138 0.903873
-0.013341 -0.033761 0.881814
-0.011845 -0.033747 0.881433
-0.010346 -0.033718 0.880687
-0.008847 -0.033677 0.879620
-0.007348 -0.033624 0.878218
-0.005850 -0.033546 0.876206
-0.004355 -0.033444 0.873530
-0.002869 -0.033339 0.870795
-0.001393 -0.033240 0.868207
0.000075 -0.033158 0.866061
0.001536 -0.033090 0.864296
0.002991 -0.033031 0.862746
0.004442 -0.032976 0.861298
0.005888 -0.032919 0.859809
0.007328 -0.032858 0.858211
0.008768 -0.032818 0.857184
0.010205 -0.032779 0.856157
0.011639 -0.032740 0.855149
0.013073 -0.032711 0.854372
0.014506 -0.032685 0.853698
0.015938 -0.032662 0.853109
0.017373 -0.032649 0.852751
0.018810 -0.032641 0.852562
0.020246 -0.032632 0.852324
0.021691 -0.032638 0.852481
0.023139 -0.032648 0.852736
0.024591 -0.032662 0.853095
0.026046 -0.032678 0.853536
0.027508 -0.032701 0.854127
0.028970 -0.032721 0.854649
0.030428 -0.032735 0.855008
0.031883 -0.032745 0.855264
0.033338 -0.032754 0.855498
0.034796 -0.032766 0.855809
0.036248 -0.032770 0.855915
0.037702 -0.032776 0.856085
0.039156 -0.032782 0.856232
0.040618 -0.032793 0.856528
0.042079 -0.032803 0.856795
0.043551 -0.032821 0.857252
0.045006 -0.032826 0.857376
0.046459 -0.032828 0.857432
0.047948 -0.032855 0.858152
0.049594 -0.032984 0.861527
0.051348 -0.033177 0.866549
0.053218 -0.033431 0.873200
0.055087 -0.033672 0.879476
0.056887 -0.033858 0.884333
0.058488 -0.033919 0.885949
0.060003 -0.033929 0.886207
0.061450 -0.033901 0.885467
0.062908 -0.033880 0.884916
0.064378 -0.033867 0.884567
0.065874 -0.033867 0.884567
0.067358 -0.033861 0.884415
0.068846 -0.033857 0.884329
0.070340 -0.033857 0.884312
0.071828 -0.033854 0.884226
0.073317 -0.033851 0.884161
0.074799 -0.033845 0.884004
0.076269 -0.033834 0.883724
0.077729 -0.033819 0.883332
0.079172 -0.033798 0.882775
0.080630 -0.033784 0.882405
0.082098 -0.033774 0.882143
0.083573 -0.033767 0.881969
0.085047 -0.033760 0.881795
0.086536 -0.033760 0.881780
0.088027 -0.033760 0.881780
0.089554 -0.033774 0.882136
0.091110 -0.033798 0.882768
0.092664 -0.033820 0.883353
0.094234 -0.033848 0.884077
0.095796 -0.033872 0.884699
0.097369 -0.033899 0.885404
0.098919 -0.033917 0.885880
0.100489 -0.033941 0.886517
0.102060 -0.033965 0.887146
0.103625 -0.033987 0.887699
0.105170 -0.034001 0.888072
0.106704 -0.034012 0.888352
0.108227 -0.034018 0.888522
0.109772 -0.034031 0.888866
0.111332 -0.034049 0.889324
0.112888 -0.034065 0.889740
0.114497 -0.034096 0.890561
0.116177 -0.034147 0.891894
0.117857 -0.034197 0.893204
0.119617 -0.034269 0.895072
0.121396 -0.034344 0.897034
0.123193 -0.034422 0.899081
0.124971 -0.034494 0.900947
0.126746 -0.034562 0.902736
0.128389 -0.034594 0.903561
0.130035 -0.034625 0.904383
0.131624 -0.034641 0.904798
-0.011966 -0.032582 0.890428
-0.010394 -0.032374 0.884750
-0.008841 -0.032166 0.879080
-0.007344 -0.032117 0.877729
-0.005850 -0.032061 0.876196
-0.004357 -0.031979 0.873971
-0.002872 -0.031890 0.871533
-0.001394 -0.031802 0.869117
0.000075 -0.031725 0.867013
0.001537 -0.031651 0.864989
0.002993 -0.031588 0.863265
0.004445 -0.031532 0.861753
0.005891 -0.031478 0.860264
0.007332 -0.031420 0.858673
0.008772 -0.031379 0.857562
0.010209 -0.031338 0.856433
0.011642 -0.031300 0.855392
0.013076 -0.031271 0.854604
0.014511 -0.031250 0.854026
0.015948 -0.031235 0.853625
0.017386 -0.031226 0.853382
0.018824 -0.031219 0.853204
0.020261 -0.031210 0.852955
0.021705 -0.031213 0.853026
0.023151 -0.031219 0.853199
0.024604 -0.031232 0.853550
0.026060 -0.031248 0.853987
0.027523 -0.031270 0.854575
0.028985 -0.031288 0.855081
0.030443 -0.031301 0.855429
0.031898 -0.031310 0.855677
0.033356 -0.031321 0.855982
0.034817 -0.031333 0.856312
0.036273 -0.031341 0.856519
0.037733 -0.031351 0.856790
0.039196 -0.031362 0.857099
0.040664 -0.031376 0.857495
0.042131 -0.031389 0.857847
0.043604 -0.031406 0.858308
0.045065 -0.031413 0.858503
0.046520 -0.031416 0.858565
0.048069 -0.031480 0.860314
0.049789 -0.031648 0.864917
0.051619 -0.031875 0.871131
0.053497 -0.032119 0.877782
0.055355 -0.032337 0.883749
0.057076 -0.032466 0.887279
0.058605 -0.032482 0.887716
0.060055 -0.032455 0.886969
0.061503 -0.032428 0.886223
0.062961 -0.032407 0.885670
0.064432 -0.032394 0.885301
0.065922 -0.032391 0.885211
0.067407 -0.032385 0.885060
0.068897 -0.032382 0.884980
0.070398 -0.032384 0.885043
0.071894 -0.032384 0.885043
0.073393 -0.032385 0.885069
0.074876 -0.032380 0.884914
0.076341 -0.032367 0.884554
0.077793 -0.032349 0.884067
0.079230 -0.032325 0.883420
0.080681 -0.032308 0.882961
0.082140 -0.032295 0.882601
0.083616 -0.032289 0.882424
0.085089 -0.032282 0.882231
0.086570 -0.032278 0.882130
0.088061 -0.032278 0.882123
0.089589 -0.032291 0.882483
0.091148 -0.032315 0.883137
0.092712 -0.032339 0.883812
0.094294 -0.032370 0.884640
0.095867 -0.032396 0.885353
0.097442 -0.032422 0.886064
0.098993 -0.032439 0.886539
0.100555 -0.032460 0.887100
0.102116 -0.032479 0.887633
0.103659 -0.032492 0.887991
0.105202 -0.032505 0.888346
0.106736 -0.032515 0.888617
0.108260 -0.032522 0.888793
0.109815 -0.032537 0.889221
0.111386 -0.032557 0.889758
0.112942 -0.032572 0.890168
0.114574 -0.032608 0.891154
0.116278 -0.032664 0.892672
0.117987 -0.032719 0.894187
0.119788 -0.032798 0.896351
0.121608 -0.032881 0.898605
0.123424 -0.032960 0.900771
0.125209 -0.033029 0.902663
0.126975 -0.033092 0.904371
0.128606 -0.033118 0.905086
0.130240 -0.033145 0.905811
0.132310 -0.033280 0.909513
-0.010397 -0.030884 0.885030
-0.008835 -0.030655 0.878467
-0.007340 -0.030613 0.877261
-0.005849 -0.030573 0.876110
-0.004359 -0.030511 0.874344
-0.002874 -0.030437 0.872212
-0.001396 -0.030358 0.869956
0.000075 -0.030286 0.867905
0.001538 -0.030209 0.865685
0.002995 -0.030145 0.863862
0.004447 -0.030090 0.862282
0.005896 -0.030044 0.860953
0.007338 -0.029989 0.859390
0.008779 -0.029950 0.858265
0.010215 -0.029905 0.856972
0.011649 -0.029867 0.855896
0.013082 -0.029834 0.854952
0.014519 -0.029817 0.854462
0.015958 -0.029807 0.854174
0.017400 -0.029805 0.854102
0.018842 -0.029801 0.854011
0.020282 -0.029795 0.853829
0.021727 -0.029797 0.853893
0.023173 -0.029800 0.853984
0.024624 -0.029810 0.854255
0.026079 -0.029822 0.854594
0.027539 -0.029839 0.855083
0.028997 -0.029851 0.855435
0.030455 -0.029863 0.855780
0.031909 -0.029869 0.855961
0.033370 -0.029883 0.856340
0.034835 -0.029897 0.856762
0.036300 -0.029910 0.857139
0.037769 -0.029927 0.857608
0.039245 -0.029947 0.858181
0.040720 -0.029964 0.858674
0.042189 -0.029977 0.859038
0.043664 -0.029993 0.859491
0.045131 -0.030002 0.859760
0.046593 -0.030007 0.859912
0.048210 -0.030109 0.862829
0.050010 -0.030316 0.868762
0.051861 -0.030541 0.875206
0.053731 -0.030765 0.881615
0.055573 -0.030961 0.887230
0.057217 -0.031039 0.889465
0.058671 -0.031013 0.888723
0.060123 -0.030987 0.887975
0.061567 -0.030958 0.887155
0.063028 -0.030939 0.886607
0.064500 -0.030926 0.886238
0.065991 -0.030922 0.886136
0.067476 -0.030917 0.885968
0.068967 -0.030914 0.885881
0.070470 -0.030916 0.885953
0.071962 -0.030913 0.885872
0.073453 -0.030911 0.885800
0.074936 -0.030905 0.885630
0.076402 -0.030892 0.885266
0.077857 -0.030875 0.884788
0.079295 -0.030853 0.884146
0.080747 -0.030837 0.883681
0.082199 -0.030821 0.883232
0.083667 -0.030812 0.882968
0.085134 -0.030802 0.882694
0.086615 -0.030799 0.882587
0.088106 -0.030798 0.882578
0.089634 -0.030810 0.882929
0.091194 -0.030833 0.883583
0.092759 -0.030857 0.884259
0.094351 -0.030889 0.885171
0.095934 -0.030917 0.885974
0.097512 -0.030942 0.886700
0.099074 -0.030962 0.887268
0.100636 -0.030981 0.887815
0.102179 -0.030994 0.888178
0.103710 -0.031002 0.888433
0.105253 -0.031015 0.888779
0.106780 -0.031022 0.888977
0.108307 -0.031029 0.889180
0.109863 -0.031043 0.889603
0.111433 -0.031062 0.890135
0.113010 -0.031082 0.890702
0.114678 -0.031126 0.891962
0.116422 -0.031189 0.893777
0.118195 -0.031258 0.895761
0.120050 -0.031347 0.898311
0.121891 -0.031430 0.900694
0.123726 -0.031510 0.902975
0.125516 -0.031576 0.904873
0.127259 -0.031629 0.906394
0.128880 -0.031651 0.907014
0.130500 -0.031672 0.907622
0.133065 -0.031919 0.914704
-0.008831 -0.029151 0.878037
-0.007337 -0.029115 0.876943
-0.005849 -0.029088 0.876125
-0.004361 -0.029043 0.874764
-0.002876 -0.028979 0.872852
-0.001397 -0.028913 0.870868
0.000075 -0.028847 0.868877
0.001539 -0.028770 0.866535
0.002997 -0.028704 0.864550
0.004451 -0.028651 0.862953
0.005901 -0.028607 0.861642
0.007345 -0.028557 0.860143
0.008787 -0.028521 0.859036
0.010224 -0.028478 0.857742
0.011659 -0.028439 0.856587
0.013091 -0.028405 0.855563
0.014529 -0.028389 0.855065
0.015969 -0.028379 0.854771
0.017414 -0.028379 0.854779
0.018861 -0.028381 0.854846
0.020305 -0.028381 0.854833
0.021751 -0.028381 0.854833
0.023196 -0.028381 0.854841
0.024648 -0.028389 0.855078
0.026096 -0.028392 0.855173
0.027550 -0.028401 0.855428
0.029005 -0.028409 0.855691
0.030462 -0.028418 0.855963
0.031910 -0.028419 0.855991
0.033378 -0.028438 0.856539
0.034850 -0.028457 0.857126
0.036326 -0.028478 0.857766
0.037808 -0.028502 0.858477
0.039300 -0.028532 0.859383
0.040781 -0.028552 0.859977
0.042258 -0.028567 0.860434
0.043735 -0.028582 0.860874
0.045208 -0.028593 0.861214
0.046728 -0.028633 0.862411
0.048421 -0.028772 0.866615
0.050238 -0.028975 0.872727
0.052093 -0.029188 0.879126
0.053950 -0.029390 0.885219
0.055716 -0.029532 0.889509
0.057287 -0.029567 0.890554
0.058737 -0.029539 0.889725
0.060196 -0.029517 0.889054
0.061643 -0.029491 0.888250
0.063106 -0.029473 0.887709
0.064575 -0.029458 0.887259
0.066065 -0.029453 0.887138
0.067546 -0.029445 0.886884
0.069038 -0.029442 0.886794
0.070543 -0.029445 0.886866
0.072029 -0.029439 0.886698
0.073513 -0.029433 0.886523
0.074989 -0.029424 0.886252
0.076455 -0.029412 0.885877
0.077912 -0.029396 0.885418
0.079360 -0.029378 0.884869
0.080821 -0.029366 0.884489
0.082282 -0.029353 0.884125
0.083751 -0.029344 0.883856
0.085220 -0.029336 0.883595
0.086696 -0.029330 0.883411
0.088188 -0.029329 0.883393
0.089707 -0.029338 0.883645
0.091258 -0.029356 0.884202
0.092823 -0.029378 0.884867
0.094416 -0.029408 0.885777
0.095992 -0.029433 0.886509
0.097571 -0.029457 0.887232
0.099143 -0.029478 0.887882
0.100688 -0.029491 0.888272
0.102221 -0.029500 0.888543
0.103751 -0.029508 0.888785
0.105295 -0.029520 0.889131
0.106814 -0.029524 0.889266
0.108355 -0.029534 0.889571
0.109912 -0.029549 0.890005
0.111493 -0.029569 0.890612
0.113124 -0.029602 0.891603
0.114846 -0.029657 0.893272
0.116647 -0.029731 0.895508
0.118498 -0.029816 0.898059
0.120382 -0.029907 0.900797
0.122206 -0.029981 0.903021
0.124032 -0.030053 0.905205
0.125811 -0.030113 0.907001
0.127532 -0.030158 0.908340
0.129178 -0.030183 0.909112
0.130842 -0.030212 0.909995
0.133518 -0.030472 0.917821
-0.008824 -0.027642 0.877373
-0.007334 -0.027617 0.876576
-0.005849 -0.027600 0.876041
-0.004362 -0.027568 0.875007
-0.002878 -0.027516 0.873370
-0.001398 -0.027457 0.871500
0.000075 -0.027399 0.869666
0.001541 -0.027323 0.867242
0.003000 -0.027260 0.865240
0.004455 -0.027212 0.863709
0.005906 -0.027173 0.862480
0.007352 -0.027128 0.861062
0.008799 -0.027099 0.860128
0.010238 -0.027060 0.858909
0.011675 -0.027025 0.857771
0.013110 -0.026994 0.856803
0.014550 -0.026978 0.856289
0.015990 -0.026966 0.855899
0.017435 -0.026963 0.855824
0.018882 -0.026963 0.855815
0.020327 -0.026960 0.855740
0.021772 -0.026958 0.855672
0.023219 -0.026958 0.855678
0.024670 -0.026963 0.855829
0.026114 -0.026961 0.855753
0.027563 -0.026964 0.855835
0.029018 -0.026971 0.856074
0.030475 -0.026980 0.856344
0.031927 -0.026983 0.856446
0.033400 -0.027003 0.857101
0.034879 -0.027027 0.857837
0.036361 -0.027050 0.858578
0.037848 -0.027075 0.859382
0.039350 -0.027110 0.860471
0.040841 -0.027134 0.861238
0.042323 -0.027151 0.861774
0.043802 -0.027164 0.862207
0.045281 -0.027177 0.862615
0.046874 -0.027255 0.865090
0.048646 -0.027430 0.870642
0.050486 -0.027631 0.877030
0.052347 -0.027833 0.883422
0.054198 -0.028017 0.889285
0.055876 -0.028105 0.892063
0.057364 -0.028095 0.891752
0.058804 -0.028063 0.890733
0.060258 -0.028039 0.889972
0.061706 -0.028013 0.889157
0.063177 -0.027999 0.888708
0.064648 -0.027985 0.888267
0.066141 -0.027982 0.888149
0.067622 -0.027973 0.887882
0.069109 -0.027968 0.887710
0.070603 -0.027965 0.887626
0.072089 -0.027959 0.887443
0.073566 -0.027950 0.887164
0.075041 -0.027941 0.886867
0.076508 -0.027929 0.886496
0.077968 -0.027916 0.886054
0.079426 -0.027902 0.885610
0.080889 -0.027890 0.885237
0.082351 -0.027878 0.884866
0.083822 -0.027870 0.884601
0.085309 -0.027867 0.884510
0.086795 -0.027864 0.884418
0.088297 -0.027866 0.884489
0.089810 -0.027872 0.884661
0.091351 -0.027886 0.885102
0.092898 -0.027901 0.885588
0.094474 -0.027924 0.886320
0.096042 -0.027944 0.886969
0.097621 -0.027967 0.887693
0.099194 -0.027988 0.888337
0.100739 -0.028000 0.888722
0.102273 -0.028008 0.888996
0.103804 -0.028016 0.889236
0.105348 -0.028027 0.889582
0.106869 -0.028031 0.889725
0.108410 -0.028041 0.890029
0.109969 -0.028054 0.890463
0.111603 -0.028087 0.891489
0.113308 -0.028136 0.893054
0.115100 -0.028205 0.895250
0.116974 -0.028292 0.898015
0.118878 -0.028385 0.900941
0.120743 -0.028465 0.903501
0.122543 -0.028529 0.905511
0.124332 -0.028588 0.907397
0.126088 -0.028638 0.908997
0.127788 -0.028675 0.910158
0.129462 -0.028705 0.911113
0.131175 -0.028743 0.912314
0.133930 -0.029005 0.920650
-0.007331 -0.026122 0.876264
-0.005847 -0.026109 0.875832
-0.004363 -0.026087 0.875100
-0.002879 -0.026045 0.873696
-0.001399 -0.025997 0.872089
0.000075 -0.025951 0.870541
0.001542 -0.025881 0.868196
0.003003 -0.025819 0.866099
0.004458 -0.025769 0.864420
0.005911 -0.025732 0.863180
0.007359 -0.025690 0.861779
0.008808 -0.025667 0.861005
0.010251 -0.025636 0.859967
0.011692 -0.025609 0.859071
0.013131 -0.025583 0.858184
0.014574 -0.025570 0.857738
0.016015 -0.025555 0.857250
0.017461 -0.025550 0.857077
0.018908 -0.025547 0.856981
0.020353 -0.025542 0.856828
0.021796 -0.025536 0.856613
0.023242 -0.025533 0.856529
0.024689 -0.025533 0.856507
0.026128 -0.025523 0.856191
0.027577 -0.025525 0.856257
0.029035 -0.025534 0.856557
0.030498 -0.025547 0.856974
0.031957 -0.025555 0.857256
0.033441 -0.025582 0.858147
0.034920 -0.025602 0.858834
0.036402 -0.025624 0.859566
0.037888 -0.025646 0.860292
0.039392 -0.025678 0.861393
0.040882 -0.025699 0.862101
0.042367 -0.025716 0.862651
0.043847 -0.025729 0.863079
0.045335 -0.025745 0.863634
0.046993 -0.025854 0.867284
0.048789 -0.026030 0.873189
0.050654 -0.026232 0.879955
0.052512 -0.026418 0.886206
0.054350 -0.026584 0.891767
0.055952 -0.026629 0.893287
0.057425 -0.026612 0.892703
0.058860 -0.026578 0.891575
0.060314 -0.026555 0.890799
0.061763 -0.026531 0.889978
0.063237 -0.026517 0.889542
0.064708 -0.026504 0.889096
0.066196 -0.026498 0.888897
0.067672 -0.026488 0.888538
0.069154 -0.026480 0.888278
0.070641 -0.026475 0.888104
0.072128 -0.026469 0.887918
0.073605 -0.026461 0.887632
0.075087 -0.026454 0.887416
0.076564 -0.026446 0.887138
0.078033 -0.026435 0.886787
0.079500 -0.026425 0.886434
0.080965 -0.026414 0.886064
0.082436 -0.026405 0.885777
0.083916 -0.026400 0.885594
0.085422 -0.026402 0.885684
0.086921 -0.026403 0.885705
0.088435 -0.026408 0.885872
0.089941 -0.026410 0.885949
0.091466 -0.026418 0.886213
0.092986 -0.026424 0.886422
0.094551 -0.026443 0.887051
0.096112 -0.026460 0.887613
0.097682 -0.026479 0.888248
0.099255 -0.026498 0.888885
0.100801 -0.026509 0.889264
0.102327 -0.026515 0.889460
0.103859 -0.026522 0.889707
0.105403 -0.026533 0.890047
0.106934 -0.026539 0.890262
0.108546 -0.026565 0.891140
0.110184 -0.026597 0.892202
0.111894 -0.026645 0.893819
0.113691 -0.026712 0.896068
0.115551 -0.026792 0.898757
0.117407 -0.026869 0.901336
0.119270 -0.026946 0.903909
0.121087 -0.027010 0.906069
0.122824 -0.027056 0.907591
0.124564 -0.027100 0.909089
0.126297 -0.027142 0.910502
0.127999 -0.027177 0.911666
0.129707 -0.027212 0.912840
0.131471 -0.027258 0.914371
0.134241 -0.027509 0.922786
-0.007333 -0.024640 0.876394
-0.005848 -0.024629 0.876013
-0.004364 -0.024611 0.875346
-0.002880 -0.024577 0.874139
-0.001401 -0.024541 0.872883
0.000075 -0.024498 0.871341
0.001544 -0.024434 0.869087
0.003006 -0.024378 0.867067
0.004464 -0.024332 0.865449
0.005918 -0.024295 0.864139
0.007367 -0.024258 0.862823
0.008819 -0.024239 0.862127
0.010265 -0.024213 0.861189
0.011709 -0.024188 0.860315
0.013152 -0.024166 0.859535
0.014597 -0.024154 0.859101
0.016039 -0.024138 0.858537
0.017485 -0.024130 0.858269
0.018932 -0.024125 0.858062
0.020376 -0.024117 0.857802
0.021818 -0.024108 0.857483
0.023265 -0.024106 0.857388
0.024714 -0.024105 0.857365
0.026153 -0.024096 0.857038
0.027604 -0.024097 0.857091
0.029063 -0.024106 0.857402
0.030529 -0.024118 0.857841
0.031991 -0.024128 0.858172
0.033477 -0.024153 0.859079
0.034957 -0.024172 0.859760
0.036440 -0.024192 0.860457
0.037930 -0.024214 0.861250
0.039436 -0.024245 0.862343
0.040927 -0.024265 0.863058
0.042413 -0.024280 0.863606
0.043899 -0.024294 0.864106
0.045394 -0.024313 0.864755
0.047120 -0.024450 0.869628
0.048933 -0.024622 0.875774
0.050814 -0.024818 0.882728
0.052673 -0.024992 0.888916
0.054497 -0.025140 0.894196
0.056034 -0.025152 0.894586
0.057501 -0.025132 0.893892
0.058931 -0.025097 0.892665
0.060381 -0.025073 0.891789
0.061832 -0.025050 0.890970
0.063301 -0.025035 0.890448
0.064775 -0.025023 0.890009
0.066264 -0.025017 0.889800
0.067739 -0.025006 0.889419
0.069222 -0.024999 0.889153
0.070703 -0.024991 0.888880
0.072184 -0.024983 0.888613
0.073656 -0.024973 0.888250
0.075141 -0.024968 0.888052
0.076627 -0.024963 0.887875
0.078106 -0.024956 0.887627
0.079583 -0.024948 0.887358
0.081055 -0.024940 0.887051
0.082527 -0.024931 0.886758
0.084002 -0.024924 0.886501
0.085511 -0.024927 0.886612
0.087022 -0.024931 0.886733
0.088541 -0.024936 0.886931
0.090049 -0.024938 0.887013
0.091565 -0.024943 0.887173
0.093073 -0.024945 0.887257
0.094630 -0.024960 0.887790
0.096181 -0.024973 0.888255
0.097744 -0.024989 0.888812
0.099317 -0.025007 0.889441
0.100864 -0.025017 0.889822
0.102390 -0.025023 0.890014
0.103934 -0.025032 0.890352
0.105500 -0.025047 0.890864
0.107093 -0.025067 0.891584
0.108776 -0.025108 0.893031
0.110482 -0.025152 0.894621
0.112264 -0.025213 0.896774
0.114117 -0.025287 0.899427
0.115967 -0.025360 0.901987
0.117784 -0.025423 0.904236
0.119608 -0.025486 0.906469
0.121362 -0.025532 0.908133
0.123050 -0.025564 0.909262
0.124755 -0.025598 0.910482
0.126478 -0.025636 0.911811
0.128185 -0.025669 0.912986
0.129924 -0.025708 0.914362
0.131734 -0.025759 0.916201
0.134026 -0.025903 0.921307
-0.002883 -0.023113 0.874844
-0.001402 -0.023086 0.873806
0.000075 -0.023047 0.872327
0.001546 -0.022992 0.870240
0.003011 -0.022942 0.868364
0.004470 -0.022899 0.866739
0.005926 -0.022860 0.865269
0.007377 -0.022825 0.863939
0.008830 -0.022807 0.863241
0.010279 -0.022782 0.862304
0.011725 -0.022760 0.861452
0.013172 -0.022744 0.860851
0.014619 -0.022731 0.860357
0.016061 -0.022714 0.859717
0.017507 -0.022704 0.859356
0.018953 -0.022696 0.859050
0.020397 -0.022687 0.858694
0.021840 -0.022678 0.858359
0.023288 -0.022675 0.858252
0.024739 -0.022674 0.858223
0.026180 -0.022666 0.857899
0.027632 -0.022667 0.857967
0.029096 -0.022678 0.858373
0.030567 -0.022693 0.858930
0.032038 -0.022706 0.859433
0.033527 -0.022731 0.860353
0.035008 -0.022748 0.861019
0.036489 -0.022764 0.861611
0.037976 -0.022782 0.862298
0.039476 -0.022807 0.863234
0.040970 -0.022825 0.863946
0.042457 -0.022840 0.864487
0.043952 -0.022857 0.865143
0.045457 -0.022879 0.865967
0.047244 -0.023036 0.871923
0.049072 -0.023204 0.878265
0.050958 -0.023388 0.885225
0.052809 -0.023546 0.891218
0.054622 -0.023679 0.896244
0.056097 -0.023662 0.895598
0.057561 -0.023641 0.894819
0.058998 -0.023611 0.893677
0.060450 -0.023588 0.892801
0.061903 -0.023566 0.891987
0.063367 -0.023550 0.891375
0.064835 -0.023536 0.890840
0.066312 -0.023526 0.890448
0.067781 -0.023513 0.889973
0.069257 -0.023503 0.889610
0.070740 -0.023496 0.889340
0.072228 -0.023491 0.889152
0.073708 -0.023484 0.888876
0.075203 -0.023481 0.888777
0.076698 -0.023480 0.888699
0.078187 -0.023475 0.888546
0.079673 -0.023471 0.888360
0.081155 -0.023465 0.888143
0.082636 -0.023459 0.887924
0.084120 -0.023454 0.887749
0.085641 -0.023460 0.887952
0.087146 -0.023461 0.888000
0.088659 -0.023464 0.888111
0.090150 -0.023461 0.888014
0.091650 -0.023461 0.887995
0.093150 -0.023461 0.887987
0.094698 -0.023472 0.888424
0.096242 -0.023482 0.888812
0.097815 -0.023500 0.889461
0.099389 -0.023516 0.890087
0.100937 -0.023526 0.890464
0.102474 -0.023533 0.890739
0.104029 -0.023545 0.891166
0.105639 -0.023568 0.892038
0.107293 -0.023600 0.893252
0.109046 -0.023652 0.895243
0.110823 -0.023709 0.897381
0.112678 -0.023780 0.900078
0.114526 -0.023848 0.902651
0.116333 -0.023906 0.904839
0.118085 -0.023951 0.906547
0.119843 -0.023996 0.908256
0.121525 -0.024025 0.909351
0.123179 -0.024048 0.910213
0.124863 -0.024076 0.911269
0.126587 -0.024111 0.912597
0.128310 -0.024145 0.913879
0.130089 -0.024188 0.915525
0.131940 -0.024244 0.917638
0.133807 -0.024301 0.919805
0.136757 -0.026127 0.929285
0.136021 -0.024420 0.924286
-0.004373 -0.021685 0.877055
-0.002886 -0.021654 0.875799
-0.001403 -0.021626 0.874647
0.000075 -0.021590 0.873227
0.001548 -0.021543 0.871326
0.003015 -0.021501 0.869619
0.004477 -0.021463 0.868064
0.005934 -0.021424 0.866502
0.007387 -0.021389 0.865071
0.008841 -0.021369 0.864266
0.010292 -0.021347 0.863393
0.011739 -0.021326 0.862538
0.013190 -0.021313 0.862020
0.014640 -0.021303 0.861595
0.016086 -0.021289 0.861021
0.017531 -0.021276 0.860505
0.018977 -0.021266 0.860120
0.020421 -0.021256 0.859686
0.021864 -0.021246 0.859280
0.023312 -0.021241 0.859109
0.024764 -0.021241 0.859086
0.026208 -0.021235 0.858848
0.027668 -0.021241 0.859091
0.029141 -0.021255 0.859677
0.030620 -0.021273 0.860397
0.032098 -0.021289 0.861044
0.033586 -0.021310 0.861884
0.035064 -0.021322 0.862380
0.036540 -0.021333 0.862813
0.038022 -0.021346 0.863335
0.039513 -0.021363 0.864031
0.041003 -0.021379 0.864661
0.042487 -0.021390 0.865108
0.043987 -0.021408 0.865848
0.045551 -0.021455 0.867750
0.047351 -0.021607 0.873893
0.049189 -0.021767 0.880347
0.051074 -0.021937 0.887246
0.052918 -0.022081 0.893056
0.054671 -0.022179 0.897044
0.056154 -0.022166 0.896505
0.057626 -0.022149 0.895829
0.059078 -0.022126 0.894886
0.060532 -0.022105 0.894023
0.061993 -0.022086 0.893286
0.063452 -0.022069 0.892573
0.064915 -0.022053 0.891936
0.066385 -0.022041 0.891434
0.067850 -0.022027 0.890879
0.069315 -0.022014 0.890349
0.070792 -0.022005 0.889997
0.072281 -0.022000 0.889801
0.073769 -0.021995 0.889604
0.075279 -0.021997 0.889680
0.076792 -0.022000 0.889782
0.078299 -0.022001 0.889815
0.079788 -0.021996 0.889641
0.081272 -0.021991 0.889423
0.082756 -0.021986 0.889217
0.084236 -0.021980 0.888967
0.085748 -0.021982 0.889068
0.087261 -0.021985 0.889165
0.088764 -0.021984 0.889162
0.090248 -0.021980 0.888979
0.091748 -0.021979 0.888947
0.093241 -0.021977 0.888857
0.094782 -0.021986 0.889216
0.096328 -0.021995 0.889611
0.097904 -0.022012 0.890266
0.099481 -0.022028 0.890907
0.101048 -0.022041 0.891447
0.102626 -0.022056 0.892062
0.104227 -0.022076 0.892862
0.105899 -0.022110 0.894236
0.107619 -0.022153 0.895964
0.109428 -0.022212 0.898386
0.111243 -0.022272 0.900778
0.113097 -0.022337 0.903430
0.114889 -0.022389 0.905514
0.116636 -0.022430 0.907193
0.118312 -0.022457 0.908287
0.119988 -0.022484 0.909349
0.121613 -0.022500 0.910010
0.123270 -0.022521 0.910882
0.124943 -0.022546 0.911859
0.126671 -0.022579 0.913203
0.128407 -0.022613 0.914568
0.130188 -0.022653 0.916219
0.132017 -0.022702 0.918169
0.133868 -0.022752 0.920223
0.135662 -0.022792 0.921845
0.138285 -0.024544 0.928996
0.137479 -0.022835 0.923579
-0.004378 -0.020221 0.878046
-0.002889 -0.020191 0.876733
-0.001405 -0.020168 0.875718
0.000075 -0.020133 0.874198
0.001550 -0.020091 0.872391
0.003019 -0.020054 0.870791
0.004483 -0.020018 0.869243
0.005941 -0.019980 0.867589
0.007396 -0.019947 0.866122
0.008850 -0.019924 0.865136
0.010301 -0.019902 0.864169
0.011750 -0.019882 0.863306
0.013201 -0.019869 0.862773
0.014651 -0.019858 0.862261
0.016099 -0.019846 0.861748
0.017545 -0.019834 0.861218
0.018993 -0.019825 0.860851
0.020439 -0.019816 0.860437
0.021885 -0.019808 0.860120
0.023335 -0.019805 0.859954
0.024786 -0.019802 0.859864
0.026237 -0.019801 0.859784
0.027704 -0.019810 0.860196
0.029179 -0.019824 0.860807
0.030660 -0.019841 0.861531
0.032145 -0.019859 0.862306
0.033632 -0.019876 0.863062
0.035106 -0.019884 0.863411
0.036587 -0.019896 0.863911
0.038073 -0.019909 0.864504
0.039563 -0.019924 0.865119
0.041051 -0.019936 0.865665
0.042540 -0.019948 0.866176
0.044042 -0.019965 0.866926
0.045667 -0.020035 0.869964
0.047474 -0.020178 0.876174
0.049315 -0.020326 0.882602
0.051190 -0.020479 0.889253
0.053021 -0.020607 0.894782
0.054699 -0.020669 0.897503
0.056189 -0.020659 0.897064
0.057675 -0.020648 0.896592
0.059141 -0.020631 0.895845
0.060605 -0.020614 0.895099
0.062073 -0.020599 0.894444
0.063532 -0.020582 0.893701
0.064995 -0.020567 0.893041
0.066468 -0.020555 0.892541
0.067947 -0.020546 0.892154
0.069414 -0.020534 0.891629
0.070887 -0.020524 0.891188
0.072369 -0.020517 0.890887
0.073852 -0.020510 0.890606
0.075351 -0.020509 0.890532
0.076867 -0.020511 0.890650
0.078389 -0.020516 0.890844
0.079888 -0.020514 0.890763
0.081384 -0.020512 0.890652
0.082879 -0.020509 0.890541
0.084369 -0.020505 0.890371
0.085874 -0.020505 0.890373
0.087370 -0.020503 0.890280
0.088855 -0.020498 0.890076
0.090338 -0.020493 0.889861
0.091831 -0.020491 0.889752
0.093328 -0.020489 0.889680
0.094897 -0.020503 0.890291
0.096473 -0.020518 0.890947
0.098062 -0.020536 0.891700
0.099671 -0.020557 0.892612
0.101282 -0.020577 0.893512
0.102889 -0.020597 0.894345
0.104530 -0.020622 0.895459
0.106244 -0.020661 0.897147
0.107996 -0.020706 0.899102
0.109832 -0.020766 0.901703
0.111653 -0.020821 0.904099
0.113454 -0.020871 0.906275
0.115175 -0.020906 0.907769
0.116850 -0.020931 0.908861
0.118448 -0.020942 0.909332
0.120059 -0.020955 0.909892
0.121686 -0.020970 0.910552
0.123345 -0.020990 0.911441
0.125032 -0.021015 0.912508
0.126774 -0.021048 0.913942
0.128523 -0.021081 0.915395
0.130282 -0.021116 0.916885
0.132086 -0.021156 0.918648
0.133910 -0.021199 0.920512
0.135675 -0.021232 0.921932
0.137465 -0.021268 0.923488
0.139582 -0.022924 0.927181
0.139230 -0.021299 0.924840
0.141982 -0.023060 0.932649
0.141245 -0.021367 0.927803
-0.004419 -0.018908 0.886259
-0.002901 -0.018785 0.880486
-0.001406 -0.018696 0.876310
0.000075 -0.018667 0.874986
0.001552 -0.018633 0.873360
0.003023 -0.018602 0.871923
0.004490 -0.018571 0.870470
0.005949 -0.018534 0.868730
0.007405 -0.018501 0.867173
0.008859 -0.018476 0.866009
0.010309 -0.018452 0.864863
0.011757 -0.018430 0.863840
0.013209 -0.018418 0.863306
0.014659 -0.018406 0.862705
0.016108 -0.018395 0.862192
0.017554 -0.018383 0.861667
0.019003 -0.018376 0.861304
0.020453 -0.018370 0.861039
0.021903 -0.018365 0.860821
0.023356 -0.018364 0.860739
0.024810 -0.018363 0.860715
0.026272 -0.018368 0.860936
0.027742 -0.018377 0.861378
0.029220 -0.018391 0.862013
0.030703 -0.018406 0.862734
0.032189 -0.018422 0.863495
0.033669 -0.018433 0.864002
0.035144 -0.018441 0.864350
0.036627 -0.018451 0.864860
0.038115 -0.018464 0.865459
0.039607 -0.018477 0.866078
0.041096 -0.018489 0.866609
0.042590 -0.018501 0.867200
0.044098 -0.018519 0.868035
0.045727 -0.018585 0.871114
0.047536 -0.018717 0.877307
0.049379 -0.018855 0.883761
0.051235 -0.018989 0.890046
0.053059 -0.019104 0.895436
0.054738 -0.019162 0.898145
0.056235 -0.019154 0.897796
0.057734 -0.019148 0.897508
0.059215 -0.019136 0.896955
0.060688 -0.019122 0.896313
0.062163 -0.019110 0.895739
0.063625 -0.019095 0.895004
0.065090 -0.019080 0.894339
0.066571 -0.019072 0.893932
0.068061 -0.019066 0.893651
0.069539 -0.019057 0.893224
0.071012 -0.019047 0.892765
0.072495 -0.019040 0.892435
0.073971 -0.019032 0.892049
0.075466 -0.019028 0.891887
0.076978 -0.019029 0.891943
0.078511 -0.019035 0.892224
0.080012 -0.019034 0.892142
0.081518 -0.019033 0.892115
0.083016 -0.019031 0.892011
0.084502 -0.019026 0.891774
0.085993 -0.019022 0.891601
0.087479 -0.019018 0.891391
0.088948 -0.019009 0.891006
0.090433 -0.019005 0.890799
0.091938 -0.019005 0.890790
0.093455 -0.019007 0.890896
0.095046 -0.019024 0.891693
0.096653 -0.019043 0.892612
0.098277 -0.019066 0.893656
0.099923 -0.019092 0.894867
0.101571 -0.019117 0.896063
0.103216 -0.019141 0.897196
0.104889 -0.019170 0.898527
0.106613 -0.019207 0.900265
0.108366 -0.019248 0.902188
0.110146 -0.019292 0.904279
0.111886 -0.019329 0.905987
0.113613 -0.019362 0.907550
0.115267 -0.019382 0.908489
0.116887 -0.019396 0.909146
0.118485 -0.019406 0.909615
0.120119 -0.019422 0.910343
0.121749 -0.019436 0.911026
0.123433 -0.019459 0.912090
0.125123 -0.019482 0.913167
0.126865 -0.019513 0.914601
0.128604 -0.019542 0.915969
0.130349 -0.019571 0.917358
0.132126 -0.019605 0.918925
0.133933 -0.019642 0.920667
0.135683 -0.019670 0.921986
0.137463 -0.019702 0.923469
0.139229 -0.019731 0.924831
0.140917 -0.019748 0.925649
0.143574 -0.021481 0.932744
0.142876 -0.019803 0.928212
-0.005974 -0.019092 0.894875
-0.004458 -0.017560 0.894115
-0.002914 -0.017366 0.884256
-0.001406 -0.017216 0.876588
0.000075 -0.017195 0.875529
0.001553 -0.017166 0.874062
0.003026 -0.017139 0.872704
0.004494 -0.017111 0.871263
0.005955 -0.017079 0.869609
0.007411 -0.017046 0.867969
0.008867 -0.017023 0.866789
0.010317 -0.016999 0.865561
0.011765 -0.016977 0.864443
0.013218 -0.016965 0.863833
0.014668 -0.016954 0.863243
0.016118 -0.016944 0.862738
0.017567 -0.016935 0.862289
0.019019 -0.016929 0.862006
0.020472 -0.016926 0.861831
0.021925 -0.016923 0.861681
0.023379 -0.016921 0.861604
0.024836 -0.016921 0.861583
0.026304 -0.016928 0.861967
0.027775 -0.016937 0.862411
0.029258 -0.016952 0.863155
0.030746 -0.016967 0.863948
0.032237 -0.016984 0.864779
0.033713 -0.016991 0.865125
0.035190 -0.016997 0.865477
0.036674 -0.017007 0.865989
0.038162 -0.017018 0.866520
0.039652 -0.017029 0.867071
0.041143 -0.017039 0.867605
0.042643 -0.017052 0.868279
0.044146 -0.017066 0.868967
0.045823 -0.017144 0.872932
0.047632 -0.017265 0.879084
0.049480 -0.017392 0.885558
0.051328 -0.017512 0.891658
0.053151 -0.017616 0.896977
0.054779 -0.017652 0.898813
0.056276 -0.017645 0.898453
0.057776 -0.017639 0.898163
0.059264 -0.017630 0.897695
0.060744 -0.017619 0.897147
0.062222 -0.017609 0.896596
0.063698 -0.017598 0.896031
0.065172 -0.017586 0.895466
0.066658 -0.017579 0.895093
0.068158 -0.017576 0.894917
0.069639 -0.017568 0.894514
0.071115 -0.017559 0.894053
0.072597 -0.017552 0.893696
0.074080 -0.017545 0.893361
0.075576 -0.017542 0.893196
0.077090 -0.017543 0.893238
0.078625 -0.017548 0.893517
0.080127 -0.017546 0.893426
0.081635 -0.017546 0.893401
0.083137 -0.017544 0.893308
0.084631 -0.017541 0.893142
0.086124 -0.017537 0.892966
0.087614 -0.017533 0.892764
0.089085 -0.017526 0.892379
0.090581 -0.017523 0.892258
0.092100 -0.017525 0.892357
0.093640 -0.017531 0.892660
0.095256 -0.017551 0.893658
0.096897 -0.017575 0.894866
0.098549 -0.017600 0.896132
0.100233 -0.017629 0.897642
0.101911 -0.017657 0.899063
0.103574 -0.017681 0.900307
0.105253 -0.017708 0.901645
0.106955 -0.017737 0.903151
0.108644 -0.017764 0.904500
0.110354 -0.017793 0.905986
0.112035 -0.017817 0.907193
0.113696 -0.017837 0.908212
0.115316 -0.017850 0.908877
0.116936 -0.017863 0.909524
0.118546 -0.017873 0.910082
0.120183 -0.017888 0.910833
0.121841 -0.017905 0.911711
0.123527 -0.017926 0.912780
0.125218 -0.017948 0.913864
0.126949 -0.017974 0.915204
0.128676 -0.017999 0.916483
0.130394 -0.018023 0.917674
0.132127 -0.018047 0.918938
0.133903 -0.018077 0.920465
0.135637 -0.018101 0.921676
0.137418 -0.018130 0.923168
0.139187 -0.018158 0.924556
0.140917 -0.018179 0.925650
0.142615 -0.018196 0.926518
-0.001411 -0.015779 0.879347
0.000075 -0.015713 0.875681
0.001553 -0.015691 0.874424
0.003027 -0.015668 0.873160
0.004497 -0.015645 0.871868
0.005961 -0.015618 0.870380
0.007419 -0.015591 0.868832
0.008875 -0.015568 0.867579
0.010328 -0.015547 0.866411
0.011777 -0.015527 0.865276
0.013229 -0.015514 0.864588
0.014682 -0.015505 0.864084
0.016136 -0.015499 0.863743
0.017590 -0.015493 0.863398
0.019045 -0.015489 0.863192
0.020502 -0.015488 0.863096
0.021957 -0.015485 0.862949
0.023414 -0.015484 0.862886
0.024870 -0.015482 0.862782
0.026343 -0.015490 0.863251
0.027815 -0.015497 0.863635
0.029300 -0.015511 0.864385
0.030787 -0.015524 0.865104
0.032280 -0.015538 0.865931
0.033751 -0.015542 0.866114
0.035233 -0.015549 0.866535
0.036719 -0.015559 0.867051
0.038209 -0.015568 0.867597
0.039705 -0.015580 0.868222
0.041201 -0.015591 0.868834
0.042708 -0.015604 0.869607
0.044214 -0.015617 0.870306
0.045934 -0.015702 0.875046
0.047739 -0.015810 0.881051
0.049575 -0.015921 0.887262
0.051416 -0.016028 0.893183
0.053231 -0.016120 0.898327
0.054809 -0.016137 0.899306
0.056307 -0.016131 0.898948
0.057813 -0.016127 0.898729
0.059300 -0.016119 0.898250
0.060787 -0.016110 0.897782
0.062273 -0.016102 0.897326
0.063764 -0.016095 0.896954
0.065247 -0.016087 0.896498
0.066747 -0.016083 0.896292
0.068256 -0.016082 0.896211
0.069747 -0.016076 0.895900
0.071226 -0.016068 0.895451
0.072713 -0.016062 0.895118
0.074197 -0.016056 0.894776
0.075695 -0.016053 0.894602
0.077210 -0.016053 0.894632
0.078747 -0.016058 0.894904
0.080251 -0.016057 0.894808
0.081761 -0.016056 0.894780
0.083264 -0.016054 0.894674
0.084762 -0.016051 0.894518
0.086257 -0.016048 0.894346
0.087757 -0.016046 0.894223
0.089240 -0.016041 0.893935
0.090759 -0.016042 0.894010
0.092300 -0.016048 0.894301
0.093856 -0.016055 0.894717
0.095486 -0.016075 0.895819
0.097152 -0.016100 0.897221
0.098812 -0.016123 0.898526
0.100514 -0.016153 0.900164
0.102218 -0.016182 0.901766
0.103893 -0.016205 0.903073
0.105561 -0.016227 0.904287
0.107222 -0.016247 0.905403
0.108854 -0.016262 0.906247
0.110507 -0.016280 0.907244
0.112134 -0.016293 0.907998
0.113744 -0.016304 0.908594
0.115364 -0.016316 0.909254
0.116995 -0.016329 0.909988
0.118632 -0.016343 0.910742
0.120288 -0.016359 0.911627
0.121972 -0.016378 0.912696
0.123661 -0.016397 0.913773
0.125351 -0.016416 0.914836
0.127059 -0.016437 0.916000
0.128772 -0.016458 0.917169
0.130452 -0.016474 0.918080
0.132142 -0.016492 0.919042
0.133874 -0.016514 0.920264
0.135591 -0.016533 0.921359
0.137359 -0.016559 0.922774
0.139144 -0.016585 0.924271
0.140917 -0.016610 0.925651
0.142689 -0.016634 0.927000
0.145328 -0.018341 0.933882
0.145209 -0.016744 0.933120
0.148112 -0.018491 0.941545
0.147833 -0.016864 0.939775
0.150981 -0.018649 0.949579
0.150508 -0.016986 0.946607
0.000076 -0.014310 0.880673
0.001558 -0.014248 0.876870
0.003029 -0.014194 0.873507
0.004499 -0.014174 0.872311
0.005965 -0.014153 0.870992
0.007425 -0.014130 0.869609
0.008884 -0.014112 0.868456
0.010338 -0.014093 0.867292
0.011791 -0.014077 0.866311
0.013245 -0.014065 0.865604
0.014699 -0.014057 0.865105
0.016157 -0.014053 0.864853
0.017616 -0.014050 0.864679
0.019072 -0.014046 0.864429
0.020533 -0.014046 0.864415
0.021991 -0.014043 0.864262
0.023452 -0.014043 0.864263
0.024906 -0.014040 0.864026
0.026383 -0.014048 0.864572
0.027854 -0.014053 0.864868
0.029339 -0.014064 0.865528
0.030822 -0.014073 0.866082
0.032317 -0.014086 0.866909
0.033789 -0.014089 0.867090
0.035276 -0.014098 0.867594
0.036764 -0.014106 0.868111
0.038256 -0.014115 0.868647
0.039756 -0.014126 0.869351
0.041255 -0.014136 0.869968
0.042764 -0.014149 0.870746
0.044276 -0.014162 0.871540
0.045996 -0.014238 0.876231
0.047794 -0.014333 0.882081
0.049628 -0.014433 0.888215
0.051455 -0.014524 0.893858
0.053259 -0.014605 0.898813
0.054837 -0.014620 0.899768
0.056331 -0.014613 0.899329
0.057831 -0.014608 0.899021
0.059319 -0.014600 0.898530
0.060812 -0.014594 0.898144
0.062305 -0.014588 0.897786
0.063810 -0.014585 0.897605
0.065307 -0.014581 0.897329
0.066816 -0.014579 0.897214
0.068332 -0.014579 0.897201
0.069829 -0.014575 0.896955
0.071319 -0.014569 0.896616
0.072816 -0.014566 0.896386
0.074306 -0.014561 0.896085
0.075799 -0.014557 0.895830
0.077308 -0.014555 0.895769
0.078839 -0.014558 0.895953
0.080344 -0.014557 0.895851
0.081857 -0.014556 0.895829
0.083362 -0.014555 0.895732
0.084869 -0.014554 0.895649
0.086383 -0.014553 0.895644
0.087896 -0.014553 0.895636
0.089401 -0.014552 0.895543
0.090941 -0.014556 0.895804
0.092504 -0.014564 0.896270
0.094082 -0.014573 0.896869
0.095735 -0.014594 0.898153
0.097416 -0.014619 0.899661
0.099088 -0.014641 0.901033
0.100792 -0.014667 0.902654
0.102487 -0.014691 0.904144
0.104127 -0.014707 0.905114
0.105755 -0.014721 0.905950
0.107362 -0.014731 0.906588
0.108940 -0.014737 0.906960
0.110551 -0.014748 0.907598
0.112158 -0.014757 0.908187
0.113767 -0.014767 0.908779
0.115399 -0.014779 0.909534
0.117056 -0.014794 0.910457
0.118721 -0.014810 0.911431
0.120406 -0.014828 0.912519
0.122118 -0.014848 0.913789
0.123820 -0.014867 0.914945
0.125511 -0.014884 0.916000
