1711
0.038715 -0.023802 0.846584
0.040098 -0.023773 0.845572
0.041475 -0.023743 0.844490
0.042840 -0.023708 0.843261
0.044225 -0.023687 0.842498
0.045626 -0.023675 0.842061
0.047046 -0.023673 0.841993
0.048485 -0.023681 0.842270
0.049953 -0.023701 0.843010
0.051419 -0.023720 0.843686
0.052877 -0.023735 0.844195
0.054335 -0.023748 0.844677
0.055789 -0.023759 0.845066
0.057245 -0.023770 0.845470
0.058709 -0.023785 0.845975
0.060199 -0.023808 0.846811
0.061699 -0.023834 0.847743
0.063219 -0.023868 0.848922
0.064728 -0.023895 0.849882
0.066261 -0.023929 0.851118
0.067786 -0.023960 0.852205
0.069310 -0.023989 0.853227
0.070818 -0.024011 0.854017
0.072338 -0.024036 0.854922
0.073841 -0.024055 0.855596
0.075363 -0.024079 0.856445
0.076903 -0.024108 0.857473
0.078485 -0.024149 0.858932
0.080143 -0.024211 0.861141
0.081855 -0.024287 0.863841
0.083590 -0.024367 0.866686
0.085340 -0.024449 0.869592
0.087254 -0.024574 0.874037
0.089545 -0.024799 0.882054
0.097618 -0.025749 0.915823
0.100034 -0.025974 0.923835
0.101963 -0.026068 0.927178
0.103531 -0.026068 0.927178
0.105110 -0.026071 0.927284
0.106691 -0.026074 0.927395
0.108260 -0.026074 0.927412
0.109839 -0.026077 0.927500
0.111406 -0.026077 0.927498
0.112975 -0.026077 0.927500
0.114544 -0.026077 0.927507
0.116111 -0.026077 0.927500
0.117701 -0.026082 0.927676
0.119497 -0.026132 0.929450
0.121332 -0.026188 0.931470
0.123941 -0.026409 0.939310
0.126682 -0.026651 0.947941
0.131792 -0.028673 0.961844
0.129763 -0.026959 0.958867
0.132720 -0.027233 0.968617
0.135655 -0.027496 0.977965
-0.032710 -0.023290 0.881534
-0.031156 -0.023242 0.879724
-0.029595 -0.023185 0.877545
-0.028037 -0.023123 0.875202
-0.026494 -0.023068 0.873131
-0.024981 -0.023034 0.871824
-0.023466 -0.022994 0.870320
-0.021956 -0.022954 0.868803
-0.020451 -0.022912 0.867223
-0.018949 -0.022869 0.865586
-0.017454 -0.022827 0.864021
-0.015967 -0.022790 0.862605
-0.014485 -0.022754 0.861224
-0.013010 -0.022720 0.859949
-0.011543 -0.022693 0.858935
-0.010081 -0.022672 0.858150
-0.008625 -0.022657 0.857550
-0.007171 -0.022643 0.857050
-0.005720 -0.022635 0.856721
-0.004270 -0.022628 0.856455
-0.002821 -0.022618 0.856101
-0.001373 -0.022609 0.855756
0.000074 -0.022596 0.855254
0.001518 -0.022572 0.854351
0.002959 -0.022549 0.853471
0.004397 -0.022525 0.852584
0.005833 -0.022503 0.851737
0.007267 -0.022486 0.851092
0.008703 -0.022479 0.850837
0.010139 -0.022472 0.850580
0.011578 -0.022474 0.850637
0.013018 -0.022479 0.850815
0.014462 -0.022486 0.851108
0.015907 -0.022496 0.851473
0.017354 -0.022505 0.851822
0.018794 -0.022505 0.851833
0.020238 -0.022509 0.851979
0.021684 -0.022515 0.852202
0.023134 -0.022524 0.852542
0.024583 -0.022531 0.852815
0.026035 -0.022540 0.853144
0.027489 -0.022550 0.853523
0.028935 -0.022552 0.853609
0.030376 -0.022551 0.853548
0.031804 -0.022540 0.853150
0.033216 -0.022520 0.852377
0.034605 -0.022486 0.851104
0.035993 -0.022454 0.849890
0.037364 -0.022415 0.848410
0.038741 -0.022382 0.847163
0.040118 -0.022351 0.845992
0.041498 -0.022324 0.844972
0.042865 -0.022292 0.843747
0.044251 -0.022272 0.842981
0.045656 -0.022262 0.842614
0.047072 -0.022258 0.842464
0.048508 -0.022263 0.842666
0.049971 -0.022281 0.843323
0.051433 -0.022296 0.843912
0.052887 -0.022308 0.844352
0.054351 -0.022323 0.844912
0.055806 -0.022333 0.845317
0.057268 -0.022346 0.845808
0.058744 -0.022364 0.846475
0.060240 -0.022388 0.847395
0.061753 -0.022417 0.848490
0.063282 -0.022451 0.849768
0.064798 -0.022478 0.850806
0.066327 -0.022509 0.851972
0.067847 -0.022535 0.852967
0.069358 -0.022558 0.853817
0.070859 -0.022576 0.854514
0.072373 -0.022598 0.855335
0.073877 -0.022616 0.856002
0.075398 -0.022638 0.856846
0.076954 -0.022670 0.858045
0.078554 -0.022713 0.859682
0.080223 -0.022774 0.862001
0.081929 -0.022843 0.864624
0.083655 -0.022916 0.867361
0.085372 -0.022983 0.869918
0.087476 -0.023151 0.876265
0.098128 -0.024323 0.920609
0.100304 -0.024474 0.926332
0.102020 -0.024510 0.927693
0.103588 -0.024510 0.927693
0.105179 -0.024515 0.927892
0.106773 -0.024521 0.928113
0.108367 -0.024526 0.928323
0.109959 -0.024531 0.928516
0.111539 -0.024534 0.928605
0.113109 -0.024534 0.928605
0.114679 -0.024534 0.928605
0.116237 -0.024531 0.928507
0.117992 -0.024570 0.929968
0.119984 -0.024656 0.933233
0.122031 -0.024751 0.936839
0.124843 -0.024997 0.946146
0.127764 -0.025259 0.956038
0.130560 -0.025489 0.964752
0.133191 -0.025681 0.972048
-0.034359 -0.021897 0.885607
-0.032760 -0.021829 0.882871
-0.031200 -0.021782 0.880971
-0.029634 -0.021726 0.878711
-0.028068 -0.021663 0.876180
-0.026516 -0.021606 0.873863
-0.025006 -0.021578 0.872714
-0.023493 -0.021543 0.871307
-0.021985 -0.021509 0.869946
-0.020477 -0.021470 0.868358
-0.018973 -0.021429 0.866693
-0.017474 -0.021388 0.865034
-0.015984 -0.021350 0.863525
-0.014499 -0.021314 0.862055
-0.013021 -0.021281 0.860696
-0.011552 -0.021255 0.859668
-0.010090 -0.021236 0.858875
-0.008631 -0.021219 0.858203
-0.007176 -0.021205 0.857633
-0.005724 -0.021197 0.857303
-0.004272 -0.021188 0.856966
-0.002822 -0.021178 0.856545
-0.001374 -0.021169 0.856182
0.000074 -0.021156 0.855675
0.001519 -0.021134 0.854771
0.002961 -0.021113 0.853903
0.004400 -0.021093 0.853090
0.005837 -0.021074 0.852333
0.007273 -0.021060 0.851776
0.008711 -0.021056 0.851614
0.010149 -0.021052 0.851445
0.011590 -0.021054 0.851514
0.013032 -0.021058 0.851688
0.014478 -0.021067 0.852046
0.015926 -0.021077 0.852478
0.017376 -0.021088 0.852892
0.018819 -0.021090 0.852981
0.020265 -0.021094 0.853128
0.021711 -0.021097 0.853279
0.023158 -0.021102 0.853453
0.024609 -0.021108 0.853714
0.026064 -0.021118 0.854121
0.027524 -0.021130 0.854605
0.028975 -0.021134 0.854787
0.030420 -0.021135 0.854803
0.031850 -0.021125 0.854388
0.033264 -0.021106 0.853620
0.034653 -0.021072 0.852275
0.036036 -0.021039 0.850920
0.037405 -0.021000 0.849345
0.038776 -0.020965 0.847923
0.040142 -0.020930 0.846504
0.041519 -0.020902 0.845399
0.042890 -0.020874 0.844253
0.044277 -0.020855 0.843490
0.045684 -0.020846 0.843138
0.047101 -0.020843 0.842978
0.048540 -0.020849 0.843232
0.050000 -0.020863 0.843809
0.051463 -0.020878 0.844398
0.052917 -0.020888 0.844828
0.054381 -0.020902 0.845391
0.055838 -0.020913 0.845808
0.057308 -0.020927 0.846396
0.058791 -0.020946 0.847151
0.060300 -0.020972 0.848229
0.061820 -0.021002 0.849413
0.063345 -0.021031 0.850611
0.064856 -0.021055 0.851562
0.066379 -0.021081 0.852635
0.067887 -0.021102 0.853473
0.069387 -0.021119 0.854174
0.070887 -0.021136 0.854853
0.072401 -0.021156 0.855667
0.073905 -0.021173 0.856333
0.075435 -0.021196 0.857266
0.077013 -0.021231 0.858700
0.078630 -0.021276 0.860511
0.080317 -0.021338 0.863013
0.082026 -0.021403 0.865645
0.083737 -0.021466 0.868214
0.085421 -0.021521 0.870414
0.087721 -0.021726 0.878714
0.098643 -0.022881 0.925439
0.100592 -0.022969 0.928991
0.102120 -0.022960 0.928601
0.103690 -0.022960 0.928604
0.105283 -0.022965 0.928812
0.106899 -0.022975 0.929206
0.108506 -0.022982 0.929519
0.110113 -0.022990 0.929819
0.111719 -0.022997 0.930100
0.113314 -0.023001 0.930285
0.114899 -0.023004 0.930385
0.116576 -0.023024 0.931215
0.118498 -0.023092 0.933960
0.120670 -0.023206 0.938574
0.122886 -0.023325 0.943403
0.125628 -0.023540 0.952095
0.128301 -0.023737 0.960052
0.130755 -0.023889 0.966195
-0.032777 -0.020343 0.883318
-0.031219 -0.020301 0.881493
-0.029665 -0.020257 0.879618
-0.028104 -0.020204 0.877303
-0.026548 -0.020149 0.874896
-0.025034 -0.020121 0.873683
-0.023521 -0.020090 0.872354
-0.022012 -0.020059 0.871005
-0.020502 -0.020023 0.869422
-0.018995 -0.019983 0.867694
-0.017496 -0.019946 0.866098
-0.016002 -0.019909 0.864509
-0.014514 -0.019873 0.862941
-0.013035 -0.019841 0.861562
-0.011562 -0.019814 0.860364
-0.010095 -0.019790 0.859337
-0.008635 -0.019772 0.858558
-0.007178 -0.019759 0.857970
-0.005725 -0.019749 0.857563
-0.004274 -0.019744 0.857311
-0.002824 -0.019736 0.856972
-0.001374 -0.019728 0.856620
0.000074 -0.019718 0.856183
0.001519 -0.019697 0.855281
0.002962 -0.019677 0.854420
0.004403 -0.019659 0.853619
0.005842 -0.019645 0.853015
0.007280 -0.019634 0.852545
0.008721 -0.019634 0.852554
0.010162 -0.019634 0.852555
0.011606 -0.019638 0.852702
0.013049 -0.019639 0.852791
0.014495 -0.019646 0.853049
0.015943 -0.019653 0.853388
0.017392 -0.019661 0.853719
0.018838 -0.019663 0.853815
0.020285 -0.019667 0.853964
0.021732 -0.019670 0.854120
0.023181 -0.019674 0.854298
0.024634 -0.019681 0.854575
0.026096 -0.019694 0.855149
0.027563 -0.019709 0.855824
0.029020 -0.019716 0.856123
0.030469 -0.019717 0.856163
0.031899 -0.019707 0.855712
0.033312 -0.019687 0.854842
0.034699 -0.019654 0.853405
0.036081 -0.019621 0.851981
0.037450 -0.019584 0.850368
0.038818 -0.019549 0.848841
0.040181 -0.019513 0.847315
0.041555 -0.019486 0.846134
0.042932 -0.019462 0.845070
0.044322 -0.019445 0.844332
0.045734 -0.019438 0.844056
0.047148 -0.019433 0.843820
0.048584 -0.019437 0.843995
0.050035 -0.019446 0.844405
0.051494 -0.019458 0.844910
0.052944 -0.019466 0.845265
0.054410 -0.019479 0.845828
0.055867 -0.019489 0.846247
0.057338 -0.019502 0.846835
0.058828 -0.019522 0.847677
0.060344 -0.019549 0.848849
0.061866 -0.019576 0.850044
0.063391 -0.019604 0.851225
0.064907 -0.019627 0.852229
0.066423 -0.019649 0.853208
0.067920 -0.019665 0.853892
0.069413 -0.019679 0.854504
0.070914 -0.019694 0.855175
0.072416 -0.019710 0.855848
0.073922 -0.019726 0.856531
0.075459 -0.019749 0.857544
0.077066 -0.019789 0.859300
0.078695 -0.019834 0.861224
0.080402 -0.019896 0.863920
0.082113 -0.019957 0.866562
0.083823 -0.020015 0.869103
0.085465 -0.020056 0.870871
0.098979 -0.021385 0.928593
0.100711 -0.021420 0.930086
0.102240 -0.021411 0.929696
0.103813 -0.021411 0.929702
0.105418 -0.021418 0.930001
0.107058 -0.021431 0.930590
0.108692 -0.021443 0.931111
0.110326 -0.021455 0.931611
0.111948 -0.021464 0.932009
0.113615 -0.021481 0.932756
0.115278 -0.021497 0.933452
0.117081 -0.021538 0.935248
0.119135 -0.021624 0.938981
0.121466 -0.021758 0.944762
0.123793 -0.021887 0.950367
0.126338 -0.022050 0.957474
0.128735 -0.022185 0.963303
-0.033061 -0.019009 0.890976
-0.031348 -0.018885 0.885161
-0.029698 -0.018787 0.880589
-0.028136 -0.018738 0.878298
-0.026579 -0.018688 0.875943
-0.025059 -0.018658 0.874547
-0.023544 -0.018630 0.873225
-0.022037 -0.018603 0.871985
-0.020530 -0.018574 0.870580
-0.019024 -0.018540 0.869021
-0.017524 -0.018508 0.867511
-0.016028 -0.018474 0.865923
-0.014536 -0.018439 0.864269
-0.013054 -0.018409 0.862876
-0.011577 -0.018380 0.861494
-0.010107 -0.018355 0.860360
-0.008643 -0.018335 0.859408
-0.007184 -0.018319 0.858641
-0.005728 -0.018306 0.858045
-0.004276 -0.018299 0.857709
-0.002825 -0.018290 0.857305
-0.001375 -0.018283 0.856972
0.000074 -0.018277 0.856701
0.001521 -0.018260 0.855878
0.002965 -0.018243 0.855097
0.004407 -0.018228 0.854373
0.005847 -0.018217 0.853849
0.007287 -0.018207 0.853387
0.008731 -0.018209 0.853482
0.010174 -0.018211 0.853571
0.011620 -0.018214 0.853726
0.013064 -0.018216 0.853807
0.014510 -0.018219 0.853973
0.015959 -0.018225 0.854223
0.017408 -0.018230 0.854485
0.018857 -0.018234 0.854663
0.020305 -0.018237 0.854828
0.021757 -0.018243 0.855065
0.023207 -0.018246 0.855244
0.024665 -0.018255 0.855669
0.026132 -0.018270 0.856354
0.027611 -0.018290 0.857307
0.029077 -0.018301 0.857805
0.030528 -0.018302 0.857838
0.031958 -0.018290 0.857297
0.033369 -0.018269 0.856295
0.034748 -0.018233 0.854615
0.036128 -0.018200 0.853089
0.037502 -0.018167 0.851541
0.038868 -0.018133 0.849920
0.040231 -0.018100 0.848382
0.041611 -0.018076 0.847275
0.042990 -0.018054 0.846213
0.044382 -0.018038 0.845486
0.045797 -0.018033 0.845222
0.047208 -0.018026 0.844907
0.048642 -0.018027 0.844988
0.050085 -0.018033 0.845246
0.051536 -0.018041 0.845600
0.052987 -0.018048 0.845941
0.054448 -0.018058 0.846421
0.055900 -0.018065 0.846751
0.057376 -0.018079 0.847407
0.058878 -0.018100 0.848405
0.060392 -0.018124 0.849526
0.061916 -0.018150 0.850726
0.063441 -0.018175 0.851900
0.064951 -0.018194 0.852807
0.066456 -0.018212 0.853628
0.067953 -0.018226 0.854304
0.069440 -0.018237 0.854833
0.070941 -0.018252 0.855502
0.072444 -0.018266 0.856169
0.073945 -0.018279 0.856790
0.075476 -0.018299 0.857739
0.077121 -0.018346 0.859906
0.078776 -0.018393 0.862109
0.080512 -0.018457 0.865101
0.082241 -0.018517 0.867921
0.083959 -0.018572 0.870516
0.085554 -0.018599 0.871769
0.099331 -0.019882 0.931897
0.100861 -0.019873 0.931474
0.102392 -0.019864 0.931079
0.103978 -0.019866 0.931183
0.105588 -0.019873 0.931495
0.107243 -0.019888 0.932196
0.108892 -0.019901 0.932826
0.110555 -0.019917 0.933548
0.112228 -0.019934 0.934339
0.113963 -0.019961 0.935616
0.115701 -0.019988 0.936879
0.117610 -0.020043 0.939477
0.119772 -0.020140 0.944003
0.122194 -0.020277 0.950420
0.124561 -0.020401 0.956261
0.126904 -0.020519 0.961767
-0.029805 -0.017357 0.883767
-0.028171 -0.017271 0.879409
-0.026618 -0.017228 0.877198
-0.025089 -0.017196 0.875588
-0.023570 -0.017168 0.874178
-0.022061 -0.017144 0.872946
-0.020557 -0.017120 0.871731
-0.019054 -0.017095 0.870417
-0.017554 -0.017067 0.869005
-0.016056 -0.017036 0.867422
-0.014560 -0.017002 0.865690
-0.013074 -0.016972 0.864195
-0.011594 -0.016943 0.862717
-0.010122 -0.016921 0.861574
-0.008654 -0.016900 0.860520
-0.007192 -0.016883 0.859653
-0.005734 -0.016868 0.858878
-0.004279 -0.016858 0.858360
-0.002827 -0.016848 0.857866
-0.001376 -0.016840 0.857468
0.000074 -0.016835 0.857215
0.001522 -0.016821 0.856482
0.002967 -0.016807 0.855781
0.004410 -0.016793 0.855054
0.005853 -0.016784 0.854607
0.007294 -0.016776 0.854222
0.008739 -0.016779 0.854329
0.010185 -0.016780 0.854423
0.011630 -0.016782 0.854506
0.013075 -0.016782 0.854506
0.014521 -0.016784 0.854587
0.015970 -0.016788 0.854833
0.017421 -0.016794 0.855098
0.018872 -0.016799 0.855366
0.020324 -0.016804 0.855618
0.021781 -0.016811 0.856009
0.023235 -0.016817 0.856266
0.024699 -0.016828 0.856861
0.026176 -0.016847 0.857798
0.027665 -0.016870 0.858999
0.029138 -0.016882 0.859608
0.030592 -0.016883 0.859638
0.032024 -0.016872 0.859064
0.033433 -0.016850 0.857952
0.034809 -0.016813 0.856102
0.036187 -0.016782 0.854485
0.037564 -0.016751 0.852954
0.038929 -0.016718 0.851257
0.040292 -0.016687 0.849656
0.041677 -0.016666 0.848611
0.043062 -0.016647 0.847634
0.044457 -0.016633 0.846913
0.045874 -0.016628 0.846642
0.047282 -0.016619 0.846230
0.048704 -0.016616 0.846074
0.050139 -0.016618 0.846155
0.051586 -0.016623 0.846417
0.053033 -0.016628 0.846682
0.054490 -0.016636 0.847084
0.055943 -0.016642 0.847403
0.057419 -0.016655 0.848044
0.058922 -0.016675 0.849036
0.060433 -0.016695 0.850095
0.061963 -0.016721 0.851381
0.063490 -0.016744 0.852556
0.065001 -0.016762 0.853465
0.066502 -0.016776 0.854214
0.068000 -0.016790 0.854895
0.069481 -0.016798 0.855338
0.070981 -0.016811 0.855993
0.072471 -0.016821 0.856499
0.073966 -0.016832 0.857036
0.075484 -0.016847 0.857820
0.077179 -0.016901 0.860549
0.078885 -0.016955 0.863300
0.080677 -0.017025 0.866873
0.082444 -0.017088 0.870059
0.084193 -0.017144 0.872939
0.085955 -0.017201 0.875861
0.096988 -0.018158 0.924573
0.099475 -0.018328 0.933242
0.101016 -0.018322 0.932902
0.102560 -0.018316 0.932599
0.104158 -0.018320 0.932791
0.105782 -0.018328 0.933206
0.107464 -0.018346 0.934120
0.109141 -0.018362 0.934958
0.110843 -0.018382 0.935981
0.112569 -0.018406 0.937176
0.114363 -0.018439 0.938901
0.116153 -0.018472 0.940537
0.118131 -0.018532 0.943636
0.120341 -0.018628 0.948485
0.122580 -0.018725 0.953430
0.124742 -0.018808 0.957652
-0.029994 -0.015959 0.889369
-0.028274 -0.015838 0.882625
-0.026651 -0.015761 0.878313
-0.025119 -0.015731 0.876661
-0.023598 -0.015705 0.875223
-0.022086 -0.015682 0.873908
-0.020582 -0.015662 0.872783
-0.019081 -0.015641 0.871647
-0.017583 -0.015619 0.870410
-0.016082 -0.015591 0.868845
-0.014585 -0.015561 0.867175
-0.013097 -0.015534 0.865660
-0.011612 -0.015506 0.864094
-0.010137 -0.015484 0.862881
-0.008668 -0.015465 0.861844
-0.007202 -0.015447 0.860821
-0.005741 -0.015429 0.859857
-0.004283 -0.015417 0.859134
-0.002829 -0.015406 0.858532
-0.001377 -0.015397 0.858052
0.000074 -0.015394 0.857885
0.001523 -0.015381 0.857163
0.002970 -0.015369 0.856465
0.004413 -0.015354 0.855667
0.005856 -0.015345 0.855140
0.007298 -0.015337 0.854677
0.008744 -0.015338 0.854771
0.010190 -0.015340 0.854860
0.011636 -0.015341 0.854941
0.013083 -0.015343 0.855016
0.014531 -0.015345 0.855173
0.015983 -0.015351 0.855502
0.017436 -0.015358 0.855851
0.018892 -0.015365 0.856284
0.020348 -0.015371 0.856626
0.021807 -0.015379 0.857037
0.023263 -0.015384 0.857299
0.024729 -0.015394 0.857890
0.026208 -0.015411 0.858831
0.027697 -0.015432 0.859987
0.029176 -0.015445 0.860734
0.030636 -0.015447 0.860852
0.032075 -0.015440 0.860429
0.033484 -0.015418 0.859241
0.034870 -0.015389 0.857609
0.036255 -0.015362 0.856079
0.037639 -0.015336 0.854636
0.039007 -0.015306 0.852961
0.040380 -0.015280 0.851510
0.041764 -0.015260 0.850386
0.043152 -0.015242 0.849402
0.044550 -0.015229 0.848679
0.045965 -0.015223 0.848323
0.047371 -0.015213 0.847816
0.048784 -0.015207 0.847466
0.050207 -0.015204 0.847299
0.051645 -0.015206 0.847385
0.053089 -0.015209 0.847568
0.054543 -0.015215 0.847900
0.055998 -0.015221 0.848230
0.057475 -0.015232 0.848861
0.058979 -0.015250 0.849860
0.060491 -0.015269 0.850915
0.062018 -0.015291 0.852128
0.063545 -0.015312 0.853296
0.065063 -0.015330 0.854291
0.066568 -0.015344 0.855062
0.068062 -0.015355 0.855680
0.069544 -0.015362 0.856112
0.071032 -0.015371 0.856599
0.072501 -0.015375 0.856846
0.073980 -0.015382 0.857202
0.075482 -0.015393 0.857798
0.077234 -0.015453 0.861167
0.079008 -0.015516 0.864656
0.080863 -0.015591 0.868875
0.082680 -0.015657 0.872546
0.084469 -0.015716 0.875808
0.086399 -0.015798 0.880379
0.097355 -0.016654 0.928069
0.099618 -0.016770 0.934584
0.101173 -0.016766 0.934353
0.102739 -0.016764 0.934234
0.104352 -0.016770 0.934530
0.105991 -0.016779 0.935054
0.107689 -0.016797 0.936073
0.109392 -0.016816 0.937106
0.111122 -0.016838 0.938337
0.112880 -0.016863 0.939764
0.114719 -0.016900 0.941820
0.116554 -0.016935 0.943783
0.118550 -0.016993 0.946984
0.120587 -0.017055 0.950424
0.122640 -0.017117 0.953894
-0.028449 -0.014431 0.888090
-0.026750 -0.014325 0.881555
-0.025148 -0.014261 0.877674
-0.023625 -0.014238 0.876205
-0.022108 -0.014215 0.874803
-0.020605 -0.014198 0.873754
-0.019104 -0.014181 0.872706
-0.017606 -0.014162 0.871570
-0.016104 -0.014137 0.870003
-0.014605 -0.014109 0.868321
-0.013113 -0.014085 0.866785
-0.011627 -0.014059 0.865219
-0.010150 -0.014040 0.864029
-0.008680 -0.014025 0.863102
-0.007213 -0.014008 0.862079
-0.005748 -0.013991 0.861022
-0.004289 -0.013977 0.860188
-0.002832 -0.013966 0.859483
-0.001378 -0.013958 0.858979
0.000074 -0.013956 0.858897
0.001525 -0.013945 0.858170
0.002973 -0.013933 0.857469
0.004418 -0.013920 0.856658
0.005862 -0.013910 0.856042
0.007305 -0.013901 0.855493
0.008752 -0.013902 0.855577
0.010199 -0.013904 0.855657
0.011647 -0.013905 0.855732
0.013095 -0.013906 0.855814
0.014543 -0.013908 0.855903
0.015996 -0.013913 0.856239
0.017451 -0.013919 0.856595
0.018909 -0.013926 0.857043
0.020366 -0.013932 0.857400
0.021830 -0.013941 0.857971
0.023290 -0.013947 0.858320
0.024759 -0.013957 0.858925
0.026239 -0.013972 0.859856
0.027729 -0.013990 0.860988
0.029208 -0.014001 0.861662
0.030671 -0.014004 0.861859
0.032120 -0.014001 0.861623
0.033538 -0.013985 0.860635
0.034937 -0.013962 0.859261
0.036338 -0.013943 0.858051
0.037729 -0.013921 0.856700
0.039101 -0.013893 0.855029
0.040480 -0.013871 0.853634
0.041864 -0.013851 0.852417
0.043247 -0.013832 0.851272
0.044644 -0.013819 0.850471
0.046062 -0.013814 0.850110
0.047461 -0.013803 0.849434
0.048867 -0.013794 0.848907
0.050281 -0.013788 0.848548
0.051710 -0.013787 0.848455
0.053146 -0.013787 0.848489
0.054598 -0.013791 0.848753
0.056055 -0.013797 0.849087
0.057534 -0.013807 0.849731
0.059039 -0.013824 0.850728
0.060552 -0.013841 0.851777
0.062080 -0.013860 0.852984
0.063614 -0.013880 0.854227
0.065147 -0.013899 0.855390
0.066655 -0.013912 0.856179
0.068152 -0.013922 0.856811
0.069629 -0.013928 0.857155
0.071096 -0.013932 0.857374
0.072532 -0.013929 0.857214
0.073981 -0.013929 0.857215
0.075548 -0.013951 0.858555
0.077368 -0.014017 0.862660
0.079218 -0.014087 0.866945
0.081144 -0.014167 0.871890
0.083020 -0.014236 0.876135
0.084753 -0.014279 0.878753
0.086855 -0.014381 0.885033
0.097694 -0.015133 0.931304
0.099726 -0.015203 0.935603
0.101286 -0.015199 0.935400
0.102868 -0.015200 0.935401
0.104504 -0.015207 0.935892
0.106167 -0.015219 0.936609
0.107881 -0.015237 0.937737
0.109610 -0.015257 0.938969
0.111366 -0.015281 0.940400
0.113153 -0.015307 0.942041
0.115008 -0.015342 0.944190
0.116842 -0.015374 0.946122
0.118737 -0.015412 0.948481
-0.026839 -0.012873 0.884492
-0.025172 -0.012786 0.878500
-0.023645 -0.012763 0.876954
-0.022126 -0.012742 0.875528
-0.020623 -0.012728 0.874551
-0.019126 -0.012715 0.873665
-0.017627 -0.012700 0.872620
-0.016126 -0.012680 0.871221
-0.014626 -0.012656 0.869612
-0.013133 -0.012634 0.868060
-0.011645 -0.012612 0.866578
-0.010167 -0.012596 0.865472
-0.008696 -0.012584 0.864630
-0.007226 -0.012569 0.863617
-0.005758 -0.012553 0.862486
-0.004295 -0.012539 0.861556
-0.002836 -0.012528 0.860765
-0.001380 -0.012518 0.860118
0.000074 -0.012516 0.859956
0.001527 -0.012506 0.859298
0.002977 -0.012496 0.858582
0.004424 -0.012484 0.857756
0.005870 -0.012475 0.857132
0.007313 -0.012465 0.856492
0.008760 -0.012464 0.856411
0.010207 -0.012463 0.856327
0.011655 -0.012463 0.856321
0.013104 -0.012464 0.856410
0.014555 -0.012467 0.856589
0.016012 -0.012474 0.857092
0.017472 -0.012482 0.857606
0.018933 -0.012489 0.858131
0.020394 -0.012496 0.858570
0.021861 -0.012504 0.859155
0.023321 -0.012508 0.859432
0.024790 -0.012517 0.860017
0.026268 -0.012528 0.860784
0.027754 -0.012542 0.861736
0.029235 -0.012552 0.862470
0.030707 -0.012558 0.862843
0.032164 -0.012558 0.862824
0.033599 -0.012548 0.862203
0.035012 -0.012532 0.861106
0.036424 -0.012517 0.860070
0.037818 -0.012498 0.858723
0.039190 -0.012472 0.856962
0.040567 -0.012450 0.855461
0.041952 -0.012432 0.854215
0.043330 -0.012413 0.852903
0.044729 -0.012401 0.852092
0.046146 -0.012395 0.851655
0.047547 -0.012385 0.850972
0.048947 -0.012375 0.850295
0.050357 -0.012369 0.849839
0.051778 -0.012365 0.849574
0.053214 -0.012365 0.849575
0.054663 -0.012367 0.849768
0.056128 -0.012374 0.850193
0.057615 -0.012384 0.850926
0.059122 -0.012399 0.851923
0.060632 -0.012413 0.852898
0.062161 -0.012431 0.854096
0.063698 -0.012449 0.855342
0.065233 -0.012466 0.856518
0.066750 -0.012479 0.857407
0.068256 -0.012489 0.858113
0.069721 -0.012492 0.858293
0.071168 -0.012491 0.858241
0.072575 -0.012483 0.857722
0.074096 -0.012495 0.858543
0.075741 -0.012527 0.860740
0.077630 -0.012598 0.865588
0.079564 -0.012673 0.870737
0.081550 -0.012753 0.876254
0.083372 -0.012805 0.879848
0.085222 -0.012860 0.883609
0.087506 -0.012977 0.891662
0.095485 -0.013465 0.925153
0.097950 -0.013590 0.933744
0.099758 -0.013621 0.935895
0.101340 -0.013621 0.935901
0.102947 -0.013624 0.936118
0.104596 -0.013633 0.936718
0.106283 -0.013646 0.937632
0.107999 -0.013663 0.938767
0.109744 -0.013683 0.940117
0.111525 -0.013706 0.941741
0.113349 -0.013734 0.943673
0.115162 -0.013760 0.945453
0.116931 -0.013780 0.946840
-0.025253 -0.011333 0.881319
-0.023668 -0.011288 0.877817
-0.022149 -0.011270 0.876408
-0.020646 -0.011258 0.875506
-0.019148 -0.011248 0.874708
-0.017647 -0.011233 0.873592
-0.016146 -0.011216 0.872272
-0.014645 -0.011197 0.870746
-0.013150 -0.011177 0.869213
-0.011662 -0.011159 0.867805
-0.010183 -0.011146 0.866767
-0.008709 -0.011135 0.865925
-0.007236 -0.011122 0.864910
-0.005767 -0.011107 0.863770
-0.004302 -0.011095 0.862856
-0.002841 -0.011085 0.862072
-0.001382 -0.011077 0.861431
0.000074 -0.011075 0.861270
0.001529 -0.011065 0.860537
0.002981 -0.011056 0.859808
0.004430 -0.011045 0.858977
0.005878 -0.011037 0.858354
0.007324 -0.011029 0.857714
0.008773 -0.011028 0.857623
0.010222 -0.011027 0.857522
0.011671 -0.011027 0.857511
0.013122 -0.011028 0.857603
0.014575 -0.011030 0.857794
0.016035 -0.011037 0.858297
0.017495 -0.011042 0.858736
0.018956 -0.011048 0.859185
0.020417 -0.011053 0.859543
0.021883 -0.011059 0.860040
0.023346 -0.011064 0.860384
0.024816 -0.011070 0.860898
0.026294 -0.011080 0.861654
0.027779 -0.011091 0.862511
0.029261 -0.011100 0.863233
0.030737 -0.011106 0.863691
0.032206 -0.011109 0.863941
0.033651 -0.011104 0.863535
0.035080 -0.011094 0.862778
0.036502 -0.011083 0.861913
0.037899 -0.011066 0.860550
0.039272 -0.011043 0.858768
0.040652 -0.011023 0.857242
0.042032 -0.011005 0.855829
0.043410 -0.010988 0.854491
0.044807 -0.010976 0.853586
0.046222 -0.010970 0.853066
0.047623 -0.010960 0.852322
0.049021 -0.010950 0.851575
0.050424 -0.010943 0.850968
0.051841 -0.010938 0.850609
0.053273 -0.010937 0.850520
0.054723 -0.010939 0.850703
0.056194 -0.010945 0.851204
0.057689 -0.010956 0.852031
0.059200 -0.010969 0.853044
0.060716 -0.010983 0.854090
0.062247 -0.010998 0.855282
0.063787 -0.011014 0.856544
0.065331 -0.011030 0.857811
0.066864 -0.011044 0.858865
0.068379 -0.011054 0.859656
0.069833 -0.011054 0.859669
0.071260 -0.011050 0.859358
0.072638 -0.011039 0.858464
0.074238 -0.011061 0.860194
0.075968 -0.011101 0.863329
0.077929 -0.011173 0.868913
0.079937 -0.011249 0.874821
0.081941 -0.011322 0.880456
0.083848 -0.011378 0.884872
0.085824 -0.011443 0.889857
0.088298 -0.011570 0.899738
0.093499 -0.011843 0.921004
0.095923 -0.011951 0.929405
-0.023796 -0.009852 0.882548
-0.022224 -0.009817 0.879395
-0.020673 -0.009787 0.876647
-0.019172 -0.009777 0.875773
-0.017668 -0.009764 0.874646
-0.016168 -0.009751 0.873490
-0.014668 -0.009736 0.872068
-0.013173 -0.009720 0.870715
-0.011683 -0.009706 0.869394
-0.010201 -0.009694 0.868346
-0.008724 -0.009683 0.867391
-0.007248 -0.009671 0.866287
-0.005775 -0.009657 0.865072
-0.004309 -0.009648 0.864236
-0.002845 -0.009639 0.863452
-0.001384 -0.009632 0.862823
0.000074 -0.009630 0.862656
0.001531 -0.009622 0.861906
0.002986 -0.009613 0.861106
0.004437 -0.009604 0.860291
0.005887 -0.009597 0.859683
0.007335 -0.009590 0.859050
0.008787 -0.009589 0.858955
0.010237 -0.009588 0.858838
0.011689 -0.009588 0.858822
0.013142 -0.009589 0.858913
0.014598 -0.009591 0.859111
0.016058 -0.009596 0.859538
0.017518 -0.009600 0.859889
0.018980 -0.009603 0.860244
0.020440 -0.009606 0.860511
0.021906 -0.009611 0.860920
0.023370 -0.009615 0.861257
0.024838 -0.009620 0.861689
0.026316 -0.009627 0.862373
0.027799 -0.009636 0.863156
0.029282 -0.009644 0.863864
0.030762 -0.009650 0.864401
0.032239 -0.009655 0.864829
0.033692 -0.009652 0.864596
0.035130 -0.009645 0.864002
0.036556 -0.009636 0.863198
0.037955 -0.009621 0.861823
0.039330 -0.009601 0.860031
0.040711 -0.009584 0.858504
0.042090 -0.009567 0.857013
0.043466 -0.009552 0.855591
0.044860 -0.009540 0.854596
0.046272 -0.009534 0.853978
0.047674 -0.009525 0.853232
0.049078 -0.009518 0.852566
0.050484 -0.009511 0.851977
0.051902 -0.009507 0.851607
0.053340 -0.009507 0.851582
0.054791 -0.009509 0.851763
0.056271 -0.009516 0.852365
0.057780 -0.009527 0.853364
0.059303 -0.009540 0.854534
0.060828 -0.009552 0.855666
0.062368 -0.009567 0.856941
0.063911 -0.009581 0.858213
0.065460 -0.009595 0.859495
0.066995 -0.009607 0.860554
0.068521 -0.009617 0.861439
0.069991 -0.009619 0.861617
0.071455 -0.009620 0.861699
0.072889 -0.009617 0.861429
0.074575 -0.009647 0.864101
0.076392 -0.009692 0.868149
0.078372 -0.009755 0.873851
0.080340 -0.009815 0.879227
0.082269 -0.009869 0.883985
0.084263 -0.009927 0.889256
0.086359 -0.009996 0.895396
0.088827 -0.010105 0.905128
0.091371 -0.010218 0.915279
0.093913 -0.010327 0.925081
0.096069 -0.010391 0.930810
-0.023880 -0.008386 0.885656
-0.022257 -0.008339 0.880690
-0.020707 -0.008314 0.878085
-0.019205 -0.008307 0.877291
-0.017700 -0.008297 0.876232
-0.016202 -0.008288 0.875309
-0.014700 -0.008275 0.873981
-0.013202 -0.008263 0.872668
-0.011711 -0.008251 0.871430
-0.010225 -0.008241 0.870361
-0.008741 -0.008230 0.869148
-0.007262 -0.008218 0.867941
-0.005786 -0.008206 0.866624
-0.004316 -0.008197 0.865701
-0.002850 -0.008189 0.864840
-0.001387 -0.008183 0.864191
0.000074 -0.008180 0.863940
0.001534 -0.008174 0.863267
0.002991 -0.008167 0.862549
0.004445 -0.008160 0.861816
0.005898 -0.008155 0.861305
0.007349 -0.008149 0.860680
0.008802 -0.008148 0.860507
0.010255 -0.008146 0.860316
0.011708 -0.008145 0.860212
0.013162 -0.008145 0.860234
0.014619 -0.008146 0.860346
0.016081 -0.008150 0.860757
0.017543 -0.008153 0.861091
0.019004 -0.008156 0.861350
0.020465 -0.008157 0.861528
0.021931 -0.008161 0.861921
0.023395 -0.008164 0.862179
0.024863 -0.008167 0.862538
0.026340 -0.008173 0.863156
0.027819 -0.008179 0.863777
0.029301 -0.008185 0.864404
0.030778 -0.008189 0.864854
0.032256 -0.008193 0.865275
0.033716 -0.008192 0.865196
0.035161 -0.008188 0.864760
0.036588 -0.008180 0.863954
0.037992 -0.008168 0.862653
0.039371 -0.008152 0.860925
0.040751 -0.008137 0.859348
0.042128 -0.008122 0.857796
0.043506 -0.008109 0.856370
0.044900 -0.008099 0.855344
0.046304 -0.008092 0.854569
0.047706 -0.008084 0.853808
0.049115 -0.008079 0.853217
0.050527 -0.008074 0.852706
0.051952 -0.008071 0.852426
0.053397 -0.008072 0.852493
0.054855 -0.008074 0.852761
0.056348 -0.008082 0.853532
0.057870 -0.008093 0.854706
0.059400 -0.008104 0.855918
0.060938 -0.008117 0.857212
0.062487 -0.008129 0.858572
0.064033 -0.008142 0.859850
0.065579 -0.008153 0.861057
0.067123 -0.008164 0.862195
0.068659 -0.008173 0.863175
0.070154 -0.008177 0.863624
0.071660 -0.008183 0.864181
0.073167 -0.008188 0.864721
0.074941 -0.008222 0.868331
0.076833 -0.008268 0.873160
0.078785 -0.008318 0.878465
0.080696 -0.008362 0.883126
0.082541 -0.008398 0.886904
0.084607 -0.008454 0.892883
0.086802 -0.008522 0.899995
0.089291 -0.008615 0.909849
0.091784 -0.008706 0.919416
0.094248 -0.008790 0.928374
-0.022332 -0.006869 0.883667
-0.020736 -0.006835 0.879310
-0.019239 -0.006832 0.878848
-0.017737 -0.006825 0.878035
-0.016239 -0.006819 0.877286
-0.014736 -0.006811 0.876136
-0.013235 -0.006800 0.874826
-0.011738 -0.006790 0.873499
-0.010247 -0.006780 0.872254
-0.008758 -0.006769 0.870854
-0.007275 -0.006759 0.869540
-0.005796 -0.006748 0.868130
-0.004323 -0.006740 0.867114
-0.002854 -0.006734 0.866233
-0.001389 -0.006728 0.865492
0.000074 -0.006725 0.865075
0.001536 -0.006719 0.864387
0.002994 -0.006714 0.863672
0.004451 -0.006708 0.862957
0.005907 -0.006705 0.862518
0.007360 -0.006700 0.861966
0.008816 -0.006699 0.861793
0.010270 -0.006698 0.861604
0.011725 -0.006697 0.861502
0.013182 -0.006697 0.861513
0.014639 -0.006697 0.861538
0.016101 -0.006700 0.861859
0.017563 -0.006701 0.862101
0.019025 -0.006703 0.862275
0.020484 -0.006704 0.862371
0.021951 -0.006706 0.862691
0.023414 -0.006707 0.862870
0.024881 -0.006710 0.863146
0.026353 -0.006713 0.863589
0.027828 -0.006716 0.864038
0.029306 -0.006721 0.864568
0.030781 -0.006723 0.864925
0.032256 -0.006726 0.865266
0.033718 -0.006726 0.865267
0.035167 -0.006723 0.864923
0.036596 -0.006717 0.864132
0.038003 -0.006708 0.862909
0.039390 -0.006696 0.861347
0.040776 -0.006684 0.859861
0.042158 -0.006673 0.858398
0.043541 -0.006662 0.857053
0.044935 -0.006654 0.856015
0.046335 -0.006647 0.855146
0.047737 -0.006641 0.854372
0.049148 -0.006637 0.853789
0.050566 -0.006634 0.853366
0.051998 -0.006632 0.853190
0.053465 -0.006635 0.853575
0.054942 -0.006639 0.854104
0.056449 -0.006647 0.855065
0.057981 -0.006657 0.856345
0.059524 -0.006667 0.857715
0.061056 -0.006676 0.858869
0.062603 -0.006686 0.860165
0.064146 -0.006696 0.861365
0.065694 -0.006705 0.862571
0.067240 -0.006714 0.863699
0.068790 -0.006723 0.864833
0.070312 -0.006728 0.865571
0.071870 -0.006737 0.866704
0.073458 -0.006749 0.868158
0.075314 -0.006783 0.872656
0.077182 -0.006818 0.877123
0.079074 -0.006854 0.881683
0.080913 -0.006883 0.885499
0.082801 -0.006916 0.889701
0.084944 -0.006968 0.896443
0.087328 -0.007038 0.905449
0.089797 -0.007113 0.915008
0.092243 -0.007183 0.924011
0.094494 -0.007235 0.930798
-0.022442 -0.005397 0.887999
-0.020824 -0.005368 0.883073
-0.019322 -0.005365 0.882632
-0.017783 -0.005351 0.880328
-0.016280 -0.005346 0.879502
-0.014779 -0.005341 0.878672
-0.013272 -0.005332 0.877265
-0.011769 -0.005323 0.875748
-0.010272 -0.005315 0.874373
-0.008777 -0.005305 0.872707
-0.007289 -0.005295 0.871220
-0.005807 -0.005287 0.869800
-0.004331 -0.005280 0.868698
-0.002859 -0.005274 0.867721
-0.001391 -0.005270 0.866958
0.000075 -0.005266 0.866443
0.001538 -0.005262 0.865683
0.002999 -0.005257 0.864888
0.004457 -0.005252 0.864087
0.005914 -0.005249 0.863636
0.007370 -0.005246 0.863153
0.008828 -0.005245 0.862988
0.010285 -0.005245 0.862873
0.011743 -0.005244 0.862766
0.013200 -0.005244 0.862686
0.014656 -0.005243 0.862544
0.016117 -0.005244 0.862709
0.017577 -0.005244 0.862787
0.019038 -0.005245 0.862890
0.020497 -0.005245 0.862910
0.021962 -0.005246 0.863160
0.023426 -0.005248 0.863327
0.024891 -0.005249 0.863506
0.026361 -0.005251 0.863841
0.027832 -0.005253 0.864181
0.029305 -0.005255 0.864524
0.030773 -0.005256 0.864710
0.032244 -0.005257 0.864968
0.033707 -0.005258 0.864975
0.035157 -0.005256 0.864663
0.036589 -0.005251 0.863984
0.038007 -0.005246 0.863005
0.039409 -0.005238 0.861760
0.040804 -0.005230 0.860447
0.042192 -0.005222 0.859090
0.043579 -0.005214 0.857807
0.044970 -0.005207 0.856681
0.046370 -0.005202 0.855803
0.047779 -0.005198 0.855125
0.049197 -0.005195 0.854633
0.050622 -0.005193 0.854303
0.052074 -0.005193 0.854431
0.053549 -0.005196 0.854927
0.055037 -0.005200 0.855585
0.056559 -0.005207 0.856721
0.058099 -0.005216 0.858087
0.059639 -0.005223 0.859376
0.061168 -0.005230 0.860437
0.062710 -0.005237 0.861641
0.064256 -0.005245 0.862844
0.065806 -0.005252 0.864044
0.067355 -0.005259 0.865180
0.068920 -0.005267 0.866464
0.070480 -0.005274 0.867630
0.072086 -0.005284 0.869311
0.073749 -0.005298 0.871600
0.075567 -0.005322 0.875592
0.077384 -0.005345 0.879414
0.079205 -0.005368 0.883145
0.080955 -0.005385 0.885955
0.082889 -0.005414 0.890646
0.085199 -0.005465 0.899134
0.087576 -0.005519 0.908018
0.090001 -0.005574 0.917085
0.092395 -0.005626 0.925540
-0.024201 -0.005456 0.897574
-0.022578 -0.003916 0.893403
-0.020873 -0.003880 0.885149
-0.019367 -0.003878 0.884674
-0.017827 -0.003868 0.882511
-0.016326 -0.003866 0.882002
-0.014825 -0.003863 0.881397
-0.013313 -0.003857 0.879950
-0.011802 -0.003849 0.878224
-0.010298 -0.003842 0.876565
-0.008797 -0.003834 0.874709
-0.007304 -0.003827 0.873039
-0.005819 -0.003820 0.871540
-0.004339 -0.003815 0.870369
-0.002864 -0.003810 0.869308
-0.001393 -0.003806 0.868376
0.000075 -0.003803 0.867682
0.001540 -0.003799 0.866821
0.003002 -0.003795 0.865936
0.004462 -0.003792 0.865047
0.005921 -0.003790 0.864587
0.007378 -0.003787 0.864100
0.008838 -0.003787 0.863940
0.010297 -0.003786 0.863844
0.011756 -0.003786 0.863738
0.013215 -0.003785 0.863647
0.014672 -0.003785 0.863488
0.016133 -0.003785 0.863564
0.017593 -0.003785 0.863561
0.019053 -0.003785 0.863578
0.020513 -0.003785 0.863590
0.021980 -0.003786 0.863833
0.023440 -0.003786 0.863847
0.024903 -0.003787 0.863932
0.026368 -0.003787 0.864083
0.027832 -0.003788 0.864159
0.029296 -0.003788 0.864251
0.030760 -0.003788 0.864342
0.032224 -0.003789 0.864430
0.033686 -0.003789 0.864443
0.035135 -0.003788 0.864133
0.036571 -0.003785 0.863555
0.037993 -0.003781 0.862682
0.039406 -0.003777 0.861697
0.040809 -0.003772 0.860565
0.042206 -0.003767 0.859384
0.043594 -0.003761 0.858115
0.044993 -0.003757 0.857127
0.046403 -0.003754 0.856398
0.047823 -0.003752 0.855907
0.049257 -0.003751 0.855684
0.050699 -0.003750 0.855601
0.052167 -0.003752 0.855964
0.053651 -0.003754 0.856551
0.055148 -0.003758 0.857303
0.056670 -0.003762 0.858405
0.058207 -0.003768 0.859672
0.059736 -0.003773 0.860760
0.061258 -0.003777 0.861704
0.062796 -0.003782 0.862826
0.064345 -0.003787 0.864030
0.065904 -0.003793 0.865322
0.067461 -0.003798 0.866539
0.069030 -0.003804 0.867848
0.070630 -0.003811 0.869483
0.072288 -0.003821 0.871745
0.074010 -0.003834 0.874678
0.075786 -0.003849 0.878125
0.077561 -0.003863 0.881428
0.079296 -0.003875 0.884165
0.080955 -0.003883 0.885962
0.082935 -0.003906 0.891136
0.085227 -0.003942 0.899430
0.087594 -0.003981 0.908202
0.089951 -0.004017 0.916573
-0.020942 -0.002387 0.888057
-0.017884 -0.002380 0.885325
-0.016374 -0.002378 0.884602
-0.014869 -0.002376 0.884022
-0.013351 -0.002372 0.882479
-0.011832 -0.002367 0.880483
-0.010322 -0.002362 0.878624
-0.008816 -0.002356 0.876569
-0.007320 -0.002352 0.874877
-0.005830 -0.002347 0.873299
-0.004348 -0.002344 0.872056
-0.002870 -0.002341 0.870913
-0.001396 -0.002339 0.870033
0.000075 -0.002336 0.869169
0.001542 -0.002334 0.868212
0.003007 -0.002331 0.867233
0.004468 -0.002328 0.866242
0.005928 -0.002327 0.865684
0.007388 -0.002326 0.865201
0.008849 -0.002325 0.865066
0.010312 -0.002325 0.865065
0.011773 -0.002325 0.865035
0.013234 -0.002325 0.864939
0.014694 -0.002324 0.864777
0.016157 -0.002325 0.864847
0.017617 -0.002324 0.864762
0.019077 -0.002324 0.864671
0.020537 -0.002324 0.864586
0.022001 -0.002324 0.864662
0.023456 -0.002324 0.864439
0.024915 -0.002323 0.864356
0.026374 -0.002323 0.864257
0.027827 -0.002322 0.864006
0.029282 -0.002322 0.863841
0.030739 -0.002322 0.863762
0.032196 -0.002322 0.863677
0.033656 -0.002322 0.863672
0.035106 -0.002321 0.863426
0.036548 -0.002320 0.863002
0.037976 -0.002318 0.862306
0.039401 -0.002316 0.861594
0.040814 -0.002313 0.860661
0.042220 -0.002311 0.859657
0.043608 -0.002307 0.858389
0.045015 -0.002305 0.857547
0.046435 -0.002304 0.856988
0.047867 -0.002303 0.856694
0.049315 -0.002303 0.856687
0.050773 -0.002303 0.856853
0.052253 -0.002305 0.857364
0.053739 -0.002306 0.857953
0.055239 -0.002308 0.858724
0.056756 -0.002311 0.859715
0.058283 -0.002314 0.860794
0.059795 -0.002316 0.861611
0.061311 -0.002318 0.862450
0.062845 -0.002321 0.863496
0.064396 -0.002324 0.864716
0.065963 -0.002328 0.866107
0.067536 -0.002332 0.867501
0.069114 -0.002336 0.868905
0.070719 -0.002340 0.870571
0.072372 -0.002346 0.872760
0.074066 -0.002353 0.875344
0.075796 -0.002361 0.878241
0.077520 -0.002368 0.880968
0.079219 -0.002374 0.883302
0.080851 -0.002378 0.884821
0.082838 -0.002393 0.890094
0.085088 -0.002414 0.897956
-0.017941 -0.000882 0.888157
-0.016422 -0.000881 0.887178
-0.014906 -0.000880 0.886228
-0.013384 -0.000878 0.884663
-0.011859 -0.000876 0.882495
-0.010344 -0.000874 0.880478
-0.008834 -0.000872 0.878388
-0.007335 -0.000870 0.876671
-0.005842 -0.000869 0.875076
-0.004357 -0.000868 0.873832
-0.002876 -0.000866 0.872763
-0.001399 -0.000865 0.871789
0.000075 -0.000865 0.870824
0.001545 -0.000863 0.869616
0.003011 -0.000862 0.868462
0.004473 -0.000861 0.867297
0.005935 -0.000860 0.866653
0.007396 -0.000860 0.866168
0.008860 -0.000860 0.866113
0.010325 -0.000860 0.866205
0.011790 -0.000860 0.866275
0.013253 -0.000860 0.866183
0.014716 -0.000860 0.866101
0.016181 -0.000860 0.866102
0.017640 -0.000860 0.865856
0.019098 -0.000859 0.865584
0.020556 -0.000859 0.865377
0.022013 -0.000859 0.865124
0.023465 -0.000859 0.864737
0.024919 -0.000858 0.864483
0.026374 -0.000858 0.864274
0.027821 -0.000858 0.863847
0.029270 -0.000857 0.863508
0.030724 -0.000857 0.863333
0.032177 -0.000857 0.863151
0.033629 -0.000857 0.862973
0.035074 -0.000856 0.862630
0.036517 -0.000856 0.862277
0.037945 -0.000855 0.861604
0.039374 -0.000855 0.860995
0.040793 -0.000854 0.860232
0.042207 -0.000853 0.859398
0.043600 -0.000852 0.858224
0.045015 -0.000851 0.857552
0.046453 -0.000851 0.857321
0.047901 -0.000851 0.857300
0.049365 -0.000851 0.857559
0.050845 -0.000852 0.858058
0.052338 -0.000853 0.858754
0.053825 -0.000853 0.859330
0.055321 -0.000854 0.859997
0.056827 -0.000855 0.860794
0.058333 -0.000855 0.861533
0.059833 -0.000856 0.862163
0.061339 -0.000857 0.862851
0.062875 -0.000858 0.863913
0.064435 -0.000859 0.865244
0.066022 -0.000861 0.866880
0.067604 -0.000862 0.868379
0.069198 -0.000864 0.869960
0.070805 -0.000865 0.871641
0.072453 -0.000867 0.873743
0.074114 -0.000870 0.875912
0.075804 -0.000872 0.878335
0.077479 -0.000874 0.880501
0.079143 -0.000876 0.882452
0.080749 -0.000877 0.883701
0.082722 -0.000882 0.888850
0.084879 -0.000889 0.895756
-0.018004 0.000626 0.891269
-0.016472 0.000625 0.889920
-0.014944 0.000624 0.888474
-0.013419 0.000623 0.886979
-0.011892 0.000622 0.884894
-0.010371 0.000620 0.882812
-0.008858 0.000619 0.880713
-0.007353 0.000617 0.878896
-0.005856 0.000616 0.877190
-0.004366 0.000615 0.875716
-0.002882 0.000614 0.874548
-0.001401 0.000613 0.873474
0.000075 0.000613 0.872418
0.001548 0.000612 0.871048
0.003016 0.000611 0.869875
0.004480 0.000610 0.868691
0.005944 0.000610 0.867951
0.007407 0.000609 0.867459
0.008873 0.000609 0.867415
0.010341 0.000609 0.867512
0.011808 0.000609 0.867589
0.013274 0.000609 0.867507
0.014740 0.000609 0.867513
0.016207 0.000609 0.867522
0.017667 0.000609 0.867198
0.019123 0.000609 0.866751
0.020579 0.000608 0.866352
0.022028 0.000608 0.865751
0.023472 0.000608 0.865016
0.024919 0.000607 0.864496
0.026369 0.000607 0.864104
0.027810 0.000606 0.863502
0.029256 0.000606 0.863075
0.030708 0.000606 0.862879
0.032157 0.000606 0.862615
0.033602 0.000606 0.862275
0.035036 0.000605 0.861700
0.036474 0.000605 0.861255
0.037896 0.000604 0.860494
0.039324 0.000604 0.859896
0.040746 0.000603 0.859220
0.042168 0.000603 0.858617
0.043569 0.000602 0.857612
0.044993 0.000602 0.857129
0.046444 0.000602 0.857158
0.047906 0.000602 0.857386
0.049380 0.000603 0.857819
0.050871 0.000603 0.858498
0.052379 0.000604 0.859438
0.053865 0.000604 0.859963
0.055360 0.000604 0.860606
0.056860 0.000605 0.861292
0.058359 0.000605 0.861922
0.059844 0.000606 0.862328
0.061357 0.000606 0.863095
0.062900 0.000607 0.864250
0.064473 0.000608 0.865759
0.066070 0.000609 0.867511
0.067672 0.000611 0.869251
0.069281 0.000612 0.871000
0.070890 0.000613 0.872686
0.072534 0.000614 0.874710
0.074171 0.000616 0.876589
0.075824 0.000617 0.878571
0.077453 0.000618 0.880197
0.079083 0.000619 0.881786
0.080665 0.000620 0.882783
0.082483 0.000622 0.886284
0.084529 0.000627 0.892068
-0.021150 0.000630 0.896906
-0.022826 0.002165 0.903191
-0.021152 0.002150 0.896976
-0.019599 0.002146 0.895306
-0.018048 0.002142 0.893451
-0.016512 0.002139 0.892061
-0.014977 0.002135 0.890486
-0.013449 0.002131 0.888976
-0.011921 0.002127 0.887059
-0.010396 0.002122 0.884911
-0.008880 0.002117 0.882897
-0.007372 0.002112 0.881057
-0.005871 0.002108 0.879346
-0.004375 0.002104 0.877601
-0.002887 0.002101 0.876268
-0.001404 0.002098 0.875005
0.000075 0.002095 0.873846
0.001550 0.002091 0.872303
0.003020 0.002089 0.871135
0.004487 0.002086 0.870018
0.005952 0.002084 0.869200
0.007417 0.002083 0.868621
0.008885 0.002082 0.868557
0.010354 0.002083 0.868649
0.011824 0.002083 0.868732
0.013292 0.002083 0.868732
0.014763 0.002083 0.868818
0.016230 0.002083 0.868752
0.017689 0.002082 0.868275
0.019143 0.002080 0.867645
0.020596 0.002079 0.867059
0.022039 0.002077 0.866188
0.023479 0.002074 0.865262
0.024921 0.002073 0.864543
0.026365 0.002071 0.863977
0.027798 0.002069 0.863126
0.029238 0.002068 0.862545
0.030683 0.002067 0.862190
0.032128 0.002066 0.861847
0.033566 0.002065 0.861355
0.034995 0.002063 0.860689
0.036427 0.002062 0.860146
0.037843 0.002060 0.859286
0.039264 0.002058 0.858595
0.040687 0.002057 0.857989
0.042116 0.002056 0.857553
0.043528 0.002054 0.856807
0.044965 0.002054 0.856589
0.046421 0.002054 0.856732
0.047886 0.002055 0.857039
0.049368 0.002056 0.857611
0.050868 0.002058 0.858457
0.052375 0.002060 0.859363
0.053871 0.002062 0.860063
0.055371 0.002064 0.860773
0.056866 0.002065 0.861378
0.058360 0.002067 0.861939
0.059851 0.002068 0.862428
0.061375 0.002070 0.863351
0.062931 0.002073 0.864674
0.064518 0.002077 0.866361
0.066130 0.002082 0.868296
0.067747 0.002086 0.870216
0.069359 0.002091 0.871979
0.070962 0.002094 0.873570
0.072592 0.002099 0.875418
0.074209 0.002103 0.877034
0.075838 0.002107 0.878735
0.077443 0.002110 0.880085
0.079057 0.002113 0.881501
0.080631 0.002116 0.882414
0.082323 0.002121 0.884568
-0.022789 0.003691 0.901738
-0.021183 0.003676 0.898273
-0.019631 0.003670 0.896776
-0.018080 0.003663 0.895013
-0.016542 0.003658 0.893678
-0.015003 0.003651 0.892003
-0.013472 0.003644 0.890485
-0.011944 0.003638 0.888823
-0.010418 0.003629 0.886770
-0.008899 0.003621 0.884865
-0.007389 0.003614 0.883151
-0.005885 0.003608 0.881506
-0.004386 0.003600 0.879660
-0.002894 0.003594 0.878233
-0.001407 0.003589 0.876919
0.000075 0.003583 0.875575
0.001553 0.003576 0.873860
0.003025 0.003571 0.872531
0.004495 0.003566 0.871425
0.005962 0.003563 0.870529
0.007428 0.003560 0.869942
0.008897 0.003560 0.869788
0.010369 0.003560 0.869865
0.011840 0.003560 0.869940
0.013310 0.003560 0.869865
0.014780 0.003560 0.869870
0.016248 0.003559 0.869710
0.017706 0.003557 0.869125
0.019158 0.003554 0.868330
0.020606 0.003550 0.867498
0.022044 0.003546 0.866359
0.023478 0.003541 0.865245
0.024913 0.003537 0.864271
0.026349 0.003534 0.863459
0.027779 0.003530 0.862523
0.029212 0.003527 0.861774
0.030650 0.003525 0.861260
0.032090 0.003523 0.860834
0.033523 0.003521 0.860259
0.034947 0.003518 0.859496
0.036376 0.003515 0.858929
0.037792 0.003512 0.858118
0.039211 0.003509 0.857433
0.040636 0.003507 0.856916
0.042072 0.003506 0.856652
0.043495 0.003504 0.856164
0.044937 0.003504 0.856061
0.046393 0.003504 0.856218
0.047861 0.003506 0.856581
0.049341 0.003508 0.857134
0.050845 0.003512 0.858059
0.052357 0.003516 0.859066
0.053864 0.003519 0.859946
0.055375 0.003523 0.860834
0.056876 0.003526 0.861530
0.058372 0.003528 0.862116
0.059869 0.003531 0.862688
0.061406 0.003535 0.863783
0.062974 0.003541 0.865273
0.064576 0.003549 0.867144
0.066198 0.003557 0.869185
0.067823 0.003565 0.871189
0.069436 0.003573 0.872952
0.071023 0.003578 0.874313
0.072639 0.003585 0.875978
0.074240 0.003591 0.877401
0.075847 0.003597 0.878839
0.077430 0.003601 0.879937
0.079043 0.003607 0.881335
0.080623 0.003611 0.882325
0.082216 0.003615 0.883412
-0.021198 0.005203 0.898937
-0.019650 0.005195 0.897634
-0.018102 0.005186 0.896087
-0.016564 0.005179 0.894869
-0.015025 0.005170 0.893304
-0.013492 0.005162 0.891790
-0.011965 0.005153 0.890383
-0.010437 0.005142 0.888419
-0.008918 0.005132 0.886767
-0.007406 0.005123 0.885160
-0.005899 0.005114 0.883594
-0.004396 0.005103 0.881735
-0.002901 0.005095 0.880285
-0.001410 0.005086 0.878719
0.000075 0.005077 0.877251
0.001555 0.005067 0.875428
0.003030 0.005059 0.874010
0.004502 0.005052 0.872913
0.005971 0.005047 0.871937
0.007440 0.005043 0.871265
0.008910 0.005041 0.871008
0.010381 0.005041 0.870914
0.011854 0.005041 0.870909
0.013325 0.005040 0.870836
0.014797 0.005040 0.870832
0.016264 0.005039 0.870574
0.017722 0.005035 0.869879
0.019169 0.005029 0.868820
0.020612 0.005022 0.867733
0.022042 0.005014 0.866276
0.023471 0.005006 0.864984
0.024898 0.004999 0.863770
0.026329 0.004994 0.862799
0.027755 0.004988 0.861772
0.029185 0.004983 0.860995
0.030619 0.004980 0.860381
0.032054 0.004977 0.859864
0.033482 0.004973 0.859199
0.034903 0.004968 0.858431
0.036324 0.004964 0.857706
0.037735 0.004959 0.856834
0.039156 0.004956 0.856227
0.040584 0.004953 0.855816
0.042019 0.004952 0.855583
0.043454 0.004951 0.855345
0.044903 0.004951 0.855404
0.046357 0.004952 0.855561
0.047823 0.004954 0.855913
0.049305 0.004957 0.856514
0.050812 0.004963 0.857518
0.052325 0.004969 0.858546
0.053842 0.004975 0.859601
0.055363 0.004981 0.860650
0.056870 0.004986 0.861441
0.058372 0.004990 0.862118
0.059882 0.004994 0.862866
0.061431 0.005001 0.864143
0.063014 0.005011 0.865818
0.064637 0.005024 0.867953
0.066272 0.005036 0.870163
0.067907 0.005049 0.872265
0.069515 0.005058 0.873943
0.071101 0.005066 0.875273
0.072697 0.005074 0.876678
0.074285 0.005081 0.877927
0.075885 0.005089 0.879274
0.077461 0.005095 0.880294
0.079060 0.005102 0.881524
0.080640 0.005108 0.882506
0.082233 0.005114 0.883599
0.084058 0.003631 0.887090
0.083972 0.005129 0.886187
-0.013500 0.006677 0.892344
-0.011977 0.006669 0.891279
-0.010450 0.006656 0.889518
-0.008932 0.006646 0.888138
-0.007419 0.006635 0.886721
-0.005911 0.006625 0.885318
-0.004405 0.006611 0.883487
