1714
0.024438 -0.089439 0.900593
0.025933 -0.089348 0.899673
0.027429 -0.089265 0.898836
0.028927 -0.089198 0.898168
0.030426 -0.089143 0.897606
0.031921 -0.089080 0.896975
0.033423 -0.089041 0.896586
0.034926 -0.089010 0.896266
0.036426 -0.088972 0.895893
0.037941 -0.088972 0.895886
0.039467 -0.089000 0.896167
0.041005 -0.089048 0.896657
0.042561 -0.089132 0.897500
0.044141 -0.089260 0.898789
0.045746 -0.089427 0.900473
0.047383 -0.089643 0.902646
0.049038 -0.089880 0.905031
0.050682 -0.090082 0.907068
0.052298 -0.090226 0.908513
0.053862 -0.090273 0.908984
0.055375 -0.090233 0.908588
0.056833 -0.090110 0.907352
0.058241 -0.089915 0.905388
0.059626 -0.089697 0.903185
0.060990 -0.089457 0.900776
0.062336 -0.089204 0.898227
0.063676 -0.088955 0.895717
0.065040 -0.088750 0.893656
0.066419 -0.088574 0.891881
0.067809 -0.088421 0.890341
0.069216 -0.088295 0.889075
0.070626 -0.088179 0.887909
0.072016 -0.088044 0.886542
0.073386 -0.087890 0.884994
0.074771 -0.087759 0.883676
0.076170 -0.087650 0.882573
0.077563 -0.087538 0.881450
0.078989 -0.087467 0.880734
0.080433 -0.087418 0.880244
0.081863 -0.087356 0.879618
0.083269 -0.087272 0.878767
0.084670 -0.087184 0.877886
0.086062 -0.087091 0.876949
0.087435 -0.086983 0.875858
0.088809 -0.086878 0.874799
0.090206 -0.086799 0.874007
0.091643 -0.086760 0.873619
0.093082 -0.086725 0.873264
0.094540 -0.086708 0.873093
0.096007 -0.086700 0.873014
0.097473 -0.086692 0.872930
0.098939 -0.086683 0.872843
0.100405 -0.086675 0.872759
0.101842 -0.086642 0.872432
0.103314 -0.086640 0.872405
0.104767 -0.086622 0.872223
0.106223 -0.086606 0.872066
0.107667 -0.086582 0.871822
0.109158 -0.086596 0.871965
0.110622 -0.086588 0.871884
0.112110 -0.086599 0.871995
0.113598 -0.086609 0.872099
0.115084 -0.086618 0.872186
0.116557 -0.086617 0.872177
0.118042 -0.086624 0.872250
0.119528 -0.086633 0.872339
0.121016 -0.086643 0.872434
0.122515 -0.086659 0.872602
0.124001 -0.086667 0.872680
0.125488 -0.086675 0.872759
0.126964 -0.086676 0.872765
0.128440 -0.086676 0.872767
0.129915 -0.086676 0.872765
0.131389 -0.086675 0.872759
0.132853 -0.086667 0.872680
0.134328 -0.086667 0.872680
0.135804 -0.086667 0.872680
0.137279 -0.086667 0.872680
0.138689 -0.086626 0.872270
0.140103 -0.086589 0.871895
0.141500 -0.086542 0.871421
0.142913 -0.086505 0.871050
0.144343 -0.086480 0.870799
0.145886 -0.086522 0.871218
0.147422 -0.086559 0.871594
0.148989 -0.086614 0.872142
0.150584 -0.086683 0.872839
0.152182 -0.086753 0.873542
0.153757 -0.086808 0.874102
0.155362 -0.086879 0.874816
0.156998 -0.086966 0.875691
0.158612 -0.087040 0.876430
0.160227 -0.087112 0.877163
0.161843 -0.087184 0.877885
0.163488 -0.087270 0.878749
0.165141 -0.087358 0.879639
0.166835 -0.087467 0.880733
0.168600 -0.087610 0.882177
0.170422 -0.087781 0.883892
0.172238 -0.087945 0.885547
0.174127 -0.088143 0.887543
0.176059 -0.088360 0.889722
0.177956 -0.088555 0.891693
0.179787 -0.088715 0.893300
0.181642 -0.088884 0.895002
0.183506 -0.089054 0.896715
0.185339 -0.089207 0.898250
0.187166 -0.089354 0.899734
0.188999 -0.089502 0.901223
0.190751 -0.089609 0.902303
0.192373 -0.089654 0.902758
0.193922 -0.089665 0.902863
0.195390 -0.089638 0.902591
0.196808 -0.089589 0.902100
0.198124 -0.089494 0.901147
0.199416 -0.089391 0.900104
0.200744 -0.089304 0.899234
0.202116 -0.089239 0.898575
0.203532 -0.089194 0.898123
0.205011 -0.089176 0.897948
0.206509 -0.089168 0.897861
0.013897 -0.088656 0.908212
0.015420 -0.088589 0.907519
0.016936 -0.088492 0.906525
0.018438 -0.088349 0.905062
0.019935 -0.088199 0.903525
0.021425 -0.088046 0.901963
0.022911 -0.087899 0.900449
0.024401 -0.087780 0.899231
0.025889 -0.087673 0.898139
0.027382 -0.087591 0.897296
0.028874 -0.087517 0.896537
0.030368 -0.087454 0.895895
0.031858 -0.087384 0.895184
0.033357 -0.087347 0.894803
0.034854 -0.087309 0.894411
0.036355 -0.087281 0.894127
0.037870 -0.087289 0.894209
0.039398 -0.087326 0.894586
0.040937 -0.087383 0.895170
0.042495 -0.087475 0.896107
0.044074 -0.087602 0.897410
0.045672 -0.087758 0.899007
0.047295 -0.087950 0.900980
0.048941 -0.088171 0.903245
0.050576 -0.088359 0.905169
0.052189 -0.088500 0.906612
0.053760 -0.088564 0.907269
0.055292 -0.088561 0.907239
0.056767 -0.088469 0.906298
0.058196 -0.088313 0.904699
0.059594 -0.088118 0.902695
0.060965 -0.087894 0.900406
0.062311 -0.087647 0.897872
0.063651 -0.087402 0.895366
0.065008 -0.087192 0.893215
0.066385 -0.087018 0.891430
0.067773 -0.086866 0.889871
0.069173 -0.086735 0.888526
0.070575 -0.086612 0.887268
0.071963 -0.086478 0.885892
0.073339 -0.086334 0.884420
0.074731 -0.086215 0.883207
0.076140 -0.086119 0.882224
0.077547 -0.086027 0.881275
0.078981 -0.085965 0.880646
0.080425 -0.085918 0.880158
0.081847 -0.085849 0.879451
0.083260 -0.085772 0.878668
0.084659 -0.085685 0.877773
0.086052 -0.085595 0.876850
0.087426 -0.085489 0.875761
0.088807 -0.085393 0.874785
0.090195 -0.085307 0.873904
0.091624 -0.085262 0.873442
0.093054 -0.085220 0.873006
0.094503 -0.085195 0.872759
0.095970 -0.085188 0.872680
0.097446 -0.085188 0.872680
0.098921 -0.085188 0.872680
0.100396 -0.085188 0.872680
0.101833 -0.085155 0.872348
0.103303 -0.085152 0.872312
0.104745 -0.085125 0.872038
0.106189 -0.085101 0.871788
0.107620 -0.085067 0.871444
0.109110 -0.085080 0.871579
0.110564 -0.085065 0.871424
0.112052 -0.085077 0.871540
0.113539 -0.085087 0.871647
0.115024 -0.085095 0.871731
0.116496 -0.085094 0.871719
0.117990 -0.085109 0.871868
0.119490 -0.085127 0.872059
0.120991 -0.085146 0.872255
0.122492 -0.085164 0.872440
0.123989 -0.085180 0.872596
0.125464 -0.085179 0.872594
0.126939 -0.085180 0.872596
0.128404 -0.085173 0.872524
0.129890 -0.085180 0.872596
0.131365 -0.085179 0.872594
0.132840 -0.085180 0.872596
0.134316 -0.085180 0.872602
0.135804 -0.085188 0.872680
0.137279 -0.085188 0.872680
0.138689 -0.085148 0.872270
0.140091 -0.085104 0.871817
0.141487 -0.085057 0.871337
0.142898 -0.085020 0.870963
0.144331 -0.084996 0.870721
0.145874 -0.085038 0.871149
0.147424 -0.085083 0.871606
0.149005 -0.085144 0.872235
0.150630 -0.085230 0.873107
0.152262 -0.085317 0.874000
0.153872 -0.085390 0.874752
0.155495 -0.085470 0.875567
0.157145 -0.085562 0.876513
0.158757 -0.085632 0.877233
0.160360 -0.085696 0.877888
0.161960 -0.085757 0.878515
0.163603 -0.085840 0.879365
0.165240 -0.085919 0.880169
0.166920 -0.086018 0.881183
0.168687 -0.086159 0.882631
0.170474 -0.086309 0.884164
0.172252 -0.086451 0.885616
0.174098 -0.086624 0.887397
0.175994 -0.086819 0.889394
0.177857 -0.086995 0.891195
0.179706 -0.087161 0.892898
0.181585 -0.087339 0.894717
0.183467 -0.087516 0.896527
0.185336 -0.087683 0.898237
0.187179 -0.087835 0.899797
0.189017 -0.087982 0.901307
0.190790 -0.088097 0.902486
0.192436 -0.088153 0.903052
0.193972 -0.088157 0.903097
0.195460 -0.088139 0.902914
0.196894 -0.088098 0.902492
0.198212 -0.088006 0.901550
0.199505 -0.087904 0.900507
0.200855 -0.087828 0.899732
0.202205 -0.087754 0.898972
0.203619 -0.087709 0.898507
0.205076 -0.087682 0.898235
0.206553 -0.087665 0.898055
0.210182 -0.090092 0.907163
0.208030 -0.087647 0.897875
0.015391 -0.086884 0.905785
0.016907 -0.086809 0.905006
0.018410 -0.086682 0.903676
0.019904 -0.086534 0.902136
0.021392 -0.086384 0.900576
0.022871 -0.086222 0.898886
0.024358 -0.086106 0.897671
0.025844 -0.085999 0.896562
0.027333 -0.085918 0.895712
0.028820 -0.085836 0.894859
0.030314 -0.085781 0.894282
0.031800 -0.085712 0.893570
0.033297 -0.085677 0.893205
0.034796 -0.085650 0.892922
0.036298 -0.085632 0.892735
0.037814 -0.085648 0.892905
0.039344 -0.085693 0.893368
0.040881 -0.085749 0.893947
0.042441 -0.085846 0.894969
0.044021 -0.085978 0.896340
0.045613 -0.086123 0.897856
0.047231 -0.086305 0.899750
0.048869 -0.086513 0.901921
0.050491 -0.086680 0.903662
0.052101 -0.086818 0.905093
0.053676 -0.086889 0.905842
0.055212 -0.086897 0.905923
0.056702 -0.086833 0.905251
0.058153 -0.086715 0.904022
0.059562 -0.086542 0.902221
0.060941 -0.086334 0.900050
0.062299 -0.086108 0.897693
0.063644 -0.085876 0.895275
0.064995 -0.085661 0.893040
0.066366 -0.085482 0.891170
0.067752 -0.085331 0.889592
0.069137 -0.085185 0.888070
0.070524 -0.085046 0.886622
0.071910 -0.084913 0.885241
0.073292 -0.084780 0.883851
0.074686 -0.084667 0.882669
0.076101 -0.084582 0.881784
0.077524 -0.084507 0.881006
0.078964 -0.084455 0.880460
0.080402 -0.084401 0.879905
0.081823 -0.084333 0.879194
0.083235 -0.084258 0.878407
0.084633 -0.084171 0.877503
0.086027 -0.084083 0.876589
0.087409 -0.083988 0.875591
0.088808 -0.083911 0.874791
0.090205 -0.083835 0.873998
0.091634 -0.083791 0.873541
0.093064 -0.083749 0.873099
0.094512 -0.083724 0.872843
0.095970 -0.083709 0.872680
0.097446 -0.083709 0.872680
0.098921 -0.083709 0.872680
0.100387 -0.083701 0.872602
0.101814 -0.083661 0.872186
0.103274 -0.083649 0.872063
0.104704 -0.083614 0.871700
0.106137 -0.083582 0.871363
0.107567 -0.083549 0.871013
0.109055 -0.083561 0.871140
0.110507 -0.083545 0.870976
0.111992 -0.083555 0.871076
0.113478 -0.083564 0.871175
0.114961 -0.083572 0.871253
0.116433 -0.083571 0.871244
0.117928 -0.083587 0.871410
0.119428 -0.083605 0.871606
0.120932 -0.083626 0.871824
0.122432 -0.083645 0.872015
0.123929 -0.083660 0.872177
0.125414 -0.083667 0.872250
0.126891 -0.083668 0.872261
0.128355 -0.083661 0.872188
0.129851 -0.083676 0.872339
0.131337 -0.083683 0.872412
0.132814 -0.083684 0.872425
0.134303 -0.083693 0.872518
0.135804 -0.083709 0.872680
0.137279 -0.083709 0.872680
0.138689 -0.083669 0.872270
0.140091 -0.083626 0.871817
0.141487 -0.083580 0.871337
0.142912 -0.083552 0.871047
0.144360 -0.083538 0.870900
0.145907 -0.083580 0.871345
0.147472 -0.083632 0.871888
0.149066 -0.083700 0.872589
0.150706 -0.083791 0.873545
0.152356 -0.083887 0.874542
0.153998 -0.083976 0.875470
0.155636 -0.084062 0.876360
0.157286 -0.084151 0.877299
0.158882 -0.084211 0.877925
0.160469 -0.084265 0.878486
0.162038 -0.084309 0.878941
0.163666 -0.084382 0.879703
0.165302 -0.084458 0.880499
0.166968 -0.084548 0.881437
0.168720 -0.084680 0.882806
0.170505 -0.084825 0.884323
0.172249 -0.084948 0.885602
0.174061 -0.085102 0.887205
0.175934 -0.085283 0.889095
0.177779 -0.085447 0.890808
0.179629 -0.085611 0.892516
0.181526 -0.085795 0.894428
0.183411 -0.085969 0.896251
0.185297 -0.086142 0.898049
0.187157 -0.086300 0.899693
0.188996 -0.086445 0.901210
0.190791 -0.086568 0.902492
0.192480 -0.086641 0.903256
0.194018 -0.086646 0.903307
0.195524 -0.086637 0.903212
0.196977 -0.086605 0.902874
0.198298 -0.086515 0.901939
0.199596 -0.086417 0.900915
0.200965 -0.086351 0.900226
0.202298 -0.086270 0.899385
0.203711 -0.086224 0.898910
0.205164 -0.086196 0.898618
0.206622 -0.086171 0.898354
0.208075 -0.086144 0.898071
0.015359 -0.085172 0.903912
0.016874 -0.085108 0.903232
0.018378 -0.085001 0.902097
0.019871 -0.084865 0.900649
0.021357 -0.084720 0.899115
0.022836 -0.084569 0.897508
0.024319 -0.084447 0.896217
0.025802 -0.084342 0.895102
0.027289 -0.084262 0.894251
0.028773 -0.084181 0.893395
0.030264 -0.084127 0.892819
0.031753 -0.084074 0.892261
0.033252 -0.084048 0.891982
0.034752 -0.084031 0.891801
0.036256 -0.084022 0.891713
0.037771 -0.084039 0.891891
0.039299 -0.084082 0.892349
0.040834 -0.084137 0.892927
0.042392 -0.084232 0.893931
0.043970 -0.084360 0.895297
0.045564 -0.084510 0.896889
0.047176 -0.084681 0.898703
0.048808 -0.084877 0.900781
0.050422 -0.085032 0.902422
0.052024 -0.085157 0.903754
0.053597 -0.085228 0.904505
0.055137 -0.085245 0.904687
0.056632 -0.085193 0.904140
0.058094 -0.085096 0.903108
0.059520 -0.084953 0.901582
0.060904 -0.084758 0.899515
0.062268 -0.084545 0.897257
0.063625 -0.084332 0.895002
0.064976 -0.084122 0.892770
0.066346 -0.083947 0.890906
0.067732 -0.083798 0.889334
0.069116 -0.083654 0.887797
0.070488 -0.083500 0.886170
0.071871 -0.083368 0.884763
0.073245 -0.083229 0.883294
0.074640 -0.083120 0.882132
0.076056 -0.083037 0.881258
0.077492 -0.082979 0.880641
0.078931 -0.082928 0.880093
0.080369 -0.082876 0.879548
0.081783 -0.082803 0.878766
0.083193 -0.082727 0.877967
0.084583 -0.082635 0.876982
0.085976 -0.082549 0.876071
0.087360 -0.082457 0.875098
0.088776 -0.082398 0.874473
0.090183 -0.082333 0.873787
0.091622 -0.082299 0.873417
0.093058 -0.082263 0.873044
0.094513 -0.082245 0.872852
0.095970 -0.082229 0.872680
0.097446 -0.082229 0.872680
0.098912 -0.082222 0.872602
0.100368 -0.082206 0.872434
0.101793 -0.082166 0.872006
0.103242 -0.082146 0.871797
0.104663 -0.082104 0.871357
0.106095 -0.082073 0.871019
0.107534 -0.082047 0.870750
0.109013 -0.082052 0.870801
0.110464 -0.082037 0.870637
0.111947 -0.082045 0.870723
0.113430 -0.082053 0.870807
0.114902 -0.082053 0.870807
0.116373 -0.082052 0.870801
0.117868 -0.082068 0.870969
0.119367 -0.082086 0.871163
0.120870 -0.082106 0.871378
0.122369 -0.082124 0.871560
0.123865 -0.082139 0.871719
0.125360 -0.082153 0.871868
0.126838 -0.082155 0.871897
0.128302 -0.082149 0.871829
0.129810 -0.082171 0.872059
0.131306 -0.082185 0.872207
0.132786 -0.082188 0.872243
0.134290 -0.082206 0.872432
0.135804 -0.082229 0.872680
0.137279 -0.082229 0.872680
0.138689 -0.082190 0.872270
0.140091 -0.082148 0.871817
0.141487 -0.082103 0.871337
0.142914 -0.082076 0.871056
0.144377 -0.082071 0.870998
0.145927 -0.082114 0.871462
0.147505 -0.082173 0.872085
0.149113 -0.082247 0.872868
0.150768 -0.082345 0.873906
0.152420 -0.082439 0.874907
0.154090 -0.082542 0.875996
0.155730 -0.082626 0.876891
0.157381 -0.082714 0.877830
0.158962 -0.082765 0.878368
0.160532 -0.082809 0.878832
0.162069 -0.082835 0.879112
0.163680 -0.082898 0.879783
0.165317 -0.082973 0.880576
0.166984 -0.083062 0.881518
0.168735 -0.083190 0.882881
0.170506 -0.083327 0.884330
0.172249 -0.083447 0.885605
0.174014 -0.083576 0.886970
0.175855 -0.083738 0.888692
0.177676 -0.083889 0.890290
0.179537 -0.084055 0.892059
0.181417 -0.084228 0.893890
0.183321 -0.084409 0.895812
0.185241 -0.084594 0.897777
0.187120 -0.084757 0.899512
0.188960 -0.084901 0.901035
0.190790 -0.085038 0.902487
0.192514 -0.085125 0.903416
0.194056 -0.085132 0.903485
0.195581 -0.085131 0.903475
0.197036 -0.085100 0.903144
0.198357 -0.085011 0.902207
0.199658 -0.084916 0.901196
0.201048 -0.084860 0.900599
0.202365 -0.084774 0.899684
0.203796 -0.084736 0.899285
0.205250 -0.084709 0.898994
0.206708 -0.084684 0.898729
0.210318 -0.085534 0.907750
0.015323 -0.083445 0.901807
0.016835 -0.083382 0.901129
0.018343 -0.083313 0.900380
0.019834 -0.083181 0.898959
0.021319 -0.083048 0.897513
0.022796 -0.082902 0.895934
0.024281 -0.082798 0.894811
0.025764 -0.082703 0.893792
0.027252 -0.082634 0.893041
0.028738 -0.082565 0.892296
0.030230 -0.082520 0.891809
0.031724 -0.082485 0.891433
0.033224 -0.082468 0.891245
0.034727 -0.082460 0.891157
0.036234 -0.082460 0.891157
0.037748 -0.082476 0.891336
0.039271 -0.082510 0.891706
0.040797 -0.082548 0.892110
0.042344 -0.082624 0.892935
0.043916 -0.082742 0.894209
0.045509 -0.082889 0.895798
0.047118 -0.083057 0.897610
0.048748 -0.083248 0.899677
0.050359 -0.083397 0.901290
0.051957 -0.083517 0.902589
0.053528 -0.083587 0.903338
0.055067 -0.083606 0.903547
0.056573 -0.083573 0.903190
0.058045 -0.083494 0.902337
0.059482 -0.083371 0.901009
0.060872 -0.083189 0.899044
0.062242 -0.082989 0.896878
0.063603 -0.082787 0.894698
0.064961 -0.082590 0.892564
0.066332 -0.082419 0.890718
0.067719 -0.082275 0.889165
0.069103 -0.082133 0.887623
0.070466 -0.081973 0.885898
0.071848 -0.081842 0.884480
0.073215 -0.081698 0.882931
0.074609 -0.081591 0.881767
0.076024 -0.081509 0.880886
0.077465 -0.081458 0.880337
0.078898 -0.081401 0.879722
0.080336 -0.081351 0.879183
0.081749 -0.081279 0.878396
0.083156 -0.081203 0.877578
0.084545 -0.081112 0.876593
0.085946 -0.081035 0.875762
0.087339 -0.080955 0.874893
0.088765 -0.080906 0.874365
0.090182 -0.080851 0.873771
0.091621 -0.080817 0.873411
0.093058 -0.080783 0.873044
0.094513 -0.080766 0.872852
0.095970 -0.080750 0.872680
0.097446 -0.080750 0.872680
0.098902 -0.080735 0.872518
0.100347 -0.080710 0.872255
0.101770 -0.080669 0.871810
0.103208 -0.080641 0.871507
0.104629 -0.080601 0.871077
0.106071 -0.080578 0.870821
0.107522 -0.080562 0.870652
0.108992 -0.080561 0.870637
0.110443 -0.080546 0.870475
0.111915 -0.080546 0.870475
0.113387 -0.080546 0.870475
0.114858 -0.080546 0.870475
0.116330 -0.080546 0.870475
0.117823 -0.080561 0.870637
0.119319 -0.080577 0.870814
0.120817 -0.080594 0.870998
0.122303 -0.080603 0.871091
0.123797 -0.080617 0.871244
0.125294 -0.080632 0.871410
0.126771 -0.080635 0.871435
0.128235 -0.080629 0.871378
0.129742 -0.080650 0.871606
0.131241 -0.080666 0.871771
0.132733 -0.080677 0.871893
0.134251 -0.080703 0.872177
0.135778 -0.080735 0.872518
0.137267 -0.080743 0.872602
0.138689 -0.080712 0.872270
0.140091 -0.080670 0.871817
0.141487 -0.080626 0.871337
0.142914 -0.080600 0.871056
0.144377 -0.080594 0.870998
0.145927 -0.080637 0.871462
0.147507 -0.080696 0.872093
0.149129 -0.080776 0.872961
0.150800 -0.080881 0.874094
0.152452 -0.080973 0.875093
0.154124 -0.081074 0.876185
0.155777 -0.081164 0.877156
0.157417 -0.081245 0.878033
0.158985 -0.081288 0.878495
0.160552 -0.081329 0.878940
0.162086 -0.081353 0.879199
0.163666 -0.081400 0.879703
0.165286 -0.081465 0.880413
0.166937 -0.081545 0.881269
0.168672 -0.081663 0.882554
0.170442 -0.081797 0.883996
0.172187 -0.081916 0.885283
0.173952 -0.082043 0.886652
0.175788 -0.082200 0.888354
0.177604 -0.082346 0.889928
0.179462 -0.082508 0.891687
0.181340 -0.082677 0.893513
0.183263 -0.082864 0.895528
0.185184 -0.083047 0.897501
0.187081 -0.083215 0.899324
0.188920 -0.083356 0.900847
0.190769 -0.083499 0.902387
0.192475 -0.083577 0.903236
0.194034 -0.083591 0.903385
0.195560 -0.083590 0.903376
0.197015 -0.083560 0.903047
0.198337 -0.083473 0.902114
0.199674 -0.083395 0.901266
0.201085 -0.083348 0.900762
0.202404 -0.083265 0.899859
0.203855 -0.083236 0.899549
0.205330 -0.083217 0.899347
0.206793 -0.083194 0.899097
0.015293 -0.081757 0.900048
0.016800 -0.081684 0.899249
0.018302 -0.081605 0.898377
0.019792 -0.081484 0.897044
0.021274 -0.081355 0.895624
0.022755 -0.081237 0.894325
0.024244 -0.081159 0.893474
0.025731 -0.081085 0.892654
0.027220 -0.081025 0.891999
0.028708 -0.080968 0.891366
0.030199 -0.080926 0.890909
0.031693 -0.080894 0.890558
0.033192 -0.080879 0.890382
0.034694 -0.080871 0.890301
0.036199 -0.080871 0.890301
0.037711 -0.080886 0.890470
0.039232 -0.080919 0.890827
0.040756 -0.080954 0.891210
0.042298 -0.081021 0.891951
0.043863 -0.081128 0.893130
0.045454 -0.081271 0.894709
0.047056 -0.081428 0.896432
0.048679 -0.081607 0.898405
0.050286 -0.081751 0.899990
0.051882 -0.081868 0.901279
0.053450 -0.081936 0.902024
0.054992 -0.081962 0.902313
0.056507 -0.081946 0.902137
0.057989 -0.081886 0.901475
0.059443 -0.081789 0.900411
0.060839 -0.081621 0.898554
0.062215 -0.081433 0.896493
0.063576 -0.081236 0.894319
0.064939 -0.081049 0.892263
0.066311 -0.080883 0.890437
0.067706 -0.080752 0.888987
0.069090 -0.080613 0.887462
0.070453 -0.080456 0.885731
0.071834 -0.080326 0.884305
0.073193 -0.080178 0.882668
0.074580 -0.080064 0.881415
0.075992 -0.079982 0.880518
0.077440 -0.079940 0.880052
0.078866 -0.079878 0.879363
0.080303 -0.079829 0.878826
0.081714 -0.079756 0.878022
0.083120 -0.079681 0.877195
0.084507 -0.079590 0.876202
0.085917 -0.079524 0.875471
0.087319 -0.079453 0.874685
0.088752 -0.079412 0.874239
0.090177 -0.079365 0.873725
0.091616 -0.079333 0.873369
0.093056 -0.079301 0.873021
0.094512 -0.079285 0.872843
0.095970 -0.079270 0.872680
0.097437 -0.079263 0.872602
0.098883 -0.079240 0.872348
0.100316 -0.079208 0.871986
0.101736 -0.079165 0.871522
0.103165 -0.079131 0.871149
0.104597 -0.079100 0.870805
0.106049 -0.079085 0.870639
0.107511 -0.079078 0.870559
0.108991 -0.079084 0.870631
0.110464 -0.079085 0.870637
0.111937 -0.079086 0.870645
0.113409 -0.079086 0.870645
0.114880 -0.079085 0.870637
0.116340 -0.079077 0.870553
0.117812 -0.079077 0.870553
0.119295 -0.079085 0.870637
0.120779 -0.079093 0.870723
0.122252 -0.079093 0.870729
0.123734 -0.079100 0.870801
0.125230 -0.079115 0.870969
0.126706 -0.079117 0.870992
0.128171 -0.079112 0.870938
0.129676 -0.079133 0.871163
0.131186 -0.079155 0.871409
0.132691 -0.079174 0.871618
0.134223 -0.079208 0.871995
0.135764 -0.079247 0.872425
0.137266 -0.079263 0.872596
0.138689 -0.079233 0.872270
0.140091 -0.079192 0.871817
0.141487 -0.079149 0.871337
0.142912 -0.079122 0.871047
0.144360 -0.079109 0.870900
0.145894 -0.079142 0.871267
0.147474 -0.079199 0.871897
0.149084 -0.079272 0.872694
0.150743 -0.079369 0.873763
0.152409 -0.079467 0.874843
0.154094 -0.079573 0.876013
0.155750 -0.079663 0.876999
0.157391 -0.079743 0.877884
0.158958 -0.079785 0.878342
0.160508 -0.079817 0.878697
0.162039 -0.079840 0.878947
0.163603 -0.079878 0.879365
0.165208 -0.079935 0.879994
0.166854 -0.080011 0.880831
0.168570 -0.080119 0.882020
0.170322 -0.080242 0.883373
0.172081 -0.080366 0.884740
0.173860 -0.080497 0.886181
0.175696 -0.080652 0.887892
0.177525 -0.080802 0.889535
0.179399 -0.080969 0.891374
0.181264 -0.081129 0.893138
0.183188 -0.081313 0.895162
0.185106 -0.081491 0.897123
0.187019 -0.081664 0.899029
0.188843 -0.081796 0.900478
0.190694 -0.081937 0.902031
0.192398 -0.082013 0.902874
0.193974 -0.082034 0.903102
0.195481 -0.082026 0.903014
0.196935 -0.081996 0.902682
0.198273 -0.081918 0.901827
0.199628 -0.081848 0.901058
0.201043 -0.081804 0.900574
0.202384 -0.081731 0.899766
0.203855 -0.081711 0.899549
0.205351 -0.081701 0.899437
0.206837 -0.081687 0.899288
0.013766 -0.080200 0.899705
0.015271 -0.080111 0.898709
0.016770 -0.080015 0.897630
0.018264 -0.079912 0.896476
0.019749 -0.079792 0.895123
0.021232 -0.079676 0.893821
0.022717 -0.079586 0.892819
0.024209 -0.079528 0.892168
0.025699 -0.079472 0.891537
0.027189 -0.079423 0.890990
0.028681 -0.079382 0.890531
0.030174 -0.079350 0.890168
0.031670 -0.079327 0.889912
0.033171 -0.079320 0.889830
0.034676 -0.079320 0.889830
0.036180 -0.079320 0.889830
0.037688 -0.079327 0.889912
0.039207 -0.079358 0.890256
0.040725 -0.079384 0.890547
0.042261 -0.079441 0.891184
0.043817 -0.079530 0.892184
0.045405 -0.079669 0.893745
0.046997 -0.079807 0.895294
0.048613 -0.079975 0.897181
0.050218 -0.080117 0.898775
0.051816 -0.080239 0.900139
0.053382 -0.080306 0.900888
0.054929 -0.080340 0.901274
0.056452 -0.080339 0.901267
0.057939 -0.080288 0.900696
0.059405 -0.080212 0.899833
0.060814 -0.080064 0.898174
0.062202 -0.079897 0.896298
0.063563 -0.079704 0.894133
0.064931 -0.079527 0.892154
0.066303 -0.079364 0.890325
0.067698 -0.079236 0.888884
0.069083 -0.079101 0.887374
0.070453 -0.078955 0.885731
0.071834 -0.078827 0.884305
0.073186 -0.078674 0.882582
0.074565 -0.078554 0.881240
0.075976 -0.078473 0.880332
0.077424 -0.078432 0.879868
0.078843 -0.078364 0.879106
0.080280 -0.078317 0.878573
0.081689 -0.078243 0.877752
0.083087 -0.078162 0.876840
0.084473 -0.078074 0.875850
0.085884 -0.078010 0.875140
0.087287 -0.077941 0.874365
0.088719 -0.077901 0.873914
0.090149 -0.077860 0.873456
0.091588 -0.077829 0.873101
0.093037 -0.077806 0.872843
0.094503 -0.077798 0.872759
0.095970 -0.077791 0.872680
0.097427 -0.077777 0.872518
0.098863 -0.077746 0.872171
0.100285 -0.077705 0.871717
0.101704 -0.077663 0.871247
0.103125 -0.077624 0.870807
0.104566 -0.077601 0.870553
0.106029 -0.077595 0.870475
0.107510 -0.077601 0.870553
0.109003 -0.077616 0.870721
0.110497 -0.077633 0.870900
0.111972 -0.077634 0.870920
0.113444 -0.077634 0.870914
0.114903 -0.077625 0.870814
0.116351 -0.077609 0.870637
0.117801 -0.077595 0.870475
0.119273 -0.077595 0.870475
0.120744 -0.077595 0.870475
0.122216 -0.077595 0.870475
0.123688 -0.077595 0.870475
0.125183 -0.077609 0.870637
0.126657 -0.077610 0.870652
0.128130 -0.077611 0.870659
0.129636 -0.077632 0.870892
0.131158 -0.077661 0.871222
0.132675 -0.077687 0.871510
0.134219 -0.077728 0.871967
0.135762 -0.077767 0.872412
0.137265 -0.077784 0.872594
0.138689 -0.077755 0.872270
0.140091 -0.077714 0.871817
0.141487 -0.077671 0.871337
0.142898 -0.077638 0.870963
0.144331 -0.077616 0.870721
0.145860 -0.077647 0.871065
0.147436 -0.077702 0.871676
0.149047 -0.077773 0.872481
0.150706 -0.077869 0.873549
0.152387 -0.077973 0.874718
0.154071 -0.078077 0.875888
0.155728 -0.078165 0.876879
0.157354 -0.078237 0.877680
0.158921 -0.078277 0.878136
0.160453 -0.078301 0.878400
0.161970 -0.078317 0.878573
0.163519 -0.078347 0.878912
0.165121 -0.078402 0.879532
0.166747 -0.078468 0.880270
0.168443 -0.078564 0.881354
0.170189 -0.078683 0.882684
0.171947 -0.078805 0.884050
0.173713 -0.078928 0.885434
0.175548 -0.079080 0.887143
0.177411 -0.079243 0.888964
0.179289 -0.079409 0.890826
0.181157 -0.079568 0.892608
0.183097 -0.079755 0.894715
0.185027 -0.079936 0.896740
0.186938 -0.080105 0.898639
0.188779 -0.080242 0.900172
0.190634 -0.080382 0.901747
0.192337 -0.080457 0.902588
0.193928 -0.080484 0.902892
0.195414 -0.080468 0.902705
0.196851 -0.080431 0.902297
0.198208 -0.080363 0.901530
0.199582 -0.080303 0.900854
0.201001 -0.080261 0.900385
0.202382 -0.080205 0.899760
0.203876 -0.080194 0.899638
0.205390 -0.080192 0.899611
0.209007 -0.081004 0.908723
0.013756 -0.078617 0.899038
0.015251 -0.078486 0.897541
0.016742 -0.078367 0.896180
0.018229 -0.078243 0.894768
0.019712 -0.078126 0.893430
0.021196 -0.078030 0.892331
0.022689 -0.077975 0.891698
0.024184 -0.077937 0.891262
0.025676 -0.077890 0.890730
0.027167 -0.077849 0.890262
0.028660 -0.077815 0.889869
0.030152 -0.077783 0.889508
0.031649 -0.077768 0.889330
0.033153 -0.077768 0.889330
0.034656 -0.077768 0.889330
0.036160 -0.077768 0.889330
0.037663 -0.077768 0.889330
0.039178 -0.077790 0.889589
0.040691 -0.077808 0.889789
0.042217 -0.077849 0.890257
0.043762 -0.077920 0.891067
0.045342 -0.078046 0.892514
0.046922 -0.078165 0.893876
0.048536 -0.078330 0.895764
0.050144 -0.078478 0.897446
0.051746 -0.078607 0.898925
0.053317 -0.078681 0.899776
0.054876 -0.078737 0.900411
0.056404 -0.078745 0.900506
0.057903 -0.078712 0.900131
0.059380 -0.078654 0.899465
0.060807 -0.078533 0.898083
0.062203 -0.078379 0.896319
0.063570 -0.078197 0.894237
0.064938 -0.078023 0.892249
0.066308 -0.077861 0.890397
0.067698 -0.077728 0.888875
0.069083 -0.077596 0.887365
0.070453 -0.077453 0.885731
0.071834 -0.077328 0.884305
0.073180 -0.077171 0.882503
0.074558 -0.077053 0.881155
0.075969 -0.076973 0.880244
0.077416 -0.076933 0.879783
0.078828 -0.076860 0.878947
0.080273 -0.076820 0.878488
0.081674 -0.076741 0.877586
0.083070 -0.076661 0.876670
0.084458 -0.076575 0.875690
0.085869 -0.076513 0.874986
0.087264 -0.076439 0.874135
0.088694 -0.076399 0.873673
0.090123 -0.076358 0.873206
0.091562 -0.076327 0.872852
0.093020 -0.076312 0.872680
0.094495 -0.076312 0.872680
0.095970 -0.076312 0.872680
0.097418 -0.076290 0.872432
0.098843 -0.076252 0.871995
0.100263 -0.076211 0.871522
0.101683 -0.076170 0.871062
0.103105 -0.076133 0.870637
0.104557 -0.076119 0.870475
0.106029 -0.076119 0.870475
0.107511 -0.076126 0.870559
0.109005 -0.076142 0.870738
0.110512 -0.076166 0.871012
0.111989 -0.076169 0.871052
0.113461 -0.076169 0.871045
0.114917 -0.076158 0.870920
0.116363 -0.076141 0.870723
0.117801 -0.076119 0.870475
0.119273 -0.076119 0.870475
0.120744 -0.076119 0.870475
0.122216 -0.076119 0.870475
0.123688 -0.076119 0.870475
0.125182 -0.076133 0.870631
0.126667 -0.076141 0.870721
0.128152 -0.076148 0.870810
0.129660 -0.076170 0.871053
0.131183 -0.076199 0.871389
0.132700 -0.076224 0.871677
0.134233 -0.076257 0.872059
0.135763 -0.076289 0.872417
0.137266 -0.076305 0.872596
0.138689 -0.076276 0.872270
0.140091 -0.076236 0.871817
0.141487 -0.076194 0.871337
0.142886 -0.076155 0.870885
0.144303 -0.076126 0.870553
0.145830 -0.076155 0.870883
0.147390 -0.076200 0.871404
0.148999 -0.076270 0.872200
0.150658 -0.076363 0.873269
0.152351 -0.076472 0.874509
0.154021 -0.076567 0.875601
0.155678 -0.076654 0.876595
0.157287 -0.076716 0.877305
0.158849 -0.076754 0.877741
0.160365 -0.076770 0.877915
0.161881 -0.076785 0.878088
0.163429 -0.076815 0.878432
0.165016 -0.076862 0.878976
0.166624 -0.076919 0.879620
0.168282 -0.076997 0.880514
0.169994 -0.077098 0.881671
0.171731 -0.077209 0.882940
0.173498 -0.077331 0.884336
0.175336 -0.077483 0.886070
0.177234 -0.077658 0.888073
0.179144 -0.077836 0.890106
0.181030 -0.078000 0.891984
0.182986 -0.078191 0.894174
0.184931 -0.078375 0.896275
0.186856 -0.078547 0.898245
0.188718 -0.078690 0.899881
0.190591 -0.078836 0.901547
0.192296 -0.078910 0.902393
0.193901 -0.078943 0.902766
0.195386 -0.078926 0.902576
0.196806 -0.078884 0.902090
0.198163 -0.078817 0.901324
0.199559 -0.078766 0.900747
0.200979 -0.078726 0.900286
0.202383 -0.078680 0.899765
0.203898 -0.078678 0.899737
0.205414 -0.078676 0.899715
0.012242 -0.077131 0.899482
0.013745 -0.077032 0.898326
0.015235 -0.076886 0.896633
0.016722 -0.076753 0.895082
0.018202 -0.076615 0.893463
0.019687 -0.076516 0.892315
0.021175 -0.076439 0.891419
0.022670 -0.076402 0.890988
0.024170 -0.076380 0.890729
0.025663 -0.076342 0.890279
0.027153 -0.076301 0.889806
0.028645 -0.076267 0.889404
0.030136 -0.076235 0.889037
0.031632 -0.076220 0.888859
0.033135 -0.076220 0.888859
0.034638 -0.076220 0.888859
0.036140 -0.076220 0.888859
0.037643 -0.076220 0.888859
0.039154 -0.076235 0.889037
0.040661 -0.076245 0.889146
0.042178 -0.076269 0.889433
0.043712 -0.076322 0.890045
0.045281 -0.076430 0.891307
0.046853 -0.076536 0.892551
0.048463 -0.076697 0.894429
0.050075 -0.076850 0.896203
0.051686 -0.076993 0.897873
0.053266 -0.077083 0.898928
0.054837 -0.077155 0.899759
0.056375 -0.077179 0.900039
0.057885 -0.077163 0.899856
0.059369 -0.077115 0.899295
0.060803 -0.077005 0.898021
0.062206 -0.076862 0.896352
0.063574 -0.076685 0.894284
0.064947 -0.076521 0.892371
0.066316 -0.076361 0.890508
0.067705 -0.076230 0.888974
0.069089 -0.076099 0.887453
0.070459 -0.075959 0.885813
0.071834 -0.075829 0.884305
0.073180 -0.075675 0.882503
0.074558 -0.075559 0.881155
0.075969 -0.075481 0.880244
0.077416 -0.075442 0.879783
0.078828 -0.075370 0.878947
0.080273 -0.075331 0.878488
0.081674 -0.075253 0.877586
0.083070 -0.075175 0.876670
0.084466 -0.075097 0.875768
0.085877 -0.075037 0.875062
0.087271 -0.074964 0.874208
0.088701 -0.074923 0.873733
0.090130 -0.074883 0.873271
0.091561 -0.074846 0.872843
0.093020 -0.074832 0.872680
0.094495 -0.074832 0.872680
0.095970 -0.074832 0.872680
0.097408 -0.074804 0.872348
0.098833 -0.074766 0.871902
0.100252 -0.074725 0.871424
0.101672 -0.074686 0.870969
0.103095 -0.074650 0.870553
0.104557 -0.074643 0.870475
0.106029 -0.074643 0.870475
0.107511 -0.074651 0.870561
0.109005 -0.074666 0.870743
0.110524 -0.074698 0.871109
0.112002 -0.074701 0.871150
0.113474 -0.074701 0.871146
0.114929 -0.074690 0.871013
0.116374 -0.074672 0.870807
0.117801 -0.074643 0.870475
0.119273 -0.074643 0.870475
0.120744 -0.074643 0.870475
0.122216 -0.074643 0.870475
0.123688 -0.074643 0.870475
0.125183 -0.074657 0.870637
0.126680 -0.074672 0.870814
0.128179 -0.074688 0.870998
0.129691 -0.074711 0.871262
0.131216 -0.074740 0.871606
0.132732 -0.074765 0.871888
0.134249 -0.074789 0.872168
0.135765 -0.074812 0.872434
0.137267 -0.074826 0.872602
0.138689 -0.074797 0.872270
0.140091 -0.074759 0.871817
0.141487 -0.074717 0.871337
0.142886 -0.074679 0.870885
0.144303 -0.074650 0.870553
0.145830 -0.074679 0.870885
0.147378 -0.074717 0.871331
0.148988 -0.074786 0.872132
0.150630 -0.074869 0.873107
0.152322 -0.074975 0.874347
0.153977 -0.075061 0.875349
0.155631 -0.075146 0.876333
0.157224 -0.075199 0.876953
0.158783 -0.075235 0.877377
0.160282 -0.075243 0.877462
0.161796 -0.075257 0.877626
0.163329 -0.075280 0.877894
0.164898 -0.075318 0.878347
0.166490 -0.075367 0.878910
0.168113 -0.075428 0.879629
0.169803 -0.075518 0.880679
0.171537 -0.075627 0.881940
0.173317 -0.075753 0.883417
0.175157 -0.075903 0.885164
0.177084 -0.076088 0.887326
0.179011 -0.076270 0.889443
0.180932 -0.076446 0.891500
0.182889 -0.076635 0.893700
0.184854 -0.076824 0.895902
0.186797 -0.077000 0.897960
0.188678 -0.077149 0.899690
0.190553 -0.077293 0.901368
0.192260 -0.077366 0.902226
0.193882 -0.077405 0.902676
0.195366 -0.077388 0.902483
0.196787 -0.077347 0.902000
0.198144 -0.077281 0.901240
0.199559 -0.077239 0.900747
0.200979 -0.077200 0.900286
0.202404 -0.077163 0.899857
0.203922 -0.077162 0.899841
0.205441 -0.077161 0.899833
0.010735 -0.077227 0.900600
0.010733 -0.075687 0.900445
0.012238 -0.075581 0.899185
0.013737 -0.075466 0.897820
0.015222 -0.075301 0.895853
0.016704 -0.075155 0.894118
0.018183 -0.075022 0.892531
0.019671 -0.074943 0.891595
0.021160 -0.074878 0.890816
0.022660 -0.074856 0.890559
0.024158 -0.074833 0.890292
0.025650 -0.074795 0.889837
0.027137 -0.074748 0.889273
0.028628 -0.074714 0.888876
0.030118 -0.074684 0.888511
0.031611 -0.074663 0.888264
0.033113 -0.074663 0.888264
0.034618 -0.074670 0.888342
0.036119 -0.074670 0.888345
0.037622 -0.074671 0.888351
0.039134 -0.074691 0.888601
0.040641 -0.074700 0.888698
0.042152 -0.074715 0.888880
0.043680 -0.074759 0.889400
0.045238 -0.074848 0.890467
0.046799 -0.074938 0.891529
0.048402 -0.075086 0.893298
0.050016 -0.075242 0.895152
0.051627 -0.075385 0.896855
0.053212 -0.075483 0.898015
0.054793 -0.075569 0.899038
0.056336 -0.075600 0.899412
0.057851 -0.075593 0.899332
0.059347 -0.075562 0.898953
0.060798 -0.075477 0.897945
0.062212 -0.075351 0.896444
0.063587 -0.075185 0.894474
0.064967 -0.075032 0.892652
0.066338 -0.074876 0.890801
0.067720 -0.074740 0.889173
0.069098 -0.074604 0.887559
0.070473 -0.074471 0.885980
0.071841 -0.074338 0.884391
0.073194 -0.074193 0.882671
0.074579 -0.074087 0.881406
0.075991 -0.074010 0.880498
0.077431 -0.073965 0.879957
0.078843 -0.073894 0.879112
0.080280 -0.073848 0.878567
0.081681 -0.073772 0.877665
0.083079 -0.073696 0.876755
0.084474 -0.073620 0.875855
0.085877 -0.073553 0.875062
0.087269 -0.073480 0.874193
0.088690 -0.073433 0.873634
0.090120 -0.073395 0.873177
0.091553 -0.073360 0.872759
0.093020 -0.073353 0.872680
0.094486 -0.073347 0.872602
0.095952 -0.073340 0.872518
0.097381 -0.073304 0.872099
0.098804 -0.073266 0.871647
0.100223 -0.073227 0.871175
0.101653 -0.073196 0.870807
0.103086 -0.073168 0.870475
0.104557 -0.073168 0.870475
0.106029 -0.073168 0.870475
0.107511 -0.073175 0.870559
0.109004 -0.073189 0.870730
0.110530 -0.073225 0.871160
0.112009 -0.073229 0.871204
0.113483 -0.073230 0.871216
0.114939 -0.073220 0.871089
0.116385 -0.073202 0.870885
0.117801 -0.073168 0.870475
0.119273 -0.073168 0.870475
0.120744 -0.073168 0.870475
0.122216 -0.073168 0.870475
0.123688 -0.073168 0.870475
0.125195 -0.073189 0.870723
0.126707 -0.073212 0.870998
0.128223 -0.073237 0.871294
0.129749 -0.073267 0.871653
0.131286 -0.073302 0.872073
0.132788 -0.073317 0.872255
0.134290 -0.073333 0.872434
0.135791 -0.073347 0.872602
0.137279 -0.073353 0.872680
0.138689 -0.073319 0.872270
0.140091 -0.073281 0.871817
0.141487 -0.073240 0.871337
0.142886 -0.073202 0.870885
0.144304 -0.073175 0.870559
0.145820 -0.073197 0.870822
0.147367 -0.073234 0.871267
0.148964 -0.073295 0.871993
0.150592 -0.073370 0.872884
0.152268 -0.073467 0.874036
0.153933 -0.073557 0.875102
0.155574 -0.073633 0.876009
0.157165 -0.073685 0.876625
0.158723 -0.073720 0.877046
0.160220 -0.073727 0.877124
0.161718 -0.073733 0.877204
0.163263 -0.073762 0.877541
0.164832 -0.073800 0.877994
0.166422 -0.073847 0.878553
0.168028 -0.073900 0.879183
0.169697 -0.073980 0.880132
0.171410 -0.074077 0.881287
0.173172 -0.074193 0.882674
0.174993 -0.074333 0.884337
0.176936 -0.074522 0.886581
0.178893 -0.074713 0.888859
0.180850 -0.074901 0.891096
0.182848 -0.075103 0.893499
0.184852 -0.075304 0.895893
0.186814 -0.075485 0.898043
0.188695 -0.075630 0.899772
0.190555 -0.075765 0.901377
0.192263 -0.075838 0.902242
0.193888 -0.075877 0.902702
0.195353 -0.075853 0.902424
0.196772 -0.075812 0.901934
0.198130 -0.075748 0.901174
0.199542 -0.075706 0.900672
0.200962 -0.075667 0.900212
0.202424 -0.075645 0.899947
0.203944 -0.075645 0.899940
0.207558 -0.076415 0.909105
0.009213 -0.074173 0.900601
0.010725 -0.074103 0.899744
0.012229 -0.073998 0.898471
0.013724 -0.073873 0.896951
0.015207 -0.073709 0.894959
0.016685 -0.073557 0.893111
0.018167 -0.073442 0.891724
0.019658 -0.073382 0.890987
0.021150 -0.073331 0.890376
0.022648 -0.073310 0.890116
0.024146 -0.073287 0.889837
0.025637 -0.073249 0.889379
0.027121 -0.073196 0.888732
0.028610 -0.073163 0.888338
0.030100 -0.073134 0.887978
0.031590 -0.073107 0.887657
0.033090 -0.073107 0.887657
0.034600 -0.073127 0.887897
0.036098 -0.073122 0.887831
0.037603 -0.073129 0.887923
0.039119 -0.073156 0.888254
0.040625 -0.073164 0.888346
0.042131 -0.073172 0.888442
0.043662 -0.073221 0.889034
0.045206 -0.073287 0.889843
0.046757 -0.073360 0.890723
0.048348 -0.073490 0.892298
0.049955 -0.073634 0.894054
0.051564 -0.073775 0.895759
0.053158 -0.073885 0.897102
0.054748 -0.073984 0.898304
0.056301 -0.074029 0.898849
0.057826 -0.074037 0.898938
0.059327 -0.074013 0.898656
0.060784 -0.073938 0.897740
0.062211 -0.073829 0.896424
0.063598 -0.073682 0.894628
0.064986 -0.073540 0.892910
0.066359 -0.073390 0.891085
0.067742 -0.073256 0.889464
0.069112 -0.073115 0.887748
0.070487 -0.072984 0.886156
0.071849 -0.072846 0.884486
0.073209 -0.072712 0.882857
0.074602 -0.072615 0.881682
0.076015 -0.072541 0.880779
0.077449 -0.072489 0.880152
0.078860 -0.072419 0.879293
0.080288 -0.072366 0.878653
0.081681 -0.072285 0.877671
0.083079 -0.072210 0.876764
0.084468 -0.072130 0.875789
0.085862 -0.072057 0.874908
0.087253 -0.071985 0.874028
0.088673 -0.071938 0.873463
0.090103 -0.071901 0.873014
0.091544 -0.071874 0.872680
0.093020 -0.071874 0.872680
0.094486 -0.071867 0.872596
0.095942 -0.071853 0.872425
0.097369 -0.071817 0.871995
0.098792 -0.071780 0.871540
0.100212 -0.071742 0.871076
0.101643 -0.071713 0.870723
0.103086 -0.071692 0.870475
0.104557 -0.071692 0.870475
0.106029 -0.071692 0.870475
0.107510 -0.071699 0.870553
0.108992 -0.071706 0.870637
0.110517 -0.071740 0.871056
0.111995 -0.071744 0.871097
0.113470 -0.071745 0.871117
0.114928 -0.071736 0.871005
0.116385 -0.071726 0.870885
0.117801 -0.071692 0.870475
0.119273 -0.071692 0.870475
0.120744 -0.071692 0.870475
0.122216 -0.071692 0.870475
0.123688 -0.071692 0.870475
0.125207 -0.071720 0.870807
0.126733 -0.071750 0.871175
0.128263 -0.071782 0.871569
0.129803 -0.071819 0.872015
0.131340 -0.071853 0.872432
0.132828 -0.071860 0.872518
0.134316 -0.071868 0.872602
0.135804 -0.071874 0.872680
0.137279 -0.071874 0.872680
0.138689 -0.071840 0.872270
0.140091 -0.071803 0.871817
0.141487 -0.071763 0.871337
0.142886 -0.071726 0.870885
0.144317 -0.071706 0.870639
0.145833 -0.071728 0.870905
0.147382 -0.071765 0.871358
0.148990 -0.071830 0.872143
0.150617 -0.071903 0.873031
0.152279 -0.071991 0.874099
0.153945 -0.072079 0.875168
0.155584 -0.072153 0.876070
0.157163 -0.072198 0.876616
0.158722 -0.072233 0.877039
0.160220 -0.072240 0.877124
0.161718 -0.072246 0.877204
0.163263 -0.072274 0.877539
0.164831 -0.072311 0.877989
0.166405 -0.072350 0.878460
0.167994 -0.072395 0.879006
0.169645 -0.072465 0.879860
0.171323 -0.072546 0.880840
0.173033 -0.072639 0.881969
0.174817 -0.072761 0.883446
0.176754 -0.072944 0.885670
0.178728 -0.073139 0.888038
0.180743 -0.073347 0.890569
0.182817 -0.073576 0.893350
0.184878 -0.073796 0.896017
0.186857 -0.073980 0.898251
0.188734 -0.074121 0.899960
0.190576 -0.074245 0.901473
0.192265 -0.074309 0.902251
0.193872 -0.074341 0.902631
0.195318 -0.074310 0.902261
0.196716 -0.074262 0.901676
0.198070 -0.074198 0.900903
0.199465 -0.074151 0.900325
0.200885 -0.074113 0.899867
0.202383 -0.074105 0.899765
0.203905 -0.074105 0.899765
0.009199 -0.072541 0.899288
0.010710 -0.072475 0.898473
0.012210 -0.072365 0.897113
0.013702 -0.072235 0.895493
0.015185 -0.072090 0.893694
0.016666 -0.071962 0.892111
0.018152 -0.071872 0.890996
0.019646 -0.071827 0.890443
0.021139 -0.071785 0.889917
0.022636 -0.071763 0.889645
0.024128 -0.071726 0.889187
0.025613 -0.071675 0.888556
0.027093 -0.071616 0.887825
0.028578 -0.071578 0.887351
0.030066 -0.071549 0.886987
0.031557 -0.071529 0.886742
0.033056 -0.071529 0.886742
0.034565 -0.071549 0.886987
0.036062 -0.071544 0.886928
0.037569 -0.071559 0.887112
0.039084 -0.071587 0.887461
0.040593 -0.071602 0.887648
0.042102 -0.071617 0.887834
0.043637 -0.071672 0.888521
0.045176 -0.071731 0.889244
0.046724 -0.071800 0.890104
0.048303 -0.071911 0.891475
0.049898 -0.072037 0.893045
0.051500 -0.072166 0.894639
0.053097 -0.072282 0.896072
0.054690 -0.072385 0.897361
0.056253 -0.072444 0.898089
0.057793 -0.072472 0.898431
0.059300 -0.072457 0.898250
0.060758 -0.072385 0.897357
0.062191 -0.072287 0.896141
0.063591 -0.072157 0.894530
0.064987 -0.072027 0.892924
0.066367 -0.071888 0.891191
0.067757 -0.071764 0.889656
0.069132 -0.071631 0.888007
0.070507 -0.071503 0.886419
0.071864 -0.071362 0.884676
0.073233 -0.071239 0.883146
0.074634 -0.071150 0.882051
0.076041 -0.071072 0.881081
0.077467 -0.071015 0.880365
0.078883 -0.070950 0.879560
0.080303 -0.070890 0.878827
0.081697 -0.070811 0.877840
0.083103 -0.070744 0.877018
0.084492 -0.070666 0.876047
0.085878 -0.070588 0.875076
0.087268 -0.070516 0.874182
0.088680 -0.070463 0.873532
0.090095 -0.070415 0.872930
0.091527 -0.070381 0.872518
0.092993 -0.070374 0.872432
0.094449 -0.070361 0.872261
0.095895 -0.070340 0.872001
0.097329 -0.070310 0.871635
0.098760 -0.070280 0.871262
0.100191 -0.070251 0.870898
0.101633 -0.070230 0.870637
0.103086 -0.070217 0.870475
0.104557 -0.070217 0.870475
0.106029 -0.070217 0.870475
0.107500 -0.070217 0.870475
0.108972 -0.070217 0.870475
0.110486 -0.070244 0.870807
0.111962 -0.070246 0.870843
0.113438 -0.070248 0.870868
0.114907 -0.070246 0.870843
0.116374 -0.070244 0.870807
0.117801 -0.070217 0.870475
0.119273 -0.070217 0.870475
0.120744 -0.070217 0.870475
0.122216 -0.070217 0.870475
0.123688 -0.070217 0.870475
0.125218 -0.070250 0.870885
0.126756 -0.070286 0.871337
0.128300 -0.070325 0.871817
0.129841 -0.070362 0.872270
0.131378 -0.070395 0.872680
0.132853 -0.070395 0.872680
0.134328 -0.070395 0.872680
0.135804 -0.070395 0.872680
0.137279 -0.070395 0.872680
0.138689 -0.070362 0.872270
0.140091 -0.070325 0.871817
0.141487 -0.070286 0.871337
0.142886 -0.070250 0.870885
0.144331 -0.070236 0.870721
0.145834 -0.070252 0.870907
0.147380 -0.070287 0.871345
0.148985 -0.070349 0.872118
0.150613 -0.070421 0.873009
0.152261 -0.070501 0.873997
0.153943 -0.070594 0.875158
0.155582 -0.070667 0.876054
0.157163 -0.070712 0.876611
0.158722 -0.070746 0.877037
0.160235 -0.070759 0.877204
0.161749 -0.070773 0.877374
0.163297 -0.070801 0.877724
0.164867 -0.070838 0.878178
0.166440 -0.070876 0.878647
0.168011 -0.070912 0.879097
0.169630 -0.070968 0.879783
0.171289 -0.071039 0.880667
0.172978 -0.071121 0.881689
0.174739 -0.071231 0.883055
0.176656 -0.071403 0.885181
0.178666 -0.071609 0.887731
0.180723 -0.071830 0.890472
0.182844 -0.072072 0.893482
0.184928 -0.072297 0.896260
0.186923 -0.072482 0.898564
0.188775 -0.072611 0.900155
0.190611 -0.072731 0.901642
0.192265 -0.072780 0.902248
0.193851 -0.072803 0.902532
0.195273 -0.072764 0.902051
0.196646 -0.072708 0.901356
0.197980 -0.072638 0.900491
0.199377 -0.072592 0.899928
0.200818 -0.072563 0.899565
0.202338 -0.072563 0.899562
0.205925 -0.073298 0.908679
0.007676 -0.070990 0.898950
0.009189 -0.070937 0.898281
0.010696 -0.070864 0.897354
0.012194 -0.070753 0.895957
0.013682 -0.070612 0.894169
0.015167 -0.070492 0.892652
0.016651 -0.070383 0.891263
0.018139 -0.070310 0.890346
0.019633 -0.070273 0.889876
0.021127 -0.070238 0.889435
0.022622 -0.070210 0.889075
0.024110 -0.070167 0.888532
0.025591 -0.070109 0.887797
0.027067 -0.070044 0.886968
0.028548 -0.069998 0.886394
0.030034 -0.069969 0.886026
0.031520 -0.069943 0.885699
0.033014 -0.069936 0.885613
0.034520 -0.069955 0.885851
0.036012 -0.069944 0.885713
0.037518 -0.069960 0.885914
0.039039 -0.070001 0.886425
0.040558 -0.070038 0.886892
0.042072 -0.070062 0.887200
0.043615 -0.070131 0.888071
0.045153 -0.070188 0.888792
0.046700 -0.070254 0.889634
0.048263 -0.070341 0.890734
0.049850 -0.070455 0.892178
0.051444 -0.070572 0.893665
0.053039 -0.070685 0.895093
0.054632 -0.070789 0.896407
0.056205 -0.070862 0.897328
0.057751 -0.070897 0.897780
0.059264 -0.070891 0.897697
0.060727 -0.070827 0.896894
0.062165 -0.070739 0.895771
0.063572 -0.070619 0.894253
0.064980 -0.070507 0.892835
0.066368 -0.070378 0.891204
0.067764 -0.070263 0.889753
0.069140 -0.070133 0.888100
0.070522 -0.070014 0.886596
0.071873 -0.069871 0.884783
0.073249 -0.069757 0.883341
0.074657 -0.069678 0.882334
0.076065 -0.069601 0.881362
0.077485 -0.069537 0.880560
0.078907 -0.069480 0.879826
0.080320 -0.069415 0.879007
0.081714 -0.069337 0.878022
0.083121 -0.069273 0.877207
0.084510 -0.069195 0.876225
0.085888 -0.069112 0.875172
0.087276 -0.069040 0.874261
0.088680 -0.068983 0.873533
0.090094 -0.068934 0.872922
0.091518 -0.068895 0.872425
0.092973 -0.068881 0.872243
0.094419 -0.068860 0.871979
0.095855 -0.068833 0.871632
0.097289 -0.068805 0.871280
0.098729 -0.068782 0.870992
0.100171 -0.068761 0.870723
0.101623 -0.068747 0.870553
0.103086 -0.068741 0.870475
0.104557 -0.068741 0.870475
0.106029 -0.068741 0.870475
0.107500 -0.068741 0.870475
0.108972 -0.068741 0.870475
0.110475 -0.068761 0.870723
0.111950 -0.068763 0.870750
0.113425 -0.068764 0.870770
0.114894 -0.068763 0.870750
0.116363 -0.068761 0.870723
0.117801 -0.068741 0.870475
0.119273 -0.068741 0.870475
0.120744 -0.068741 0.870475
0.122216 -0.068741 0.870475
0.123688 -0.068741 0.870475
0.125218 -0.068774 0.870885
0.126756 -0.068809 0.871337
0.128300 -0.068847 0.871817
0.129841 -0.068883 0.872270
0.131378 -0.068915 0.872680
0.132853 -0.068915 0.872680
0.134328 -0.068915 0.872680
0.135804 -0.068915 0.872680
0.137279 -0.068915 0.872680
0.138689 -0.068883 0.872270
0.140091 -0.068847 0.871817
0.141487 -0.068809 0.871337
0.142898 -0.068780 0.870963
0.144358 -0.068774 0.870885
0.145862 -0.068789 0.871076
0.147423 -0.068830 0.871598
0.149027 -0.068890 0.872360
0.150655 -0.068960 0.873251
0.152292 -0.069033 0.874176
0.153974 -0.069125 0.875334
0.155600 -0.069190 0.876154
0.157178 -0.069232 0.876694
0.158736 -0.069266 0.877119
0.160266 -0.069286 0.877374
0.161799 -0.069307 0.877644
0.163351 -0.069336 0.878014
0.164922 -0.069373 0.878474
0.166492 -0.069408 0.878923
0.168063 -0.069443 0.879365
0.169666 -0.069491 0.879972
0.171325 -0.069560 0.880850
0.173010 -0.069639 0.881850
0.174734 -0.069733 0.883030
0.176648 -0.069899 0.885140
0.178677 -0.070108 0.887787
0.180759 -0.070334 0.890648
0.182905 -0.070581 0.893777
0.185007 -0.070808 0.896642
0.186983 -0.070982 0.898855
0.188815 -0.071100 0.900343
0.190630 -0.071209 0.901728
0.192280 -0.071256 0.902320
0.193863 -0.071277 0.902589
0.197219 -0.071945 0.911044
0.007667 -0.069389 0.897948
0.009177 -0.069328 0.897169
0.010682 -0.069249 0.896138
0.012177 -0.069136 0.894674
0.013664 -0.069007 0.893013
0.015151 -0.068906 0.891701
0.016635 -0.068807 0.890425
0.018124 -0.068743 0.889598
0.019615 -0.068702 0.889060
0.021108 -0.068669 0.888637
0.022597 -0.068628 0.888111
0.024084 -0.068585 0.887548
0.025559 -0.068519 0.886701
0.027030 -0.068447 0.885770
0.028506 -0.068397 0.885111
0.029990 -0.068368 0.884745
0.031471 -0.068336 0.884332
0.032963 -0.068329 0.884237
0.034467 -0.068347 0.884469
0.035955 -0.068335 0.884313
0.037462 -0.068356 0.884586
0.038988 -0.068410 0.885284
0.040515 -0.068461 0.885945
0.042037 -0.068500 0.886449
0.043587 -0.068581 0.887503
0.045125 -0.068638 0.888238
0.046666 -0.068696 0.888985
0.048218 -0.068767 0.889906
0.049793 -0.068864 0.891160
0.051374 -0.068964 0.892455
0.052967 -0.069073 0.893871
0.054559 -0.069176 0.895203
0.056138 -0.069257 0.896247
0.057700 -0.069313 0.896974
0.059222 -0.069321 0.897072
0.060696 -0.069272 0.896441
0.062151 -0.069204 0.895561
0.063570 -0.069101 0.894225
0.064979 -0.068993 0.892824
0.066374 -0.068874 0.891285
0.067771 -0.068761 0.889834
0.069146 -0.068634 0.888183
0.070535 -0.068525 0.886767
0.071888 -0.068386 0.884972
0.073271 -0.068280 0.883601
0.074686 -0.068208 0.882668
0.076094 -0.068133 0.881696
0.077507 -0.068065 0.880819
0.078938 -0.068015 0.880168
0.080344 -0.067945 0.879272
0.081740 -0.067870 0.878295
0.083140 -0.067801 0.877399
0.084528 -0.067725 0.876421
0.085898 -0.067637 0.875280
0.087286 -0.067566 0.874360
0.088681 -0.067502 0.873541
0.090094 -0.067455 0.872922
0.091516 -0.067415 0.872412
