1703
0.137417 -0.089104 0.912798
0.138770 -0.088982 0.911547
0.140146 -0.088877 0.910474
0.141606 -0.088828 0.909970
0.143133 -0.088820 0.909893
0.144737 -0.088861 0.910308
0.146414 -0.088945 0.911169
0.148107 -0.089037 0.912111
0.149805 -0.089130 0.913061
0.151496 -0.089217 0.913951
0.153234 -0.089329 0.915101
0.154934 -0.089417 0.916002
0.156631 -0.089502 0.916875
0.158343 -0.089594 0.917815
-0.018829 -0.089408 0.932096
-0.017209 -0.089177 0.929694
-0.015596 -0.088946 0.927284
-0.013983 -0.088656 0.924254
-0.012375 -0.088332 0.920881
-0.010777 -0.087991 0.917328
-0.009186 -0.087612 0.913371
-0.007608 -0.087228 0.909373
-0.006046 -0.086871 0.905652
-0.004501 -0.086598 0.902808
-0.002966 -0.086356 0.900284
-0.001441 -0.086176 0.898399
0.000077 -0.086015 0.896721
0.001590 -0.085832 0.894819
0.003097 -0.085687 0.893310
0.004599 -0.085535 0.891718
0.006096 -0.085386 0.890171
0.007589 -0.085257 0.888820
0.009080 -0.085143 0.887641
0.010564 -0.085013 0.886277
0.012045 -0.084887 0.884964
0.013522 -0.084771 0.883752
0.014996 -0.084658 0.882580
0.016474 -0.084581 0.881778
0.017950 -0.084513 0.881072
0.019429 -0.084469 0.880610
0.020901 -0.084402 0.879907
0.022372 -0.084341 0.879274
0.023842 -0.084279 0.878630
0.025309 -0.084218 0.877994
0.026766 -0.084135 0.877129
0.028226 -0.084067 0.876415
0.029680 -0.083989 0.875603
0.031126 -0.083896 0.874633
0.032575 -0.083818 0.873825
0.034030 -0.083766 0.873276
0.035483 -0.083709 0.872684
0.036933 -0.083652 0.872093
0.038390 -0.083615 0.871711
0.039854 -0.083594 0.871484
0.041319 -0.083578 0.871319
0.042786 -0.083566 0.871191
0.044280 -0.083607 0.871618
0.045772 -0.083640 0.871964
0.047257 -0.083659 0.872164
0.048742 -0.083677 0.872356
0.050245 -0.083724 0.872843
0.051721 -0.083726 0.872858
0.053202 -0.083734 0.872944
0.054688 -0.083749 0.873099
0.056180 -0.083773 0.873348
0.057658 -0.083775 0.873378
0.059147 -0.083793 0.873565
0.060647 -0.083825 0.873889
0.062132 -0.083835 0.873998
0.063612 -0.083838 0.874030
0.065096 -0.083847 0.874121
0.066579 -0.083853 0.874193
0.068044 -0.083838 0.874030
0.069515 -0.083830 0.873943
0.070998 -0.083837 0.874016
0.072468 -0.083828 0.873925
0.073939 -0.083820 0.873844
0.075407 -0.083810 0.873739
0.076882 -0.083808 0.873719
0.078344 -0.083792 0.873547
0.079844 -0.083816 0.873797
0.081369 -0.083865 0.874316
0.082893 -0.083912 0.874798
0.084441 -0.083980 0.875514
0.086006 -0.084063 0.876377
0.087576 -0.084148 0.877262
0.089126 -0.084212 0.877925
0.090694 -0.084289 0.878738
0.092271 -0.084373 0.879610
0.093818 -0.084427 0.880167
0.095375 -0.084488 0.880805
0.096979 -0.084589 0.881856
0.098639 -0.084734 0.883370
0.100285 -0.084863 0.884715
0.101993 -0.085040 0.886558
0.103702 -0.085213 0.888361
0.105407 -0.085377 0.890080
0.107091 -0.085520 0.891569
0.108801 -0.085680 0.893231
0.110515 -0.085839 0.894889
0.112236 -0.085998 0.896549
0.113977 -0.086168 0.898327
0.115853 -0.086435 0.901105
0.117823 -0.086764 0.904532
0.119832 -0.087112 0.908166
0.121837 -0.087450 0.911687
0.123779 -0.087734 0.914643
0.125583 -0.087914 0.916525
0.127240 -0.087989 0.917300
0.128818 -0.088008 0.917498
0.130289 -0.087953 0.916931
0.131711 -0.087868 0.916040
0.133074 -0.087745 0.914763
0.134420 -0.087615 0.913402
0.135776 -0.087493 0.912137
0.137115 -0.087364 0.910793
0.138489 -0.087260 0.909704
0.139874 -0.087165 0.908712
0.141347 -0.087126 0.908305
0.142888 -0.087129 0.908336
0.144508 -0.087180 0.908868
0.146173 -0.087256 0.909667
0.147850 -0.087338 0.910522
0.149544 -0.087429 0.911467
0.151244 -0.087521 0.912426
0.152980 -0.087632 0.913585
0.154690 -0.087726 0.914561
0.156382 -0.087808 0.915418
0.158075 -0.087889 0.916261
-0.020483 -0.088166 0.935682
-0.018842 -0.087891 0.932767
-0.017210 -0.087607 0.929751
-0.015587 -0.087321 0.926723
-0.013971 -0.087016 0.923479
-0.012364 -0.086691 0.920030
-0.010767 -0.086362 0.916545
-0.009179 -0.086002 0.912721
-0.007605 -0.085643 0.908910
-0.006045 -0.085316 0.905443
-0.004501 -0.085058 0.902704
-0.002967 -0.084848 0.900475
-0.001442 -0.084705 0.898952
0.000077 -0.084565 0.897467
0.001591 -0.084385 0.895559
0.003100 -0.084249 0.894117
0.004603 -0.084090 0.892424
0.006100 -0.083934 0.890778
0.007594 -0.083798 0.889332
0.009085 -0.083687 0.888151
0.010571 -0.083559 0.886795
0.012052 -0.083439 0.885519
0.013531 -0.083325 0.884314
0.015006 -0.083215 0.883142
0.016484 -0.083138 0.882327
0.017959 -0.083063 0.881534
0.019439 -0.083020 0.881072
0.020912 -0.082954 0.880368
0.022384 -0.082894 0.879734
0.023854 -0.082833 0.879090
0.025324 -0.082780 0.878527
0.026783 -0.082699 0.877663
0.028243 -0.082631 0.876943
0.029698 -0.082554 0.876124
0.031144 -0.082461 0.875140
0.032590 -0.082376 0.874242
0.034044 -0.082317 0.873614
0.035493 -0.082253 0.872928
0.036939 -0.082188 0.872241
0.038397 -0.082151 0.871849
0.039858 -0.082125 0.871572
0.041328 -0.082119 0.871507
0.042796 -0.082108 0.871400
0.044290 -0.082147 0.871809
0.045777 -0.082170 0.872052
0.047261 -0.082188 0.872243
0.048742 -0.082198 0.872354
0.050240 -0.082236 0.872759
0.051716 -0.082237 0.872765
0.053192 -0.082237 0.872767
0.054672 -0.082245 0.872849
0.056158 -0.082261 0.873015
0.057636 -0.082263 0.873035
0.059117 -0.082271 0.873122
0.060622 -0.082309 0.873526
0.062106 -0.082319 0.873632
0.063585 -0.082322 0.873666
0.065068 -0.082329 0.873739
0.066549 -0.082334 0.873797
0.068007 -0.082311 0.873547
0.069477 -0.082303 0.873463
0.070960 -0.082310 0.873541
0.072430 -0.082303 0.873463
0.073900 -0.082296 0.873387
0.075368 -0.082286 0.873285
0.076843 -0.082284 0.873264
0.078304 -0.082268 0.873093
0.079810 -0.082300 0.873427
0.081336 -0.082350 0.873961
0.082860 -0.082396 0.874450
0.084415 -0.082471 0.875248
0.085988 -0.082561 0.876199
0.087559 -0.082645 0.877098
0.089119 -0.082717 0.877852
0.090687 -0.082793 0.878668
0.092263 -0.082875 0.879530
0.093799 -0.082918 0.879990
0.095345 -0.082969 0.880533
0.096938 -0.083058 0.881481
0.098596 -0.083200 0.882984
0.100231 -0.083319 0.884242
0.101937 -0.083491 0.886074
0.103646 -0.083661 0.887882
0.105350 -0.083823 0.889599
0.107035 -0.083965 0.891101
0.108744 -0.084122 0.892766
0.110459 -0.084278 0.894429
0.112189 -0.084443 0.896177
0.113942 -0.084619 0.898048
0.115818 -0.084882 0.900836
0.117763 -0.085188 0.904076
0.119742 -0.085509 0.907485
0.121704 -0.085810 0.910688
0.123605 -0.086062 0.913357
0.125384 -0.086224 0.915073
0.127051 -0.086305 0.915938
0.128628 -0.086325 0.916145
0.130097 -0.086272 0.915585
0.131503 -0.086179 0.914598
0.132847 -0.086048 0.913204
0.134162 -0.085901 0.911652
0.135503 -0.085774 0.910305
0.136829 -0.085641 0.908893
0.138202 -0.085540 0.907815
0.139583 -0.085446 0.906820
0.141052 -0.085407 0.906409
0.142603 -0.085418 0.906523
0.144234 -0.085477 0.907147
0.145898 -0.085553 0.907959
0.147573 -0.085634 0.908820
0.149262 -0.085722 0.909751
0.150972 -0.085820 0.910790
0.152723 -0.085938 0.912047
0.154465 -0.086050 0.913230
0.156188 -0.086149 0.914280
0.157891 -0.086235 0.915196
-0.022130 -0.088426 0.938446
-0.023771 -0.087035 0.940603
-0.022144 -0.086889 0.939030
-0.020505 -0.086672 0.936687
-0.018863 -0.086406 0.933804
-0.017221 -0.086089 0.930380
-0.015587 -0.085753 0.926749
-0.013968 -0.085431 0.923268
-0.012358 -0.085092 0.919610
-0.010762 -0.084763 0.916052
-0.009177 -0.084430 0.912450
-0.007604 -0.084096 0.908848
-0.006046 -0.083793 0.905570
-0.004502 -0.083549 0.902927
-0.002968 -0.083359 0.900879
-0.001443 -0.083235 0.899542
0.000077 -0.083116 0.898249
0.001593 -0.082948 0.896438
0.003103 -0.082814 0.894992
0.004607 -0.082647 0.893184
0.006105 -0.082484 0.891424
0.007598 -0.082340 0.889870
0.009091 -0.082230 0.888681
0.010578 -0.082113 0.887412
0.012062 -0.082004 0.886234
0.013542 -0.081895 0.885057
0.015019 -0.081786 0.883880
0.016496 -0.081701 0.882963
0.017970 -0.081618 0.882066
0.019449 -0.081568 0.881523
0.020925 -0.081511 0.880906
0.022398 -0.081454 0.880286
0.023869 -0.081394 0.879642
0.025340 -0.081342 0.879084
0.026800 -0.081262 0.878216
0.028258 -0.081188 0.877414
0.029717 -0.081119 0.876672
0.031163 -0.081028 0.875682
0.032610 -0.080945 0.874789
0.034061 -0.080878 0.874066
0.035507 -0.080805 0.873280
0.036950 -0.080733 0.872497
0.038408 -0.080697 0.872104
0.039870 -0.080672 0.871840
0.041345 -0.080675 0.871873
0.042813 -0.080664 0.871752
0.044299 -0.080686 0.871988
0.045780 -0.080698 0.872125
0.047260 -0.080708 0.872225
0.048737 -0.080711 0.872264
0.050231 -0.080743 0.872602
0.051706 -0.080743 0.872602
0.053181 -0.080742 0.872596
0.054662 -0.080750 0.872681
0.056143 -0.080758 0.872773
0.057620 -0.080761 0.872798
0.059100 -0.080767 0.872866
0.060598 -0.080797 0.873186
0.062075 -0.080799 0.873207
0.063554 -0.080802 0.873239
0.065035 -0.080807 0.873300
0.066515 -0.080812 0.873348
0.067971 -0.080788 0.873093
0.069441 -0.080781 0.873014
0.070923 -0.080788 0.873093
0.072393 -0.080781 0.873021
0.073863 -0.080774 0.872944
0.075331 -0.080766 0.872858
0.076806 -0.080765 0.872843
0.078267 -0.080750 0.872680
0.079779 -0.080788 0.873093
0.081306 -0.080838 0.873635
0.082830 -0.080884 0.874129
0.084393 -0.080965 0.875011
0.085981 -0.081068 0.876119
0.087553 -0.081153 0.877037
0.089122 -0.081231 0.877886
0.090705 -0.081320 0.878847
0.092281 -0.081400 0.879704
0.093808 -0.081434 0.880073
0.095345 -0.081476 0.880530
0.096918 -0.081548 0.881302
0.098547 -0.081663 0.882546
0.100170 -0.081769 0.883699
0.101864 -0.081931 0.885442
0.103562 -0.082090 0.887163
0.105276 -0.082257 0.888971
0.106969 -0.082404 0.890555
0.108678 -0.082558 0.892227
0.110402 -0.082720 0.893972
0.112155 -0.082898 0.895900
0.113919 -0.083081 0.897868
0.115796 -0.083339 0.900660
0.117725 -0.083628 0.903783
0.119662 -0.083915 0.906883
0.121571 -0.084175 0.909693
0.123429 -0.084394 0.912062
0.125181 -0.084535 0.913591
0.126823 -0.084601 0.914295
0.128399 -0.084621 0.914515
0.129864 -0.084568 0.913945
0.131253 -0.084467 0.912856
0.132578 -0.084328 0.911355
0.133901 -0.084191 0.909874
0.135228 -0.084060 0.908459
0.136556 -0.083932 0.907075
0.137928 -0.083834 0.906016
0.139321 -0.083751 0.905118
0.140788 -0.083714 0.904712
0.142335 -0.083724 0.904822
0.143960 -0.083780 0.905424
0.145617 -0.083852 0.906210
0.147258 -0.083915 0.906882
0.148927 -0.083991 0.907705
0.150634 -0.084087 0.908750
0.152415 -0.084223 0.910212
0.154208 -0.084362 0.911713
0.155996 -0.084495 0.913156
0.157732 -0.084598 0.914272
0.159508 -0.086273 0.915591
0.159390 -0.084658 0.914916
-0.028571 -0.087125 0.941577
-0.030159 -0.085517 0.941445
-0.028568 -0.085520 0.941475
-0.026980 -0.087128 0.941612
-0.026978 -0.085524 0.941518
-0.025373 -0.087076 0.941047
-0.025372 -0.085477 0.941001
-0.023772 -0.085445 0.940655
-0.022153 -0.085331 0.939396
-0.020523 -0.085160 0.937513
-0.018885 -0.084918 0.934859
-0.017239 -0.084598 0.931328
-0.015596 -0.084230 0.927276
-0.013972 -0.083888 0.923512
-0.012357 -0.083525 0.919522
-0.010759 -0.083192 0.915854
-0.009176 -0.082875 0.912367
-0.007604 -0.082558 0.908878
-0.006047 -0.082277 0.905783
-0.004503 -0.082046 0.903231
-0.002970 -0.081868 0.901278
-0.001444 -0.081765 0.900139
0.000077 -0.081664 0.899034
0.001594 -0.081509 0.897325
0.003106 -0.081378 0.895880
0.004611 -0.081205 0.893978
0.006109 -0.081035 0.892110
0.007603 -0.080878 0.890373
0.009095 -0.080767 0.889157
0.010584 -0.080652 0.887893
0.012069 -0.080545 0.886715
0.013550 -0.080439 0.885540
0.015027 -0.080331 0.884351
0.016501 -0.080231 0.883254
0.017976 -0.080148 0.882339
0.019455 -0.080098 0.881790
0.020931 -0.080043 0.881186
0.022408 -0.079995 0.880661
0.023881 -0.079945 0.880102
0.025353 -0.079894 0.879546
0.026814 -0.079816 0.878681
0.028274 -0.079743 0.877888
0.029733 -0.079676 0.877146
0.031181 -0.079587 0.876166
0.032628 -0.079506 0.875269
0.034077 -0.079433 0.874466
0.035519 -0.079353 0.873590
0.036962 -0.079280 0.872781
0.038420 -0.079244 0.872392
0.039883 -0.079220 0.872123
0.041359 -0.079223 0.872157
0.042823 -0.079203 0.871937
0.044299 -0.079208 0.871988
0.045775 -0.079211 0.872023
0.047251 -0.079213 0.872043
0.048727 -0.079217 0.872093
0.050222 -0.079249 0.872440
0.051696 -0.079248 0.872434
0.053170 -0.079247 0.872417
0.054650 -0.079254 0.872496
0.056126 -0.079256 0.872519
0.057608 -0.079265 0.872617
0.059094 -0.079279 0.872774
0.060586 -0.079301 0.873014
0.062058 -0.079296 0.872957
0.063535 -0.079297 0.872977
0.065009 -0.079296 0.872957
0.066483 -0.079293 0.872930
0.067939 -0.079270 0.872680
0.069415 -0.079270 0.872680
0.070896 -0.079278 0.872759
0.072372 -0.079278 0.872765
0.073848 -0.079278 0.872767
0.075323 -0.079278 0.872765
0.076798 -0.079278 0.872759
0.078267 -0.079270 0.872680
0.079779 -0.079308 0.873093
0.081306 -0.079357 0.873632
0.082829 -0.079402 0.874124
0.084391 -0.079481 0.874998
0.085988 -0.079590 0.876200
0.087562 -0.079675 0.877129
0.089132 -0.079752 0.877985
0.090724 -0.079847 0.879027
0.092300 -0.079925 0.879884
0.093819 -0.079952 0.880179
0.095356 -0.079993 0.880634
0.096920 -0.080055 0.881314
0.098519 -0.080144 0.882292
0.100129 -0.080238 0.883335
0.101811 -0.080388 0.884978
0.103498 -0.080537 0.886618
0.105212 -0.080701 0.888432
0.106914 -0.080852 0.890093
0.108632 -0.081012 0.891848
0.110377 -0.081186 0.893767
0.112153 -0.081378 0.895887
0.113941 -0.081575 0.898045
0.115819 -0.081828 0.900840
0.117713 -0.082087 0.903686
0.119598 -0.082333 0.906396
0.121452 -0.082552 0.908806
0.123258 -0.082732 0.910792
0.124968 -0.082846 0.912037
0.126604 -0.082907 0.912720
0.128165 -0.082919 0.912845
0.129616 -0.082860 0.912195
0.130975 -0.082744 0.910923
0.132296 -0.082608 0.909420
0.133617 -0.082474 0.907948
0.134956 -0.082355 0.906631
0.136295 -0.082238 0.905348
0.137692 -0.082158 0.904469
0.139098 -0.082086 0.903671
0.140551 -0.082042 0.903188
0.142068 -0.082036 0.903126
0.143673 -0.082080 0.903615
0.145294 -0.082134 0.904199
0.146913 -0.082184 0.904755
0.148562 -0.082250 0.905482
0.150279 -0.082352 0.906604
0.152088 -0.082502 0.908256
0.153943 -0.082674 0.910149
0.155786 -0.082836 0.911931
0.157588 -0.082973 0.913436
0.159292 -0.083056 0.914353
0.162586 -0.085526 0.924293
0.160919 -0.083098 0.914813
-0.030149 -0.083895 0.941150
-0.028559 -0.083897 0.941178
-0.026970 -0.083904 0.941254
-0.025370 -0.083874 0.940921
-0.023773 -0.083854 0.940691
-0.022161 -0.083770 0.939750
-0.020537 -0.083627 0.938151
-0.018901 -0.083407 0.935681
-0.017255 -0.083097 0.932201
-0.015607 -0.082712 0.927887
-0.013973 -0.082331 0.923603
-0.012352 -0.081935 0.919168
-0.010752 -0.081581 0.915199
-0.009171 -0.081288 0.911906
-0.007604 -0.081018 0.908876
-0.006050 -0.080774 0.906147
-0.004506 -0.080570 0.903859
-0.002972 -0.080412 0.902079
-0.001446 -0.080311 0.900952
0.000077 -0.080221 0.899944
0.001596 -0.080078 0.898337
0.003109 -0.079935 0.896734
0.004615 -0.079765 0.894824
0.006114 -0.079589 0.892851
0.007608 -0.079419 0.890943
0.009101 -0.079304 0.889650
0.010590 -0.079197 0.888448
0.012075 -0.079084 0.887185
0.013556 -0.078978 0.885989
0.015033 -0.078864 0.884715
0.016506 -0.078757 0.883515
0.017981 -0.078674 0.882587
0.019460 -0.078625 0.882035
0.020938 -0.078573 0.881449
0.022417 -0.078534 0.881014
0.023893 -0.078492 0.880546
0.025366 -0.078442 0.879984
0.026827 -0.078365 0.879115
0.028288 -0.078294 0.878321
0.029750 -0.078236 0.877667
0.031200 -0.078150 0.876703
0.032649 -0.078071 0.875819
0.034098 -0.077998 0.875005
0.035541 -0.077919 0.874116
0.036981 -0.077840 0.873225
0.038443 -0.077812 0.872914
0.039907 -0.077789 0.872653
0.041380 -0.077784 0.872596
0.042843 -0.077762 0.872357
0.044315 -0.077758 0.872304
0.045783 -0.077746 0.872174
0.047254 -0.077740 0.872103
0.048727 -0.077738 0.872079
0.050212 -0.077754 0.872264
0.051681 -0.077745 0.872168
0.053153 -0.077743 0.872137
0.054632 -0.077749 0.872208
0.056114 -0.077760 0.872328
0.057602 -0.077777 0.872519
0.059093 -0.077799 0.872765
0.060580 -0.077813 0.872921
0.062051 -0.077807 0.872858
0.063527 -0.077808 0.872866
0.064996 -0.077800 0.872780
0.066470 -0.077798 0.872759
0.067933 -0.077784 0.872594
0.069408 -0.077784 0.872596
0.070884 -0.077784 0.872602
0.072365 -0.077791 0.872680
0.073840 -0.077791 0.872680
0.075316 -0.077791 0.872680
0.076791 -0.077791 0.872680
0.078267 -0.077791 0.872680
0.079779 -0.077828 0.873093
0.081305 -0.077876 0.873626
0.082828 -0.077919 0.874115
0.084390 -0.077997 0.874986
0.085988 -0.078104 0.876190
0.087562 -0.078187 0.877122
0.089140 -0.078271 0.878065
0.090742 -0.078372 0.879201
0.092320 -0.078450 0.880072
0.093850 -0.078485 0.880466
0.095386 -0.078525 0.880913
0.096932 -0.078571 0.881426
0.098509 -0.078640 0.882203
0.100105 -0.078722 0.883128
0.101767 -0.078853 0.884596
0.103445 -0.078993 0.886162
0.105158 -0.079154 0.887974
0.106857 -0.079302 0.889625
0.108585 -0.079465 0.891461
0.110353 -0.079654 0.893573
0.112154 -0.079861 0.895897
0.113968 -0.080071 0.898257
0.115847 -0.080321 0.901059
0.117716 -0.080557 0.903713
0.119550 -0.080764 0.906035
0.121339 -0.080936 0.907957
0.123077 -0.081070 0.909459
0.124744 -0.081154 0.910402
0.126352 -0.081198 0.910897
0.127881 -0.081192 0.910826
0.129314 -0.081124 0.910074
0.130670 -0.081011 0.908805
0.131991 -0.080879 0.907318
0.133324 -0.080757 0.905953
0.134676 -0.080650 0.904748
0.136040 -0.080552 0.903650
0.137459 -0.080488 0.902937
0.138890 -0.080433 0.902319
0.140344 -0.080392 0.901855
0.141859 -0.080387 0.901798
0.143444 -0.080421 0.902176
0.145016 -0.080446 0.902467
0.146601 -0.080479 0.902831
0.148230 -0.080535 0.903462
0.149942 -0.080634 0.904576
0.151777 -0.080797 0.906397
0.153690 -0.080997 0.908648
0.155599 -0.081192 0.910835
0.157457 -0.081356 0.912676
0.159211 -0.081465 0.913889
0.160852 -0.081514 0.914438
-0.031725 -0.082259 0.940691
-0.030137 -0.082267 0.940780
-0.028544 -0.082259 0.940696
-0.026956 -0.082266 0.940765
-0.025359 -0.082244 0.940517
-0.023764 -0.082225 0.940306
-0.022152 -0.082144 0.939375
-0.020537 -0.082036 0.938140
-0.018911 -0.081862 0.936146
-0.017263 -0.081555 0.932640
-0.015614 -0.081176 0.928304
-0.013978 -0.080795 0.923950
-0.012352 -0.080378 0.919180
-0.010747 -0.080000 0.914852
-0.009170 -0.079729 0.911755
-0.007605 -0.079483 0.908945
-0.006051 -0.079262 0.906420
-0.004509 -0.079079 0.904321
-0.002974 -0.078939 0.902724
-0.001447 -0.078841 0.901601
0.000078 -0.078760 0.900674
0.001597 -0.078626 0.899147
0.003111 -0.078471 0.897371
0.004618 -0.078296 0.895366
0.006118 -0.078122 0.893381
0.007611 -0.077947 0.891383
0.009103 -0.077821 0.889936
0.010594 -0.077716 0.888731
0.012078 -0.077596 0.887369
0.013557 -0.077476 0.885994
0.015031 -0.077356 0.884622
0.016503 -0.077244 0.883341
0.017975 -0.077156 0.882334
0.019453 -0.077101 0.881701
0.020932 -0.077056 0.881195
0.022411 -0.077019 0.880770
0.023887 -0.076979 0.880313
0.025361 -0.076937 0.879829
0.026822 -0.076861 0.878955
0.028282 -0.076790 0.878151
0.029745 -0.076734 0.877506
0.031200 -0.076664 0.876705
0.032653 -0.076595 0.875915
0.034108 -0.076538 0.875270
0.035558 -0.076475 0.874543
0.037006 -0.076411 0.873817
0.038470 -0.076385 0.873521
0.039935 -0.076363 0.873269
0.041405 -0.076351 0.873122
0.042865 -0.076322 0.872795
0.044329 -0.076303 0.872575
0.045793 -0.076283 0.872356
0.047254 -0.076263 0.872118
0.048722 -0.076252 0.871995
0.050196 -0.076252 0.871998
0.051659 -0.076235 0.871804
0.053126 -0.076225 0.871683
0.054599 -0.076225 0.871687
0.056086 -0.076243 0.871893
0.057579 -0.076268 0.872177
0.059076 -0.076298 0.872518
0.060563 -0.076312 0.872681
0.062044 -0.076319 0.872765
0.063520 -0.076320 0.872767
0.064983 -0.076305 0.872603
0.066456 -0.076303 0.872581
0.067925 -0.076296 0.872496
0.069400 -0.076296 0.872503
0.070877 -0.076298 0.872518
0.072365 -0.076312 0.872680
0.073840 -0.076312 0.872680
0.075316 -0.076312 0.872680
0.076791 -0.076312 0.872680
0.078267 -0.076312 0.872680
0.079772 -0.076341 0.873014
0.081290 -0.076380 0.873463
0.082812 -0.076422 0.873943
0.084374 -0.076499 0.874814
0.085963 -0.076597 0.875942
0.087545 -0.076685 0.876949
0.089139 -0.076781 0.878051
0.090751 -0.076890 0.879287
0.092331 -0.076968 0.880182
0.093879 -0.077017 0.880747
0.095416 -0.077056 0.881189
0.096943 -0.077085 0.881526
0.098499 -0.077137 0.882116
0.100093 -0.077216 0.883017
0.101734 -0.077329 0.884312
0.103402 -0.077459 0.885796
0.105114 -0.077617 0.887601
0.106812 -0.077761 0.889247
0.108529 -0.077914 0.891005
0.110309 -0.078108 0.893218
0.112134 -0.078328 0.895737
0.113965 -0.078546 0.898227
0.115845 -0.078792 0.901041
0.117710 -0.079022 0.903668
0.119514 -0.079204 0.905760
0.121249 -0.079338 0.907285
0.122946 -0.079443 0.908490
0.124559 -0.079492 0.909051
0.126123 -0.079509 0.909246
0.127610 -0.079479 0.908894
0.129038 -0.079412 0.908132
0.130404 -0.079309 0.906951
0.131750 -0.079196 0.905665
0.133098 -0.079087 0.904421
0.134475 -0.078998 0.903401
0.135839 -0.078903 0.902313
0.137246 -0.078835 0.901536
0.138676 -0.078782 0.900929
0.140128 -0.078742 0.900471
0.141627 -0.078729 0.900320
0.143206 -0.078760 0.900682
0.144773 -0.078784 0.900953
0.146355 -0.078816 0.901318
0.147983 -0.078872 0.901952
0.149692 -0.078969 0.903066
0.151519 -0.079126 0.904860
0.153457 -0.079337 0.907274
0.155398 -0.079545 0.909657
0.157308 -0.079734 0.911815
0.159100 -0.079860 0.913250
0.160758 -0.079916 0.913898
0.164027 -0.082331 0.923608
0.162333 -0.079931 0.914072
-0.033309 -0.080651 0.940531
-0.031709 -0.080623 0.940212
-0.030121 -0.080629 0.940277
-0.028530 -0.080623 0.940211
-0.026941 -0.080625 0.940233
-0.025345 -0.080605 0.940001
-0.023751 -0.080587 0.939789
-0.022140 -0.080508 0.938866
-0.020528 -0.080410 0.937725
-0.018906 -0.080256 0.935924
-0.017259 -0.079957 0.932438
-0.015612 -0.079592 0.928187
-0.013976 -0.079217 0.923812
-0.012350 -0.078804 0.918993
-0.010744 -0.078426 0.914587
-0.009169 -0.078179 0.911700
-0.007606 -0.077949 0.909026
-0.006053 -0.077752 0.906727
-0.004511 -0.077581 0.904736
-0.002976 -0.077452 0.903225
-0.001447 -0.077355 0.902100
0.000078 -0.077275 0.901169
0.001598 -0.077143 0.899623
0.003112 -0.076975 0.897668
0.004619 -0.076793 0.895545
0.006119 -0.076620 0.893531
0.007612 -0.076443 0.891463
0.009103 -0.076312 0.889934
0.010594 -0.076209 0.888732
0.012076 -0.076083 0.887266
0.013552 -0.075950 0.885714
0.015025 -0.075825 0.884253
0.016494 -0.075708 0.882894
0.017966 -0.075622 0.881883
0.019443 -0.075567 0.881249
0.020923 -0.075530 0.880819
0.022403 -0.075501 0.880480
0.023880 -0.075463 0.880035
0.025354 -0.075422 0.879554
0.026813 -0.075346 0.878670
0.028270 -0.075270 0.877778
0.029732 -0.075214 0.877127
0.031190 -0.075153 0.876418
0.032645 -0.075094 0.875724
0.034108 -0.075054 0.875263
0.035565 -0.075007 0.874720
0.037021 -0.074962 0.874185
0.038491 -0.074944 0.873982
0.039961 -0.074930 0.873820
0.041427 -0.074911 0.873595
0.042887 -0.074882 0.873255
0.044344 -0.074849 0.872867
0.045804 -0.074823 0.872568
0.047261 -0.074794 0.872235
0.048722 -0.074774 0.872000
0.050186 -0.074758 0.871813
0.051642 -0.074732 0.871513
0.053103 -0.074715 0.871313
0.054572 -0.074709 0.871244
0.056058 -0.074728 0.871456
0.057551 -0.074752 0.871746
0.059048 -0.074782 0.872093
0.060534 -0.074797 0.872264
0.062015 -0.074804 0.872354
0.063490 -0.074805 0.872356
0.064952 -0.074790 0.872183
0.066424 -0.074788 0.872157
0.067891 -0.074779 0.872061
0.069367 -0.074781 0.872079
0.070849 -0.074789 0.872177
0.072345 -0.074811 0.872432
0.073827 -0.074819 0.872518
0.075309 -0.074826 0.872602
0.076791 -0.074832 0.872680
0.078267 -0.074832 0.872680
0.079765 -0.074854 0.872930
0.081281 -0.074892 0.873369
0.082803 -0.074932 0.873844
0.084365 -0.075007 0.874721
0.085946 -0.075098 0.875770
0.087535 -0.075190 0.876850
0.089128 -0.075284 0.877947
0.090750 -0.075399 0.879281
0.092334 -0.075478 0.880205
0.093899 -0.075540 0.880929
0.095436 -0.075578 0.881369
0.096953 -0.075599 0.881614
0.098490 -0.075635 0.882035
0.100082 -0.075711 0.882921
0.101704 -0.075807 0.884047
0.103362 -0.075927 0.885447
0.105071 -0.076081 0.887237
0.106768 -0.076222 0.888880
0.108474 -0.076365 0.890551
0.110274 -0.076569 0.892932
0.112122 -0.076801 0.895634
0.113976 -0.077031 0.898316
0.115858 -0.077274 0.901147
0.117710 -0.077490 0.903668
0.119464 -0.077637 0.905379
0.121146 -0.077734 0.906517
0.122791 -0.077805 0.907342
0.124351 -0.077821 0.907535
0.125873 -0.077814 0.907445
0.127340 -0.077773 0.906972
0.128752 -0.077699 0.906114
0.130117 -0.077600 0.904956
0.131489 -0.077507 0.903873
0.132876 -0.077425 0.902914
0.134280 -0.077354 0.902091
0.135669 -0.077277 0.901186
0.137087 -0.077218 0.900495
0.138530 -0.077173 0.899977
0.139981 -0.077135 0.899527
0.141464 -0.077114 0.899287
0.143028 -0.077137 0.899557
0.144578 -0.077153 0.899740
0.146145 -0.077177 0.900026
0.147758 -0.077225 0.900585
0.149452 -0.077314 0.901617
0.151259 -0.077459 0.903308
0.153206 -0.077671 0.905786
0.155172 -0.077890 0.908333
0.157113 -0.078091 0.910682
0.158953 -0.078239 0.912408
0.160657 -0.078318 0.913327
0.162248 -0.078341 0.913593
-0.034892 -0.079039 0.940320
-0.033298 -0.079028 0.940197
-0.031694 -0.078994 0.939783
-0.030103 -0.078988 0.939721
-0.028508 -0.078970 0.939507
-0.026918 -0.078963 0.939423
-0.025323 -0.078942 0.939169
-0.023727 -0.078916 0.938865
-0.022120 -0.078847 0.938042
-0.020512 -0.078759 0.936988
-0.018895 -0.078623 0.935378
-0.017251 -0.078339 0.931999
-0.015606 -0.077993 0.927879
-0.013972 -0.077626 0.923514
-0.012347 -0.077231 0.918816
-0.010742 -0.076861 0.914410
-0.009169 -0.076634 0.911717
-0.007608 -0.076433 0.909322
-0.006056 -0.076249 0.907134
-0.004513 -0.076090 0.905233
-0.002978 -0.075970 0.903806
-0.001448 -0.075860 0.902500
0.000078 -0.075774 0.901481
0.001599 -0.075643 0.899923
0.003113 -0.075463 0.897784
0.004619 -0.075276 0.895550
0.006119 -0.075104 0.893513
0.007611 -0.074923 0.891352
0.009102 -0.074788 0.889752
0.010591 -0.074686 0.888541
0.012071 -0.074547 0.886888
0.013544 -0.074402 0.885161
0.015014 -0.074272 0.883606
0.016481 -0.074150 0.882160
0.017950 -0.074059 0.881078
0.019425 -0.074005 0.880432
0.020903 -0.073968 0.879995
0.022382 -0.073940 0.879662
0.023858 -0.073904 0.879229
0.025331 -0.073864 0.878762
0.026791 -0.073796 0.877945
0.028249 -0.073727 0.877128
0.029710 -0.073672 0.876478
0.031173 -0.073627 0.875941
0.032634 -0.073584 0.875426
0.034104 -0.073562 0.875161
0.035569 -0.073532 0.874813
0.037034 -0.073504 0.874469
0.038508 -0.073495 0.874370
0.039982 -0.073489 0.874292
0.041449 -0.073468 0.874050
0.042909 -0.073439 0.873702
0.044366 -0.073406 0.873309
0.045823 -0.073374 0.872928
0.047275 -0.073338 0.872502
0.048727 -0.073303 0.872088
0.050180 -0.073272 0.871712
0.051631 -0.073239 0.871326
0.053087 -0.073216 0.871045
0.054550 -0.073203 0.870892
0.056034 -0.073219 0.871085
0.057525 -0.073242 0.871360
0.059016 -0.073265 0.871633
0.060508 -0.073287 0.871893
0.061989 -0.073296 0.871995
0.063464 -0.073296 0.872002
0.064925 -0.073281 0.871824
0.066396 -0.073278 0.871788
0.067856 -0.073263 0.871608
0.069331 -0.073265 0.871626
0.070819 -0.073280 0.871809
0.072322 -0.073309 0.872157
0.073812 -0.073325 0.872341
0.075302 -0.073340 0.872518
0.076791 -0.073353 0.872680
0.078267 -0.073353 0.872680
0.079764 -0.073373 0.872921
0.081280 -0.073410 0.873355
0.082793 -0.073442 0.873741
0.084347 -0.073510 0.874543
0.085920 -0.073591 0.875504
0.087508 -0.073681 0.876583
0.089102 -0.073774 0.877684
0.090732 -0.073894 0.879108
0.092325 -0.073978 0.880120
0.093899 -0.074047 0.880929
0.095436 -0.074084 0.881369
0.096961 -0.074111 0.881694
0.098500 -0.074147 0.882121
0.100092 -0.074221 0.883010
0.101713 -0.074315 0.884127
0.103370 -0.074432 0.885517
0.105060 -0.074569 0.887144
0.106745 -0.074699 0.888693
0.108429 -0.074824 0.890180
0.110225 -0.075022 0.892534
0.112082 -0.075256 0.895321
0.113960 -0.075498 0.898191
0.115846 -0.075738 0.901053
0.117695 -0.075948 0.903553
0.119421 -0.076075 0.905055
0.121065 -0.076146 0.905909
0.122660 -0.076186 0.906377
0.124181 -0.076179 0.906294
0.125684 -0.076161 0.906083
0.127133 -0.076112 0.905497
0.128530 -0.076033 0.904557
0.129909 -0.075944 0.903508
0.131309 -0.075871 0.902633
0.132710 -0.075800 0.901787
0.134139 -0.075746 0.901142
0.135553 -0.075685 0.900417
0.136986 -0.075635 0.899829
0.138428 -0.075592 0.899318
0.139876 -0.075553 0.898851
0.141330 -0.075518 0.898431
0.142863 -0.075525 0.898524
0.144397 -0.075534 0.898619
0.145964 -0.075558 0.898910
0.147563 -0.075599 0.899394
0.149253 -0.075684 0.900414
0.151042 -0.075819 0.902010
0.152967 -0.076018 0.904378
0.154914 -0.076223 0.906824
0.156868 -0.076428 0.909261
0.158721 -0.076581 0.911076
0.160457 -0.076674 0.912188
0.163655 -0.077458 0.921512
-0.036482 -0.077446 0.940339
-0.034885 -0.077430 0.940141
-0.033286 -0.077408 0.939870
-0.031679 -0.077364 0.939341
-0.030084 -0.077346 0.939116
-0.028487 -0.077319 0.938799
-0.026894 -0.077303 0.938601
-0.025300 -0.077280 0.938324
-0.023701 -0.077240 0.937839
-0.022098 -0.077179 0.937097
-0.020491 -0.077093 0.936056
-0.018879 -0.076970 0.934553
-0.017238 -0.076701 0.931290
-0.015600 -0.076388 0.927487
-0.013967 -0.076032 0.923172
-0.012346 -0.075663 0.918691
-0.010743 -0.075314 0.914455
-0.009172 -0.075107 0.911940
-0.007611 -0.074925 0.909725
-0.006060 -0.074759 0.907716
-0.004516 -0.074609 0.905889
-0.002980 -0.074489 0.904437
-0.001449 -0.074367 0.902949
0.000078 -0.074268 0.901752
0.001599 -0.074126 0.900028
0.003112 -0.073935 0.897703
0.004618 -0.073742 0.895367
0.006117 -0.073568 0.893243
0.007608 -0.073383 0.891002
0.009097 -0.073244 0.889316
0.010585 -0.073136 0.888006
0.012061 -0.072985 0.886174
0.013530 -0.072827 0.884257
0.014996 -0.072685 0.882528
0.016459 -0.072559 0.880997
0.017924 -0.072462 0.879821
0.019396 -0.072403 0.879099
0.020871 -0.072367 0.878663
0.022351 -0.072346 0.878412
0.023824 -0.072311 0.877990
0.025295 -0.072273 0.877530
0.026756 -0.072213 0.876794
0.028215 -0.072153 0.876064
0.029677 -0.072107 0.875507
0.031148 -0.072084 0.875234
0.032615 -0.072057 0.874906
0.034091 -0.072050 0.874819
0.035566 -0.072042 0.874726
0.037037 -0.072029 0.874563
0.038516 -0.072029 0.874563
0.039998 -0.072036 0.874647
0.041469 -0.072022 0.874484
0.042934 -0.072000 0.874208
0.044392 -0.071967 0.873817
0.045845 -0.071930 0.873358
0.047294 -0.071887 0.872843
0.048741 -0.071845 0.872333
0.050185 -0.071802 0.871803
0.051631 -0.071763 0.871331
0.053082 -0.071732 0.870963
0.054538 -0.071712 0.870715
0.056016 -0.071720 0.870807
0.057500 -0.071734 0.870984
0.058984 -0.071749 0.871160
0.060481 -0.071777 0.871502
0.061962 -0.071786 0.871612
0.063437 -0.071788 0.871633
0.064897 -0.071773 0.871450
0.066373 -0.071776 0.871487
0.067827 -0.071755 0.871237
0.069301 -0.071756 0.871247
0.070795 -0.071777 0.871508
0.072304 -0.071813 0.871939
0.073796 -0.071831 0.872157
0.075294 -0.071853 0.872432
0.076791 -0.071874 0.872680
0.078267 -0.071874 0.872680
0.079757 -0.071887 0.872843
0.081265 -0.071916 0.873192
0.082769 -0.071940 0.873485
0.084314 -0.071999 0.874194
0.085878 -0.072071 0.875070
0.087464 -0.072159 0.876148
0.089065 -0.072256 0.877324
0.090704 -0.072381 0.878836
0.092305 -0.072471 0.879930
0.093889 -0.072545 0.880835
0.095435 -0.072589 0.881360
0.096971 -0.072623 0.881780
0.098519 -0.072666 0.882297
0.100113 -0.072740 0.883197
0.101735 -0.072832 0.884318
0.103391 -0.072946 0.885699
0.105060 -0.073065 0.887148
0.106724 -0.073178 0.888517
0.108384 -0.073285 0.889810
0.110165 -0.073469 0.892053
0.112022 -0.073699 0.894837
0.113913 -0.073945 0.897820
0.115801 -0.074181 0.900697
0.117661 -0.074395 0.903286
0.119370 -0.074509 0.904670
0.120986 -0.074562 0.905317
0.122542 -0.074578 0.905508
0.124036 -0.074555 0.905235
0.125499 -0.074515 0.904753
0.126933 -0.074459 0.904069
0.128328 -0.074382 0.903131
0.129732 -0.074311 0.902275
0.131158 -0.074255 0.901595
0.132599 -0.074209 0.901027
0.134042 -0.074164 0.900491
0.135457 -0.074106 0.899777
0.136876 -0.074050 0.899106
0.138304 -0.074001 0.898506
0.139736 -0.073955 0.897952
0.141186 -0.073919 0.897517
0.142715 -0.073926 0.897591
0.144246 -0.073932 0.897675
0.145794 -0.073948 0.897862
0.147388 -0.073986 0.898330
0.149061 -0.074063 0.899257
0.150817 -0.074179 0.900668
0.152708 -0.074358 0.902843
0.154647 -0.074557 0.905260
0.156597 -0.074758 0.907693
0.158452 -0.074909 0.909530
0.160216 -0.075015 0.910822
-0.036484 -0.075856 0.940381
-0.034882 -0.075830 0.940062
-0.033281 -0.075803 0.939727
-0.031669 -0.075747 0.939033
-0.030071 -0.075721 0.938708
-0.028471 -0.075686 0.938276
-0.026876 -0.075660 0.937958
-0.025280 -0.075629 0.937574
-0.023680 -0.075582 0.936995
-0.022079 -0.075524 0.936273
-0.020473 -0.075440 0.935232
-0.018862 -0.075320 0.933744
-0.017223 -0.075058 0.930492
-0.015593 -0.074782 0.927077
-0.013962 -0.074446 0.922903
-0.012346 -0.074107 0.918703
-0.010747 -0.073795 0.914834
-0.009177 -0.073606 0.912496
-0.007616 -0.073422 0.910217
-0.006064 -0.073268 0.908301
-0.004519 -0.073113 0.906376
-0.002981 -0.072972 0.904633
-0.001449 -0.072843 0.903035
0.000078 -0.072731 0.901646
0.001598 -0.072577 0.899737
0.003111 -0.072390 0.897412
0.004616 -0.072195 0.895000
0.006114 -0.072017 0.892793
0.007604 -0.071836 0.890549
0.009091 -0.071686 0.888695
0.010574 -0.071560 0.887123
0.012049 -0.071410 0.885262
0.013512 -0.071234 0.883089
0.014973 -0.071080 0.881182
0.016432 -0.070949 0.879551
0.017893 -0.070847 0.878291
0.019358 -0.070776 0.877402
0.020831 -0.070740 0.876962
0.022307 -0.070720 0.876716
0.023780 -0.070693 0.876380
0.025251 -0.070663 0.876008
0.026715 -0.070618 0.875446
0.028177 -0.070573 0.874895
0.029644 -0.070544 0.874535
0.031123 -0.070544 0.874534
0.032596 -0.070533 0.874393
0.034074 -0.070533 0.874393
0.035558 -0.070544 0.874533
0.037036 -0.070544 0.874533
0.038516 -0.070546 0.874556
0.040002 -0.070560 0.874734
0.041481 -0.070560 0.874734
0.042947 -0.070539 0.874469
0.044406 -0.070509 0.874101
0.045860 -0.070472 0.873639
0.047309 -0.070430 0.873117
0.048756 -0.070388 0.872595
0.050200 -0.070345 0.872064
0.051642 -0.070301 0.871522
0.053088 -0.070265 0.871071
0.054539 -0.070236 0.870721
0.056005 -0.070229 0.870631
0.057477 -0.070230 0.870637
0.058955 -0.070237 0.870723
0.060450 -0.070264 0.871062
0.061931 -0.070273 0.871169
0.063405 -0.070275 0.871192
0.064870 -0.070266 0.871091
0.066347 -0.070270 0.871140
0.067800 -0.070250 0.870892
0.069273 -0.070251 0.870899
0.070772 -0.070278 0.871233
0.072282 -0.070313 0.871670
0.073781 -0.070338 0.871979
0.075287 -0.070368 0.872348
0.076791 -0.070395 0.872680
0.078267 -0.070395 0.872680
0.079750 -0.070402 0.872767
0.081257 -0.070429 0.873107
0.082760 -0.070452 0.873394
0.084303 -0.070507 0.874080
0.085865 -0.070577 0.874946
0.087459 -0.070670 0.876097
0.089053 -0.070760 0.877206
0.090692 -0.070882 0.878721
0.092293 -0.070971 0.879821
0.093878 -0.071044 0.880734
0.095426 -0.071088 0.881275
0.096981 -0.071136 0.881869
0.098540 -0.071185 0.882484
0.100137 -0.071260 0.883407
0.101768 -0.071357 0.884609
0.103425 -0.071468 0.885985
0.105073 -0.071571 0.887260
0.106705 -0.071659 0.888354
0.108328 -0.071740 0.889355
0.110065 -0.071892 0.891242
0.111917 -0.072115 0.894003
0.113811 -0.072357 0.897014
0.115712 -0.072599 0.900007
0.117594 -0.072822 0.902775
0.119322 -0.072946 0.904306
0.120913 -0.072983 0.904769
0.122453 -0.072989 0.904846
0.123920 -0.072952 0.904387
0.125356 -0.072898 0.903717
0.126774 -0.072835 0.902940
0.128180 -0.072767 0.902088
0.129597 -0.072706 0.901341
0.131038 -0.072661 0.900771
0.132492 -0.072623 0.900305
0.133946 -0.072586 0.899849
0.135348 -0.072522 0.899054
0.136740 -0.072454 0.898216
0.138151 -0.072398 0.897517
0.139566 -0.072345 0.896860
0.140987 -0.072296 0.896251
0.142499 -0.072294 0.896231
0.144037 -0.072306 0.896376
0.145582 -0.072320 0.896556
0.147174 -0.072358 0.897024
0.148828 -0.072425 0.897851
0.150561 -0.072529 0.899139
0.152415 -0.072688 0.901115
0.154333 -0.072875 0.903424
0.156279 -0.073070 0.905850
0.158146 -0.073225 0.907774
0.159928 -0.073339 0.909179
-0.038093 -0.074301 0.940876
-0.036485 -0.074264 0.940418
-0.034883 -0.074239 0.940101
-0.033280 -0.074208 0.939699
-0.031662 -0.074140 0.938838
-0.030059 -0.074099 0.938323
-0.028458 -0.074063 0.937862
-0.026861 -0.074029 0.937434
-0.025263 -0.073992 0.936963
-0.023665 -0.073946 0.936392
-0.022067 -0.073897 0.935766
-0.020462 -0.073814 0.934719
-0.018850 -0.073690 0.933143
-0.017214 -0.073439 0.929968
-0.015585 -0.073176 0.926640
-0.013958 -0.072856 0.922579
-0.012343 -0.072534 0.918502
-0.010748 -0.072250 0.914911
-0.009180 -0.072081 0.912765
-0.007619 -0.071911 0.910615
-0.006067 -0.071761 0.908712
-0.004521 -0.071608 0.906774
-0.002981 -0.071454 0.904833
-0.001449 -0.071312 0.903025
0.000078 -0.071180 0.901360
0.001598 -0.071014 0.899260
0.003109 -0.070822 0.896831
0.004613 -0.070625 0.894338
0.006108 -0.070433 0.891903
0.007597 -0.070256 0.889652
0.009081 -0.070107 0.887772
0.010561 -0.069969 0.886024
0.012033 -0.069815 0.884078
0.013494 -0.069642 0.881890
0.014951 -0.069485 0.879891
0.016406 -0.069349 0.878172
0.017865 -0.069248 0.876898
0.019328 -0.069178 0.876005
0.020798 -0.069143 0.875566
0.022272 -0.069124 0.875318
0.023743 -0.069098 0.874989
0.025212 -0.069069 0.874627
0.026678 -0.069039 0.874241
0.028145 -0.069010 0.873879
0.029616 -0.068997 0.873720
0.031100 -0.069013 0.873911
0.032579 -0.069016 0.873949
0.034057 -0.069016 0.873949
0.035543 -0.069032 0.874160
0.037024 -0.069039 0.874245
0.038508 -0.069049 0.874370
0.039998 -0.069071 0.874647
0.041489 -0.069090 0.874897
0.042960 -0.069077 0.874734
0.044425 -0.069057 0.874469
0.045884 -0.069027 0.874101
0.047337 -0.068991 0.873639
0.048780 -0.068943 0.873033
0.050225 -0.068901 0.872502
0.051669 -0.068859 0.871966
0.053110 -0.068816 0.871429
0.054555 -0.068782 0.870987
0.056011 -0.068760 0.870721
0.057472 -0.068747 0.870553
0.058938 -0.068741 0.870475
0.060427 -0.068761 0.870723
0.061901 -0.068763 0.870750
0.063374 -0.068764 0.870770
0.064845 -0.068763 0.870750
0.066321 -0.068768 0.870810
0.067775 -0.068749 0.870573
0.069248 -0.068750 0.870586
0.070752 -0.068781 0.870983
0.072261 -0.068816 0.871424
0.073767 -0.068847 0.871817
0.075280 -0.068883 0.872270
0.076791 -0.068915 0.872680
0.078273 -0.068921 0.872759
0.079764 -0.068935 0.872927
0.081272 -0.068962 0.873271
0.082775 -0.068984 0.873547
0.084317 -0.069037 0.874225
0.085872 -0.069100 0.875017
0.087459 -0.069185 0.876092
0.089044 -0.069266 0.877122
0.090674 -0.069378 0.878542
0.092275 -0.069465 0.879642
0.093859 -0.069537 0.880558
0.095408 -0.069581 0.881109
0.096981 -0.069641 0.881875
0.098561 -0.069704 0.882668
0.100160 -0.069778 0.883608
0.101803 -0.069881 0.884906
0.103458 -0.069988 0.886269
0.105086 -0.070075 0.887363
0.106694 -0.070146 0.888266
0.108303 -0.070216 0.889149
0.110005 -0.070342 0.890753
0.111833 -0.070546 0.893332
0.113724 -0.070783 0.896332
0.115626 -0.071021 0.899340
0.117499 -0.071235 0.902049
0.119229 -0.071357 0.903599
0.120816 -0.071392 0.904048
0.122331 -0.071384 0.903945
0.123782 -0.071340 0.903381
0.125213 -0.071285 0.902688
0.126630 -0.071224 0.901913
0.128035 -0.071157 0.901066
0.129464 -0.071106 0.900417
0.130919 -0.071069 0.899949
0.132385 -0.071039 0.899578
0.133839 -0.071004 0.899127
0.135236 -0.070939 0.898312
0.136622 -0.070870 0.897437
0.138003 -0.070800 0.896552
0.139401 -0.070741 0.895795
0.140805 -0.070686 0.895099
0.142289 -0.070671 0.894915
0.143801 -0.070670 0.894905
0.145342 -0.070684 0.895078
0.146917 -0.070714 0.895458
0.148554 -0.070772 0.896199
0.150283 -0.070874 0.897479
0.152113 -0.071019 0.899325
0.154008 -0.071193 0.901517
0.155934 -0.071377 0.903848
0.157814 -0.071536 0.905870
0.159625 -0.071662 0.907461
-0.038101 -0.072720 0.941056
-0.036490 -0.072681 0.940558
-0.034888 -0.072655 0.940214
-0.033283 -0.072622 0.939797
-0.031662 -0.072548 0.938839
-0.030052 -0.072494 0.938129
-0.028449 -0.072450 0.937564
-0.026849 -0.072409 0.937037
-0.025252 -0.072373 0.936568
-0.023655 -0.072330 0.936011
-0.022060 -0.072289 0.935482
-0.020456 -0.072209 0.934445
-0.018842 -0.072078 0.932750
-0.017206 -0.071830 0.929546
-0.015580 -0.071578 0.926282
-0.013952 -0.071265 0.922238
-0.012340 -0.070959 0.918273
-0.010750 -0.070711 0.915059
-0.009184 -0.070561 0.913127
-0.007624 -0.070411 0.911175
-0.006071 -0.070265 0.909294
-0.004524 -0.070114 0.907340
-0.002982 -0.069942 0.905111
-0.001449 -0.069774 0.902933
0.000078 -0.069603 0.900727
0.001596 -0.069412 0.898259
0.003105 -0.069203 0.895552
0.004605 -0.068991 0.892805
0.006096 -0.068783 0.890119
0.007581 -0.068609 0.887854
0.009063 -0.068463 0.885973
0.010539 -0.068322 0.884146
0.012008 -0.068178 0.882287
0.013469 -0.068023 0.880273
0.014925 -0.067876 0.878377
0.016379 -0.067750 0.876741
0.017837 -0.067658 0.875554
0.019298 -0.067588 0.874653
0.020766 -0.067554 0.874212
0.022237 -0.067535 0.873962
0.023706 -0.067510 0.873637
0.025173 -0.067482 0.873281
0.026643 -0.067466 0.873073
0.028113 -0.067452 0.872894
0.029590 -0.067455 0.872925
0.031081 -0.067489 0.873373
0.032565 -0.067505 0.873579
0.034045 -0.067512 0.873660
0.035535 -0.067535 0.873959
0.037019 -0.067548 0.874134
0.038503 -0.067559 0.874277
0.040002 -0.067594 0.874720
0.041501 -0.067626 0.875145
0.042981 -0.067628 0.875163
0.044457 -0.067622 0.875084
0.045922 -0.067601 0.874812
0.047376 -0.067565 0.874352
0.048814 -0.067511 0.873646
0.050256 -0.067463 0.873028
0.051695 -0.067415 0.872415
0.053138 -0.067374 0.871882
0.054583 -0.067339 0.871429
0.056033 -0.067312 0.871071
0.057489 -0.067291 0.870807
0.058949 -0.067278 0.870637
0.060432 -0.067290 0.870793
0.061900 -0.067286 0.870736
0.063373 -0.067286 0.870746
0.064844 -0.067286 0.870736
0.066321 -0.067290 0.870799
0.067775 -0.067273 0.870568
0.069253 -0.067279 0.870651
0.070758 -0.067311 0.871062
0.072268 -0.067345 0.871508
0.073775 -0.067376 0.871902
0.075287 -0.067410 0.872348
0.076798 -0.067442 0.872759
0.078289 -0.067455 0.872927
0.079788 -0.067475 0.873186
0.081297 -0.067502 0.873541
0.082800 -0.067524 0.873820
0.084336 -0.067571 0.874429
0.085884 -0.067626 0.875139
0.087463 -0.067703 0.876136
0.089047 -0.067781 0.877150
0.090676 -0.067890 0.878558
0.092274 -0.067974 0.879638
0.093867 -0.068050 0.880628
0.095425 -0.068099 0.881266
0.097009 -0.068166 0.882124
0.098600 -0.068235 0.883016
0.100208 -0.068314 0.884040
0.101853 -0.068414 0.885341
0.103499 -0.068513 0.886621
0.105117 -0.068591 0.887626
0.106713 -0.068653 0.888425
0.108301 -0.068707 0.889131
0.109947 -0.068797 0.890287
0.111748 -0.068979 0.892650
0.113610 -0.069194 0.895433
0.115501 -0.069421 0.898368
0.117375 -0.069631 0.901090
0.119139 -0.069773 0.902920
0.120728 -0.069808 0.903384
0.122240 -0.069800 0.903275
0.123687 -0.069755 0.902688
0.125106 -0.069695 0.901916
0.126509 -0.069628 0.901051
0.127925 -0.069570 0.900298
0.129367 -0.069527 0.899739
0.130822 -0.069492 0.899283
0.132288 -0.069463 0.898918
0.133738 -0.069427 0.898450
0.135107 -0.069350 0.897451
0.136463 -0.069268 0.896394
0.137812 -0.069185 0.895312
0.139192 -0.069119 0.894456
0.140581 -0.069058 0.893674
0.142063 -0.069044 0.893493
0.143572 -0.069043 0.893482
0.145112 -0.069057 0.893664
0.146687 -0.069088 0.894058
0.148309 -0.069139 0.894719
0.150019 -0.069230 0.895903
0.151815 -0.069359 0.897562
0.153674 -0.069513 0.899565
0.155591 -0.069691 0.901862
0.157483 -0.069854 0.903969
0.159310 -0.069985 0.905666
-0.038115 -0.071152 0.941421
-0.036506 -0.071117 0.940959
-0.034900 -0.071086 0.940543
-0.033294 -0.071052 0.940096
-0.031669 -0.070972 0.939034
-0.030055 -0.070910 0.938217
-0.028449 -0.070860 0.937559
-0.026849 -0.070819 0.937022
-0.025252 -0.070785 0.936562
-0.023655 -0.070743 0.936015
-0.022060 -0.070704 0.935489
-0.020456 -0.070625 0.934452
-0.018840 -0.070489 0.932650
-0.017204 -0.070246 0.929435
-0.015579 -0.070005 0.926244
-0.013953 -0.069707 0.922301
-0.012342 -0.069416 0.918446
-0.010756 -0.069201 0.915610
-0.009190 -0.069063 0.913786
-0.007629 -0.068917 0.911851
-0.006076 -0.068788 0.910140
-0.004527 -0.068620 0.907922
-0.002983 -0.068417 0.905235
-0.001447 -0.068181 0.902106
0.000077 -0.067938 0.898891
0.001591 -0.067675 0.895422
0.003094 -0.067447 0.892398
0.004587 -0.067216 0.889343
0.006074 -0.067038 0.886993
0.007558 -0.066898 0.885141
0.009038 -0.066774 0.883501
0.010511 -0.066645 0.881788
0.011979 -0.066520 0.880136
0.013440 -0.066389 0.878403
0.014896 -0.066260 0.876698
0.016353 -0.066158 0.875341
0.017811 -0.066077 0.874267
0.019271 -0.066015 0.873457
0.020737 -0.065982 0.873016
0.022209 -0.065969 0.872838
0.023676 -0.065944 0.872517
0.025143 -0.065924 0.872244
0.026616 -0.065920 0.872194
0.028090 -0.065919 0.872188
0.029566 -0.065923 0.872241
0.031060 -0.065964 0.872773
0.032546 -0.065985 0.873051
0.034028 -0.065998 0.873221
0.035518 -0.066022 0.873549
0.037009 -0.066049 0.873895
0.038497 -0.066065 0.874121
0.040002 -0.066111 0.874726
0.041506 -0.066151 0.875248
0.042999 -0.066172 0.875525
0.044485 -0.066180 0.875638
0.045959 -0.066172 0.875535
0.047419 -0.066144 0.875162
0.048864 -0.066096 0.874531
0.050301 -0.066043 0.873819
0.051737 -0.065989 0.873112
0.053175 -0.065943 0.872494
0.054617 -0.065903 0.871966
0.056057 -0.065863 0.871444
0.057507 -0.065836 0.871085
0.058961 -0.065816 0.870814
0.060438 -0.065820 0.870877
0.061900 -0.065810 0.870736
0.063373 -0.065810 0.870746
0.064844 -0.065810 0.870736
0.066326 -0.065820 0.870871
0.067787 -0.065808 0.870721
0.069273 -0.065822 0.870894
0.070779 -0.065854 0.871317
0.072289 -0.065887 0.871762
0.073796 -0.065917 0.872151
0.075309 -0.065950 0.872594
0.076821 -0.065982 0.873014
0.078327 -0.066008 0.873358
0.079837 -0.066035 0.873718
0.081349 -0.066064 0.874095
0.082861 -0.066091 0.874457
0.084397 -0.066136 0.875056
0.085930 -0.066177 0.875600
0.087500 -0.066246 0.876504
0.089074 -0.066315 0.877416
0.090685 -0.066408 0.878652
0.092275 -0.066483 0.879642
0.093875 -0.066563 0.880707
0.095444 -0.066619 0.881443
0.097039 -0.066691 0.882398
0.098640 -0.066765 0.883379
0.100259 -0.066849 0.884484
0.101894 -0.066941 0.885699
0.103540 -0.067037 0.886971
0.105158 -0.067113 0.887978
0.106746 -0.067167 0.888699
0.108325 -0.067214 0.889323
0.109947 -0.067287 0.890287
0.111712 -0.067444 0.892361
0.113533 -0.067630 0.894828
0.115396 -0.067836 0.897548
0.117246 -0.068029 0.900103
0.119011 -0.068169 0.901948
0.120599 -0.068204 0.902420
0.122111 -0.068196 0.902317
0.123557 -0.068153 0.901740
0.124974 -0.068094 0.900968
0.126378 -0.068030 0.900116
0.127793 -0.067974 0.899368
0.129232 -0.067931 0.898800
0.130685 -0.067896 0.898343
0.132137 -0.067862 0.897893
0.133574 -0.067821 0.897345
0.134914 -0.067732 0.896169
0.136239 -0.067638 0.894925
0.137559 -0.067543 0.893670
0.138923 -0.067471 0.892724
0.140307 -0.067411 0.891931
0.141801 -0.067405 0.891842
0.143306 -0.067404 0.891826
0.144855 -0.067423 0.892083
0.146440 -0.067458 0.892547
0.148047 -0.067503 0.893141
0.149743 -0.067587 0.894252
0.151518 -0.067705 0.895809
0.153354 -0.067847 0.897689
0.155264 -0.068019 0.899964
0.157168 -0.068185 0.902160
0.159010 -0.068321 0.903962
-0.036515 -0.069540 0.941199
-0.034906 -0.069504 0.940722
-0.033300 -0.069472 0.940278
-0.031676 -0.069395 0.939242
-0.030058 -0.069327 0.938318
-0.028449 -0.069271 0.937564
-0.026849 -0.069232 0.937037
-0.025252 -0.069198 0.936568
-0.023657 -0.069164 0.936107
-0.022063 -0.069125 0.935588
-0.020459 -0.069049 0.934557
-0.018842 -0.068917 0.932767
-0.017206 -0.068679 0.929547
-0.015582 -0.068450 0.926453
-0.013961 -0.068180 0.922799
-0.012353 -0.067918 0.919247
-0.010769 -0.067729 0.916694
-0.009204 -0.067614 0.915133
-0.007642 -0.067484 0.913372
-0.006087 -0.067369 0.911825
-0.004529 -0.067115 0.908379
-0.002980 -0.066816 0.904332
-0.001444 -0.066483 0.899821
0.000077 -0.066145 0.895248
0.001582 -0.065796 0.890529
0.003078 -0.065601 0.887887
0.004566 -0.065407 0.885262
0.006050 -0.065269 0.883393
0.007531 -0.065166 0.882006
0.009010 -0.065078 0.880812
0.010482 -0.064973 0.879392
0.011951 -0.064878 0.878106
0.013415 -0.064778 0.876745
0.014875 -0.064679 0.875413
0.016333 -0.064595 0.874280
0.017793 -0.064530 0.873389
0.019254 -0.064477 0.872682
0.020719 -0.064444 0.872235
0.022187 -0.064426 0.871985
0.023655 -0.064408 0.871740
0.025123 -0.064394 0.871554
0.026600 -0.064403 0.871672
0.028079 -0.064415 0.871840
0.029557 -0.064425 0.871974
0.031050 -0.064464 0.872504
0.032538 -0.064490 0.872852
0.034021 -0.064504 0.873041
0.035508 -0.064523 0.873299
0.037003 -0.064556 0.873745
0.038493 -0.064577 0.874036
0.040002 -0.064629 0.874729
0.041510 -0.064674 0.875348
0.043013 -0.064709 0.875818
0.044508 -0.064730 0.876101
0.045993 -0.064736 0.876181
0.047460 -0.064715 0.875904
0.048905 -0.064669 0.875276
0.050348 -0.064622 0.874632
0.051779 -0.064562 0.873825
0.053213 -0.064509 0.873112
