1698
0.088458 -0.080886 0.843259
0.089743 -0.080760 0.841941
0.091031 -0.080640 0.840694
0.092343 -0.080545 0.839696
0.093681 -0.080474 0.838964
0.095011 -0.080400 0.838189
0.096372 -0.080353 0.837698
0.097737 -0.080311 0.837262
0.099112 -0.080278 0.836921
0.100490 -0.080249 0.836614
0.101904 -0.080249 0.836614
0.103310 -0.080242 0.836542
0.104723 -0.080242 0.836536
0.106137 -0.080241 0.836534
0.107552 -0.080242 0.836536
0.108967 -0.080242 0.836542
0.110390 -0.080249 0.836614
0.111734 -0.080198 0.836087
0.113059 -0.080135 0.835429
0.114386 -0.080076 0.834807
0.115725 -0.080026 0.834288
0.117064 -0.079977 0.833779
0.118475 -0.079978 0.833792
0.119928 -0.080007 0.834089
0.121383 -0.080037 0.834401
0.122855 -0.080077 0.834816
0.124362 -0.080138 0.835463
0.125884 -0.080209 0.836192
0.127398 -0.080271 0.836846
0.128913 -0.080334 0.837498
0.130454 -0.080411 0.838306
0.131989 -0.080483 0.839055
-0.042644 -0.089785 0.936031
-0.042600 -0.088106 0.935054
-0.040987 -0.088038 0.934325
-0.039359 -0.087929 0.933172
-0.037720 -0.087787 0.931663
-0.034163 -0.086752 0.920676
-0.032412 -0.086236 0.915204
-0.030716 -0.085820 0.910785
-0.029063 -0.085485 0.907237
-0.027425 -0.085163 0.903813
-0.025836 -0.084960 0.901664
-0.024253 -0.084756 0.899502
-0.022668 -0.084518 0.896968
-0.021086 -0.084253 0.894164
-0.019517 -0.084007 0.891551
-0.017956 -0.083757 0.888896
-0.016414 -0.083558 0.886787
-0.014885 -0.083387 0.884968
-0.013364 -0.083236 0.883360
-0.011851 -0.083099 0.881916
-0.010344 -0.082964 0.880479
-0.008839 -0.082811 0.878854
-0.007341 -0.082673 0.877389
-0.005848 -0.082544 0.876024
-0.004361 -0.082420 0.874708
-0.002879 -0.082336 0.873811
-0.001401 -0.082277 0.873184
0.000075 -0.082158 0.871926
0.001547 -0.082049 0.870765
0.003015 -0.081928 0.869488
0.004477 -0.081788 0.867994
0.005935 -0.081658 0.866621
0.007395 -0.081599 0.865996
0.008851 -0.081528 0.865244
0.010306 -0.081465 0.864571
0.011760 -0.081413 0.864022
0.013207 -0.081332 0.863157
0.014651 -0.081249 0.862283
0.016092 -0.081161 0.861343
0.017527 -0.081064 0.860318
0.018953 -0.080944 0.859037
0.020380 -0.080843 0.857965
0.021800 -0.080729 0.856762
0.023221 -0.080634 0.855749
0.024641 -0.080547 0.854831
0.026067 -0.080489 0.854217
0.027495 -0.080441 0.853705
0.028927 -0.080410 0.853371
0.030364 -0.080395 0.853215
0.031795 -0.080366 0.852903
0.033220 -0.080326 0.852479
0.034643 -0.080283 0.852024
0.036065 -0.080242 0.851587
0.037487 -0.080204 0.851185
0.038918 -0.080189 0.851025
0.040360 -0.080195 0.851091
0.041799 -0.080195 0.851092
0.043238 -0.080196 0.851099
0.044690 -0.080219 0.851343
0.046143 -0.080243 0.851598
0.047580 -0.080239 0.851557
0.049024 -0.080245 0.851625
0.050480 -0.080272 0.851914
0.051922 -0.080274 0.851935
0.053380 -0.080301 0.852216
0.054848 -0.080341 0.852637
0.056311 -0.080371 0.852965
0.057764 -0.080388 0.853135
0.059223 -0.080410 0.853371
0.060683 -0.080433 0.853618
0.062139 -0.080450 0.853799
0.063602 -0.080475 0.854064
0.065065 -0.080498 0.854311
0.066536 -0.080530 0.854649
0.068007 -0.080562 0.854989
0.069520 -0.080640 0.855815
0.071052 -0.080736 0.856837
0.072583 -0.080829 0.857821
0.074110 -0.080912 0.858702
0.075620 -0.080975 0.859367
0.077058 -0.080960 0.859209
0.078442 -0.080889 0.858455
0.079766 -0.080760 0.857091
0.081022 -0.080568 0.855051
0.082222 -0.080328 0.852506
0.083435 -0.080109 0.850183
0.084653 -0.079902 0.847980
0.085894 -0.079724 0.846092
0.087180 -0.079591 0.844686
0.088477 -0.079474 0.843438
0.089754 -0.079343 0.842047
0.091042 -0.079225 0.840795
0.092361 -0.079136 0.839858
0.093698 -0.079067 0.839122
0.095030 -0.078995 0.838352
0.096390 -0.078948 0.837856
0.097754 -0.078906 0.837412
0.099120 -0.078866 0.836993
0.100490 -0.078831 0.836614
0.101904 -0.078831 0.836614
0.103300 -0.078817 0.836464
0.104713 -0.078815 0.836451
0.106126 -0.078815 0.836444
0.107541 -0.078815 0.836451
0.108956 -0.078817 0.836464
0.110390 -0.078831 0.836614
0.111744 -0.078788 0.836164
0.113081 -0.078735 0.835594
0.114421 -0.078685 0.835064
0.115774 -0.078645 0.834638
0.117123 -0.078603 0.834199
0.118545 -0.078611 0.834281
0.119998 -0.078639 0.834582
0.121466 -0.078676 0.834971
0.122961 -0.078730 0.835541
0.124484 -0.078799 0.836280
0.126008 -0.078869 0.837015
0.127545 -0.078944 0.837816
0.129074 -0.079013 0.838547
0.130607 -0.079083 0.839287
-0.042549 -0.086418 0.933936
-0.040947 -0.086370 0.933414
-0.039331 -0.086286 0.932510
-0.037700 -0.086161 0.931159
-0.035976 -0.087375 0.927292
-0.036011 -0.085887 0.928198
-0.034271 -0.085461 0.923595
-0.032512 -0.084946 0.918026
-0.030790 -0.084479 0.912986
-0.029102 -0.084061 0.908469
-0.027438 -0.083669 0.904229
-0.025821 -0.083384 0.901142
-0.024236 -0.083173 0.898868
-0.022646 -0.082915 0.896076
-0.021060 -0.082638 0.893082
-0.019489 -0.082379 0.890286
-0.017932 -0.082139 0.887688
-0.016394 -0.081952 0.885677
-0.014868 -0.081794 0.883963
-0.013350 -0.081654 0.882451
-0.011840 -0.081527 0.881079
-0.010334 -0.081393 0.879631
-0.008830 -0.081244 0.878017
-0.007335 -0.081126 0.876750
-0.005845 -0.081011 0.875499
-0.004359 -0.080906 0.874365
-0.002879 -0.080838 0.873634
-0.001401 -0.080788 0.873093
0.000075 -0.080673 0.871846
0.001547 -0.080566 0.870698
0.003014 -0.080446 0.869399
0.004476 -0.080299 0.867803
0.005933 -0.080163 0.866340
0.007391 -0.080096 0.865616
0.008848 -0.080033 0.864936
0.010301 -0.079965 0.864195
0.011755 -0.079915 0.863661
0.013200 -0.079827 0.862711
0.014643 -0.079739 0.861753
0.016079 -0.079636 0.860637
0.017511 -0.079533 0.859526
0.018936 -0.079414 0.858246
0.020363 -0.079324 0.857273
0.021784 -0.079222 0.856165
0.023207 -0.079136 0.855243
0.024631 -0.079066 0.854485
0.026059 -0.079017 0.853958
0.027489 -0.078978 0.853535
0.028924 -0.078956 0.853290
0.030361 -0.078942 0.853141
0.031792 -0.078913 0.852825
0.033217 -0.078873 0.852401
0.034640 -0.078832 0.851956
0.036061 -0.078792 0.851517
0.037487 -0.078761 0.851188
0.038918 -0.078747 0.851031
0.040357 -0.078746 0.851025
0.041795 -0.078746 0.851022
0.043234 -0.078746 0.851025
0.044686 -0.078768 0.851266
0.046134 -0.078784 0.851438
0.047574 -0.078786 0.851456
0.049018 -0.078792 0.851521
0.050470 -0.078812 0.851736
0.051906 -0.078806 0.851676
0.053363 -0.078831 0.851943
0.054825 -0.078863 0.852285
0.056289 -0.078895 0.852631
0.057742 -0.078912 0.852814
0.059201 -0.078934 0.853060
0.060660 -0.078956 0.853296
0.062115 -0.078971 0.853460
0.063570 -0.078987 0.853629
0.065032 -0.079010 0.853875
0.066507 -0.079048 0.854284
0.067979 -0.079080 0.854637
0.069492 -0.079158 0.855475
0.071024 -0.079253 0.856499
0.072561 -0.079350 0.857554
0.074088 -0.079433 0.858447
0.075605 -0.079503 0.859204
0.077052 -0.079496 0.859134
0.078441 -0.079433 0.858449
0.079772 -0.079314 0.857157
0.081028 -0.079125 0.855118
0.082229 -0.078889 0.852575
0.083449 -0.078681 0.850324
0.084668 -0.078479 0.848138
0.085904 -0.078298 0.846184
0.087197 -0.078175 0.844851
0.088495 -0.078060 0.843608
0.089764 -0.077923 0.842134
0.091051 -0.077807 0.840880
0.092370 -0.077721 0.839943
0.093699 -0.077645 0.839127
0.095030 -0.077574 0.838355
0.096390 -0.077528 0.837856
0.097754 -0.077486 0.837412
0.099120 -0.077448 0.836993
0.100481 -0.077406 0.836542
0.101886 -0.077399 0.836464
0.103271 -0.077377 0.836228
0.104682 -0.077375 0.836203
0.106094 -0.077374 0.836192
0.107520 -0.077382 0.836288
0.108946 -0.077391 0.836385
0.110390 -0.077413 0.836614
0.111754 -0.077378 0.836236
0.113102 -0.077332 0.835748
0.114453 -0.077291 0.835300
0.115828 -0.077266 0.835031
0.117199 -0.077239 0.834741
0.118634 -0.077255 0.834908
0.120100 -0.077290 0.835289
0.121592 -0.077341 0.835839
0.123115 -0.077410 0.836582
0.124654 -0.077487 0.837422
0.126206 -0.077571 0.838329
0.127780 -0.077667 0.839359
0.129324 -0.077742 0.840169
0.130827 -0.077791 0.840702
-0.044481 -0.085514 0.941409
-0.042493 -0.084722 0.932699
-0.040903 -0.084697 0.932415
-0.039299 -0.084635 0.931737
-0.037679 -0.084536 0.930642
-0.036034 -0.084368 0.928794
-0.034349 -0.084085 0.925687
-0.032588 -0.083583 0.920153
-0.030848 -0.083086 0.914683
-0.029131 -0.082603 0.909369
-0.027436 -0.082130 0.904159
-0.025785 -0.081743 0.899894
-0.024197 -0.081519 0.897435
-0.022604 -0.081247 0.894439
-0.021016 -0.080953 0.891200
-0.019450 -0.080706 0.888480
-0.017899 -0.080487 0.886069
-0.016366 -0.080312 0.884148
-0.014844 -0.080166 0.882535
-0.013330 -0.080036 0.881108
-0.011822 -0.079912 0.879747
-0.010320 -0.079796 0.878459
-0.008821 -0.079673 0.877116
-0.007330 -0.079576 0.876042
-0.005842 -0.079481 0.874994
-0.004358 -0.079400 0.874106
-0.002878 -0.079342 0.873463
-0.001401 -0.079294 0.872936
0.000075 -0.079189 0.871777
0.001547 -0.079091 0.870706
0.003014 -0.078966 0.869326
0.004475 -0.078813 0.867645
0.005931 -0.078671 0.866076
0.007388 -0.078596 0.865258
0.008843 -0.078528 0.864502
0.010296 -0.078460 0.863760
0.011748 -0.078406 0.863158
0.013191 -0.078311 0.862122
0.014631 -0.078216 0.861071
0.016064 -0.078106 0.859862
0.017493 -0.077998 0.858671
0.018919 -0.077889 0.857471
0.020347 -0.077809 0.856590
0.021770 -0.077718 0.855584
0.023193 -0.077642 0.854750
0.024621 -0.077587 0.854141
0.026052 -0.077547 0.853705
0.027484 -0.077517 0.853371
0.028919 -0.077496 0.853141
0.030356 -0.077481 0.852980
0.031785 -0.077451 0.852651
0.033210 -0.077412 0.852222
0.034633 -0.077372 0.851780
0.036058 -0.077340 0.851432
0.037483 -0.077311 0.851111
0.038915 -0.077297 0.850951
0.040353 -0.077296 0.850942
0.041791 -0.077296 0.850942
0.043230 -0.077297 0.850951
0.044682 -0.077318 0.851188
0.046125 -0.077326 0.851279
0.047565 -0.077328 0.851294
0.049004 -0.077326 0.851279
0.050451 -0.077339 0.851420
0.051886 -0.077333 0.851354
0.053342 -0.077357 0.851612
0.054798 -0.077380 0.851863
0.056261 -0.077411 0.852207
0.057719 -0.077435 0.852471
0.059184 -0.077465 0.852808
0.060643 -0.077488 0.853055
0.062097 -0.077503 0.853221
0.063551 -0.077517 0.853373
0.065006 -0.077531 0.853535
0.066481 -0.077569 0.853943
0.067954 -0.077602 0.854315
0.069466 -0.077678 0.855153
0.070997 -0.077771 0.856174
0.072539 -0.077873 0.857299
0.074066 -0.077955 0.858195
0.075591 -0.078031 0.859038
0.077044 -0.078033 0.859052
0.078434 -0.077971 0.858374
0.079765 -0.077853 0.857076
0.081020 -0.077667 0.855029
0.082227 -0.077443 0.852559
0.083456 -0.077246 0.850391
0.084684 -0.077055 0.848291
0.085927 -0.076884 0.846411
0.087220 -0.076763 0.845078
0.088510 -0.076643 0.843751
0.089771 -0.076502 0.842206
0.091059 -0.076388 0.840947
0.092369 -0.076296 0.839930
0.093698 -0.076222 0.839122
0.095038 -0.076159 0.838424
0.096399 -0.076114 0.837934
0.097764 -0.076074 0.837492
0.099130 -0.076036 0.837071
0.100489 -0.075994 0.836608
0.101884 -0.075980 0.836451
0.103259 -0.075951 0.836131
0.104668 -0.075948 0.836099
0.106081 -0.075947 0.836088
0.107508 -0.075957 0.836197
0.108936 -0.075967 0.836307
0.110390 -0.075994 0.836614
0.111754 -0.075960 0.836236
0.113111 -0.075922 0.835819
0.114464 -0.075882 0.835377
0.115850 -0.075865 0.835190
0.117233 -0.075847 0.834985
0.118692 -0.075877 0.835319
0.120183 -0.075926 0.835865
0.121723 -0.076006 0.836739
0.123284 -0.076096 0.837732
0.124864 -0.076196 0.838831
0.126455 -0.076300 0.839983
0.128081 -0.076423 0.841334
0.129668 -0.076520 0.842403
0.131251 -0.076613 0.843426
-0.044008 -0.083025 0.931396
-0.042443 -0.083045 0.931615
-0.040873 -0.083054 0.931721
-0.039282 -0.083020 0.931339
-0.037675 -0.082949 0.930546
-0.036062 -0.082858 0.929518
-0.034409 -0.082662 0.927323
-0.032628 -0.082125 0.921295
-0.030870 -0.081593 0.915331
-0.029125 -0.081045 0.909183
-0.027395 -0.080477 0.902805
-0.025710 -0.079983 0.897266
-0.024132 -0.079784 0.895032
-0.022547 -0.079529 0.892173
-0.020965 -0.079251 0.889054
-0.019406 -0.079020 0.886460
-0.017864 -0.078830 0.884332
-0.016335 -0.078667 0.882511
-0.014819 -0.078541 0.881088
-0.013310 -0.078422 0.879759
-0.011807 -0.078317 0.878573
-0.010308 -0.078217 0.877462
-0.008814 -0.078122 0.876390
-0.007324 -0.078036 0.875429
-0.005839 -0.077966 0.874642
-0.004357 -0.077902 0.873923
-0.002878 -0.077853 0.873369
-0.001401 -0.077813 0.872930
0.000075 -0.077725 0.871939
0.001547 -0.077631 0.870880
0.003015 -0.077508 0.869500
0.004476 -0.077357 0.867805
0.005931 -0.077203 0.866080
0.007387 -0.077116 0.865102
0.008841 -0.077040 0.864251
0.010292 -0.076966 0.863424
0.011742 -0.076905 0.862738
0.013184 -0.076805 0.861618
0.014621 -0.076703 0.860474
0.016051 -0.076587 0.859168
0.017479 -0.076480 0.857966
0.018905 -0.076381 0.856865
0.020337 -0.076318 0.856158
0.021761 -0.076237 0.855248
0.023189 -0.076177 0.854568
0.024618 -0.076129 0.854038
0.026049 -0.076091 0.853610
0.027482 -0.076063 0.853290
0.028916 -0.076042 0.853060
0.030349 -0.076020 0.852808
0.031778 -0.075989 0.852457
0.033202 -0.075949 0.852018
0.034625 -0.075912 0.851595
0.036054 -0.075889 0.851340
0.037480 -0.075861 0.851025
0.038910 -0.075846 0.850856
0.040348 -0.075844 0.850841
0.041787 -0.075845 0.850843
0.043226 -0.075846 0.850862
0.044677 -0.075868 0.851105
0.046121 -0.075876 0.851194
0.047560 -0.075876 0.851199
0.048999 -0.075876 0.851194
0.050442 -0.075882 0.851266
0.051877 -0.075876 0.851194
0.053326 -0.075890 0.851354
0.054780 -0.075911 0.851593
0.056242 -0.075941 0.851924
0.057705 -0.075972 0.852270
0.059176 -0.076010 0.852701
0.060636 -0.076034 0.852963
0.062091 -0.076049 0.853135
0.063539 -0.076056 0.853215
0.064988 -0.076063 0.853296
0.066462 -0.076099 0.853699
0.067940 -0.076138 0.854139
0.069447 -0.076208 0.854917
0.070976 -0.076298 0.855931
0.072518 -0.076397 0.857044
0.074042 -0.076476 0.857924
0.075568 -0.076552 0.858783
0.077029 -0.076562 0.858887
0.078428 -0.076509 0.858298
0.079765 -0.076400 0.857076
0.081013 -0.076211 0.854955
0.082227 -0.075998 0.852559
0.083456 -0.075805 0.850397
0.084685 -0.075618 0.848303
0.085928 -0.075451 0.846424
0.087228 -0.075338 0.845158
0.088510 -0.075212 0.843751
0.089771 -0.075074 0.842201
0.091058 -0.074962 0.840938
0.092368 -0.074871 0.839920
0.093697 -0.074799 0.839114
0.095046 -0.074744 0.838497
0.096409 -0.074702 0.838020
0.097774 -0.074662 0.837582
0.099140 -0.074625 0.837157
0.100498 -0.074582 0.836684
0.101884 -0.074561 0.836444
0.103257 -0.074532 0.836115
0.104666 -0.074529 0.836082
0.106080 -0.074529 0.836081
0.107508 -0.074539 0.836195
0.108945 -0.074555 0.836380
0.110401 -0.074583 0.836691
0.111774 -0.074556 0.836387
0.113142 -0.074526 0.836046
0.114505 -0.074493 0.835678
0.115903 -0.074483 0.835573
0.117310 -0.074479 0.835529
0.118794 -0.074524 0.836034
0.120323 -0.074596 0.836836
0.121901 -0.074696 0.837961
0.123502 -0.074808 0.839214
0.125122 -0.074928 0.840564
0.126765 -0.075060 0.842041
0.128470 -0.075225 0.843892
0.130142 -0.075367 0.845486
0.131813 -0.075505 0.847034
-0.051793 -0.082884 0.929816
-0.053358 -0.082873 0.929693
-0.053315 -0.081233 0.928957
-0.051747 -0.081236 0.928988
-0.050230 -0.082900 0.929996
-0.050183 -0.081246 0.929108
-0.048676 -0.082930 0.930329
-0.048623 -0.081264 0.929313
-0.047116 -0.082953 0.930588
-0.047066 -0.081289 0.929598
-0.045563 -0.082989 0.930995
-0.045514 -0.081324 0.929999
-0.043965 -0.081368 0.930499
-0.042412 -0.081405 0.930927
-0.040852 -0.081433 0.931243
-0.039274 -0.081425 0.931154
-0.037683 -0.081389 0.930736
-0.036081 -0.081324 0.930001
-0.034459 -0.081207 0.928664
-0.032656 -0.080633 0.922092
-0.030874 -0.080052 0.915456
-0.029098 -0.079431 0.908349
-0.027343 -0.078799 0.901117
-0.025620 -0.078189 0.894149
-0.024053 -0.078008 0.892074
-0.022478 -0.077776 0.889422
-0.020909 -0.077536 0.886683
-0.019359 -0.077331 0.884330
-0.017829 -0.077177 0.882578
-0.016306 -0.077035 0.880951
-0.014796 -0.076926 0.879701
-0.013290 -0.076819 0.878475
-0.011793 -0.076739 0.877561
-0.010299 -0.076658 0.876643
-0.008809 -0.076588 0.875841
-0.007321 -0.076521 0.875068
-0.005838 -0.076467 0.874456
-0.004357 -0.076412 0.873820
-0.002878 -0.076371 0.873355
-0.001401 -0.076333 0.872921
0.000075 -0.076254 0.872022
0.001547 -0.076169 0.871052
0.003015 -0.076050 0.869686
0.004477 -0.075903 0.868002
0.005932 -0.075750 0.866261
0.007388 -0.075657 0.865193
0.008840 -0.075568 0.864176
0.010291 -0.075494 0.863334
0.011740 -0.075426 0.862545
0.013179 -0.075321 0.861345
0.014613 -0.075206 0.860033
0.016043 -0.075091 0.858722
0.017468 -0.074979 0.857443
0.018895 -0.074890 0.856424
0.020329 -0.074838 0.855821
0.021755 -0.074766 0.855003
0.023184 -0.074713 0.854399
0.024615 -0.074674 0.853950
0.026046 -0.074637 0.853527
0.027477 -0.074603 0.853141
0.028911 -0.074582 0.852897
0.030340 -0.074552 0.852551
0.031765 -0.074513 0.852107
0.033189 -0.074475 0.851675
0.034612 -0.074439 0.851266
0.036044 -0.074425 0.851099
0.037469 -0.074397 0.850786
0.038902 -0.074388 0.850681
0.040339 -0.074386 0.850656
0.041781 -0.074393 0.850737
0.043221 -0.074396 0.850775
0.044677 -0.074424 0.851097
0.046120 -0.074432 0.851185
0.047555 -0.074426 0.851113
0.048994 -0.074425 0.851105
0.050432 -0.074424 0.851097
0.051866 -0.074418 0.851025
0.053310 -0.074425 0.851106
0.054764 -0.074446 0.851341
0.056225 -0.074474 0.851667
0.057694 -0.074512 0.852093
0.059164 -0.074550 0.852527
0.060631 -0.074581 0.852884
0.062091 -0.074602 0.853132
0.063539 -0.074610 0.853215
0.064987 -0.074616 0.853290
0.066461 -0.074651 0.853691
0.067939 -0.074690 0.854128
0.069440 -0.074751 0.854827
0.070962 -0.074832 0.855754
0.072495 -0.074921 0.856778
0.074019 -0.074997 0.857649
0.075545 -0.075073 0.858516
0.077014 -0.075091 0.858715
0.078420 -0.075047 0.858217
0.079772 -0.074954 0.857151
0.081028 -0.074775 0.855110
0.082251 -0.074574 0.852804
0.083481 -0.074386 0.850653
0.084718 -0.074209 0.848637
0.085953 -0.074038 0.846673
0.087246 -0.073920 0.845326
0.088527 -0.073797 0.843915
0.089787 -0.073660 0.842357
0.091067 -0.073543 0.841021
0.092376 -0.073454 0.839998
0.093705 -0.073383 0.839186
0.095055 -0.073330 0.838577
0.096419 -0.073289 0.838110
0.097786 -0.073252 0.837685
0.099151 -0.073214 0.837248
0.100508 -0.073171 0.836766
0.101884 -0.073144 0.836451
0.103269 -0.073123 0.836209
0.104679 -0.073120 0.836184
0.106092 -0.073120 0.836178
0.107528 -0.073135 0.836355
0.108976 -0.073158 0.836612
0.110432 -0.073186 0.836930
0.111818 -0.073166 0.836711
0.113196 -0.073143 0.836447
0.114571 -0.073118 0.836159
0.115981 -0.073116 0.836134
0.117411 -0.073127 0.836254
0.118931 -0.073192 0.836998
0.120498 -0.073284 0.838053
0.122116 -0.073405 0.839441
0.123757 -0.073537 0.840949
0.125416 -0.073676 0.842542
0.127125 -0.073841 0.844430
0.128913 -0.074049 0.846803
0.130664 -0.074230 0.848874
0.132428 -0.074415 0.850986
-0.053288 -0.079618 0.928482
-0.051705 -0.079597 0.928240
-0.050135 -0.079596 0.928233
-0.048571 -0.079604 0.928330
-0.047012 -0.079622 0.928539
-0.045467 -0.079665 0.929031
-0.043929 -0.079723 0.929717
-0.042381 -0.079769 0.930247
-0.040831 -0.079813 0.930760
-0.039262 -0.079823 0.930872
-0.037683 -0.079812 0.930746
-0.036093 -0.079775 0.930319
-0.034505 -0.079739 0.929898
-0.032678 -0.079121 0.922695
-0.030867 -0.078484 0.915266
-0.029059 -0.077787 0.907130
-0.027278 -0.077086 0.898957
-0.025519 -0.076371 0.890615
-0.023966 -0.076220 0.888866
-0.022409 -0.076034 0.886697
-0.020853 -0.075828 0.884290
-0.019315 -0.075660 0.882329
-0.017797 -0.075547 0.881013
-0.016282 -0.075430 0.879647
-0.014776 -0.075333 0.878515
-0.013276 -0.075251 0.877560
-0.011783 -0.075189 0.876832
-0.010292 -0.075126 0.876099
-0.008805 -0.075073 0.875484
-0.007320 -0.075022 0.874889
-0.005837 -0.074978 0.874371
-0.004357 -0.074930 0.873820
-0.002878 -0.074890 0.873355
-0.001401 -0.074853 0.872921
0.000075 -0.074783 0.872108
0.001548 -0.074702 0.871156
0.003016 -0.074586 0.869806
0.004477 -0.074441 0.868114
0.005933 -0.074291 0.866361
0.007388 -0.074192 0.865212
0.008839 -0.074097 0.864098
0.010290 -0.074024 0.863245
0.011737 -0.073948 0.862367
0.013175 -0.073838 0.861087
0.014606 -0.073712 0.859617
0.016035 -0.073599 0.858294
0.017460 -0.073489 0.857011
0.018888 -0.073409 0.856082
0.020323 -0.073366 0.855576
0.021753 -0.073310 0.854927
0.023184 -0.073266 0.854412
0.024616 -0.073227 0.853955
0.026044 -0.073184 0.853454
0.027471 -0.073143 0.852980
0.028902 -0.073114 0.852645
0.030328 -0.073077 0.852213
0.031750 -0.073033 0.851695
0.033173 -0.072996 0.851269
0.034595 -0.072962 0.850863
0.036027 -0.072948 0.850700
0.037451 -0.072920 0.850378
0.038884 -0.072911 0.850275
0.040324 -0.072916 0.850327
0.041766 -0.072925 0.850430
0.043206 -0.072928 0.850465
0.044657 -0.072949 0.850714
0.046099 -0.072955 0.850788
0.047529 -0.072942 0.850634
0.048966 -0.072941 0.850625
0.050399 -0.072934 0.850541
0.051837 -0.072934 0.850537
0.053279 -0.072940 0.850615
0.054733 -0.072962 0.850862
0.056194 -0.072991 0.851202
0.057673 -0.073041 0.851793
0.059149 -0.073086 0.852307
0.060620 -0.073122 0.852736
0.062085 -0.073150 0.853060
0.063539 -0.073163 0.853215
0.064981 -0.073163 0.853215
0.066449 -0.073191 0.853535
0.067920 -0.073221 0.853889
0.069413 -0.073274 0.854499
0.070922 -0.073340 0.855269
0.072452 -0.073425 0.856268
0.073988 -0.073513 0.857292
0.075528 -0.073601 0.858320
0.077000 -0.073622 0.858559
0.078420 -0.073592 0.858218
0.079786 -0.073514 0.857306
0.081050 -0.073346 0.855349
0.082277 -0.073151 0.853071
0.083523 -0.072980 0.851080
0.084768 -0.072814 0.849139
0.086003 -0.072644 0.847162
0.087280 -0.072516 0.845661
0.088560 -0.072393 0.844235
0.089822 -0.072260 0.842684
0.091094 -0.072140 0.841276
0.092396 -0.072045 0.840176
0.093724 -0.071975 0.839351
0.095073 -0.071921 0.838732
0.096429 -0.071876 0.838197
0.097797 -0.071839 0.837776
0.099161 -0.071802 0.837334
0.100518 -0.071760 0.836849
0.101886 -0.071727 0.836464
0.103281 -0.071714 0.836307
0.104693 -0.071712 0.836294
0.106116 -0.071719 0.836367
0.107561 -0.071739 0.836606
0.109018 -0.071768 0.836938
0.110476 -0.071796 0.837266
0.111875 -0.071785 0.837138
0.113264 -0.071769 0.836949
0.114662 -0.071758 0.836825
0.116086 -0.071764 0.836892
0.117541 -0.071788 0.837173
0.119084 -0.071865 0.838078
0.120677 -0.071970 0.839299
0.122312 -0.072098 0.840788
0.123992 -0.072248 0.842542
0.125702 -0.072413 0.844460
0.127488 -0.072617 0.846844
0.129351 -0.072860 0.849676
0.131179 -0.073078 0.852221
0.133023 -0.073300 0.854810
-0.054842 -0.078022 0.928222
-0.053264 -0.078008 0.928055
-0.051670 -0.077970 0.927606
-0.050096 -0.077961 0.927504
-0.048523 -0.077954 0.927414
-0.046957 -0.077957 0.927450
-0.045405 -0.077983 0.927763
-0.043873 -0.078048 0.928536
-0.042331 -0.078101 0.929158
-0.040792 -0.078161 0.929881
-0.039237 -0.078195 0.930288
-0.037675 -0.078217 0.930550
-0.036098 -0.078209 0.930448
-0.034465 -0.078072 0.928824
-0.032618 -0.077415 0.921006
-0.030783 -0.076722 0.912753
-0.028953 -0.075969 0.903804
-0.027156 -0.075224 0.894941
-0.025433 -0.074607 0.887601
-0.023894 -0.074488 0.886176
-0.022353 -0.074347 0.884507
-0.020811 -0.074178 0.882494
-0.019284 -0.074044 0.880897
-0.017772 -0.073949 0.879766
-0.016263 -0.073850 0.878587
-0.014760 -0.073763 0.877551
-0.013265 -0.073697 0.876775
-0.011774 -0.073644 0.876146
-0.010286 -0.073598 0.875589
-0.008802 -0.073561 0.875148
-0.007319 -0.073526 0.874734
-0.005837 -0.073490 0.874306
-0.004357 -0.073451 0.873844
-0.002878 -0.073411 0.873369
-0.001401 -0.073374 0.872930
0.000075 -0.073312 0.872192
0.001548 -0.073239 0.871325
0.003016 -0.073127 0.869986
0.004478 -0.072984 0.868289
0.005934 -0.072836 0.866523
0.007388 -0.072731 0.865276
0.008838 -0.072625 0.864017
0.010289 -0.072553 0.863160
0.011735 -0.072473 0.862206
0.013173 -0.072365 0.860923
0.014602 -0.072235 0.859372
0.016030 -0.072123 0.858042
0.017454 -0.072014 0.856746
0.018884 -0.071943 0.855903
0.020319 -0.071902 0.855417
0.021751 -0.071855 0.854860
0.023185 -0.071819 0.854423
0.024616 -0.071780 0.853964
0.026042 -0.071731 0.853380
0.027466 -0.071683 0.852808
0.028893 -0.071647 0.852383
0.030316 -0.071603 0.851863
0.031734 -0.071554 0.851278
0.033157 -0.071519 0.850855
0.034578 -0.071484 0.850444
0.036009 -0.071470 0.850270
0.037432 -0.071442 0.849941
0.038865 -0.071434 0.849854
0.040304 -0.071440 0.849920
0.041747 -0.071449 0.850028
0.043185 -0.071452 0.850060
0.044635 -0.071472 0.850298
0.046076 -0.071477 0.850363
0.047504 -0.071464 0.850201
0.048941 -0.071463 0.850190
0.050373 -0.071455 0.850095
0.051810 -0.071455 0.850097
0.053252 -0.071462 0.850175
0.054711 -0.071490 0.850513
0.056172 -0.071520 0.850869
0.057651 -0.071570 0.851465
0.059132 -0.071620 0.852065
0.060608 -0.071663 0.852570
0.062074 -0.071691 0.852905
0.063534 -0.071711 0.853141
0.064981 -0.071717 0.853215
0.066442 -0.071737 0.853454
0.067912 -0.071766 0.853794
0.069398 -0.071810 0.854315
0.070905 -0.071873 0.855073
0.072442 -0.071963 0.856145
0.073992 -0.072064 0.857341
0.075541 -0.072159 0.858476
0.077022 -0.072187 0.858808
0.078450 -0.072165 0.858541
0.079824 -0.072095 0.857708
0.081097 -0.071938 0.855844
0.082327 -0.071749 0.853594
0.083576 -0.071583 0.851616
0.084812 -0.071411 0.849578
0.086038 -0.071237 0.847504
0.087300 -0.071098 0.845850
0.088573 -0.070972 0.844355
0.089842 -0.070847 0.842869
0.091115 -0.070730 0.841465
0.092409 -0.070631 0.840293
0.093735 -0.070560 0.839451
0.095090 -0.070513 0.838885
0.096446 -0.070467 0.838346
0.097824 -0.070439 0.838006
0.099189 -0.070402 0.837569
0.100554 -0.070367 0.837151
0.101922 -0.070334 0.836763
0.103319 -0.070322 0.836614
0.104723 -0.070315 0.836536
0.106156 -0.070327 0.836684
0.107602 -0.070348 0.836930
0.109062 -0.070377 0.837275
0.110523 -0.070406 0.837621
0.111941 -0.070408 0.837637
0.113354 -0.070405 0.837609
0.114775 -0.070409 0.837649
0.116224 -0.070429 0.837888
0.117704 -0.070467 0.838339
0.119271 -0.070555 0.839391
0.120878 -0.070665 0.840701
0.122528 -0.070797 0.842272
0.124224 -0.070952 0.844118
0.125985 -0.071141 0.846361
0.127818 -0.071366 0.849035
0.129729 -0.071629 0.852163
0.131603 -0.071865 0.854975
0.133439 -0.072076 0.857487
0.134877 -0.073523 0.857410
0.135241 -0.072264 0.859724
-0.056428 -0.078044 0.928488
-0.056379 -0.076404 0.927681
-0.054793 -0.076380 0.927389
-0.053213 -0.076363 0.927182
-0.051616 -0.076318 0.926641
-0.050042 -0.076307 0.926502
-0.048469 -0.076297 0.926388
-0.046900 -0.076292 0.926321
-0.045344 -0.076308 0.926525
-0.043810 -0.076365 0.927206
-0.042275 -0.076424 0.927924
-0.040743 -0.076492 0.928758
-0.039203 -0.076551 0.929467
-0.037655 -0.076599 0.930054
-0.036035 -0.076497 0.928815
-0.034348 -0.076237 0.925663
-0.032481 -0.075536 0.917151
-0.030629 -0.074800 0.908207
-0.028792 -0.074023 0.898773
-0.027040 -0.073392 0.891108
-0.025363 -0.072903 0.885171
-0.023839 -0.072817 0.884130
-0.022313 -0.072718 0.882928
-0.020784 -0.072588 0.881351
-0.019263 -0.072471 0.879930
-0.017754 -0.072385 0.878888
-0.016251 -0.072310 0.877974
-0.014751 -0.072233 0.877038
-0.013259 -0.072183 0.876432
-0.011771 -0.072144 0.875954
-0.010285 -0.072105 0.875490
-0.008801 -0.072070 0.875060
-0.007319 -0.072050 0.874818
-0.005838 -0.072016 0.874400
-0.004357 -0.071978 0.873943
-0.002878 -0.071938 0.873463
-0.001401 -0.071901 0.873014
0.000075 -0.071834 0.872192
0.001548 -0.071762 0.871325
0.003016 -0.071652 0.869986
0.004478 -0.071512 0.868284
0.005934 -0.071366 0.866514
0.007388 -0.071257 0.865188
0.008837 -0.071153 0.863925
0.010288 -0.071082 0.863069
0.011734 -0.071004 0.862123
0.013172 -0.070899 0.860846
0.014601 -0.070771 0.859291
0.016028 -0.070661 0.857953
0.017452 -0.070554 0.856651
0.018882 -0.070485 0.855814
0.020318 -0.070445 0.855336
0.021751 -0.070406 0.854860
0.023185 -0.070370 0.854423
0.024614 -0.070326 0.853889
0.026037 -0.070271 0.853217
0.027458 -0.070216 0.852551
0.028884 -0.070179 0.852107
0.030306 -0.070137 0.851595
0.031724 -0.070089 0.851015
0.033146 -0.070054 0.850588
0.034567 -0.070019 0.850156
0.035993 -0.069997 0.849894
0.037412 -0.069965 0.849505
0.038848 -0.069964 0.849489
0.040288 -0.069971 0.849571
0.041729 -0.069979 0.849671
0.043167 -0.069982 0.849704
0.044615 -0.069999 0.849920
0.046051 -0.069998 0.849909
0.047479 -0.069985 0.849746
0.048915 -0.069984 0.849738
0.050346 -0.069977 0.849653
0.051783 -0.069977 0.849649
0.053224 -0.069984 0.849735
0.054687 -0.070018 0.850142
0.056153 -0.070054 0.850586
0.057632 -0.070104 0.851190
0.059118 -0.070159 0.851864
0.060601 -0.070208 0.852457
0.062067 -0.070237 0.852808
0.063528 -0.070258 0.853060
0.064981 -0.070271 0.853215
0.066442 -0.070290 0.853446
0.067911 -0.070317 0.853778
0.069390 -0.070353 0.854211
0.070896 -0.070415 0.854963
0.072434 -0.070505 0.856056
0.073992 -0.070611 0.857346
0.075552 -0.070714 0.858599
0.077055 -0.070762 0.859176
0.078492 -0.070747 0.858997
0.079878 -0.070689 0.858295
0.081169 -0.070549 0.856599
0.082401 -0.070365 0.854359
0.083645 -0.070197 0.852316
0.084878 -0.070026 0.850244
0.086088 -0.069841 0.848001
0.087325 -0.069685 0.846098
0.088591 -0.069555 0.844522
0.089859 -0.069432 0.843030
0.091133 -0.069317 0.841630
0.092427 -0.069220 0.840462
0.093754 -0.069151 0.839617
0.095108 -0.069103 0.839041
0.096464 -0.069059 0.838497
0.097843 -0.069032 0.838170
0.099218 -0.069003 0.837818
0.100594 -0.068975 0.837478
0.101970 -0.068948 0.837157
0.103375 -0.068941 0.837071
0.104780 -0.068935 0.836993
0.106215 -0.068948 0.837151
0.107673 -0.068975 0.837478
0.109145 -0.069010 0.837908
0.110608 -0.069039 0.838261
0.112037 -0.069047 0.838355
0.113471 -0.069057 0.838479
0.114917 -0.069074 0.838686
0.116384 -0.069103 0.839039
0.117879 -0.069148 0.839582
0.119458 -0.069241 0.840710
0.121066 -0.069348 0.842005
0.122718 -0.069477 0.843578
0.124428 -0.069636 0.845509
0.126231 -0.069843 0.848015
0.128109 -0.070086 0.850966
0.130041 -0.070353 0.854209
0.131916 -0.070583 0.857006
0.133713 -0.070767 0.859245
0.135475 -0.070930 0.861216
-0.056338 -0.074777 0.927016
-0.054750 -0.074748 0.926651
-0.053169 -0.074729 0.926410
-0.051565 -0.074674 0.925735
-0.049984 -0.074649 0.925426
-0.048408 -0.074632 0.925208
-0.046834 -0.074616 0.925010
-0.045270 -0.074616 0.925009
-0.043729 -0.074654 0.925488
-0.042204 -0.074726 0.926374
-0.040685 -0.074811 0.927427
-0.039160 -0.074894 0.928456
-0.037575 -0.074863 0.928075
-0.035909 -0.074660 0.925560
-0.034163 -0.074267 0.920687
-0.032293 -0.073553 0.911831
-0.030439 -0.072805 0.902567
-0.028659 -0.072166 0.894639
-0.026960 -0.071669 0.888475
-0.025332 -0.071313 0.884069
-0.023810 -0.071232 0.883066
-0.022291 -0.071150 0.882050
-0.020767 -0.071037 0.880643
-0.019252 -0.070942 0.879461
-0.017748 -0.070872 0.878601
-0.016250 -0.070814 0.877877
-0.014751 -0.070746 0.877034
-0.013261 -0.070703 0.876508
-0.011772 -0.070664 0.876022
-0.010285 -0.070620 0.875481
-0.008801 -0.070586 0.875054
-0.007320 -0.070573 0.874897
-0.005838 -0.070540 0.874484
-0.004358 -0.070503 0.874030
-0.002878 -0.070464 0.873547
-0.001401 -0.070428 0.873093
0.000075 -0.070348 0.872108
0.001548 -0.070278 0.871233
0.003016 -0.070169 0.869889
0.004477 -0.070026 0.868114
0.005933 -0.069884 0.866348
0.007386 -0.069777 0.865021
0.008836 -0.069674 0.863751
0.010286 -0.069605 0.862896
0.011733 -0.069536 0.862032
0.013171 -0.069433 0.860764
0.014599 -0.069308 0.859216
0.016027 -0.069200 0.857871
0.017451 -0.069095 0.856568
0.018880 -0.069027 0.855732
0.020314 -0.068983 0.855180
0.021749 -0.068950 0.854771
0.023182 -0.068914 0.854329
0.024611 -0.068871 0.853794
0.026034 -0.068817 0.853122
0.027455 -0.068763 0.852457
0.028880 -0.068727 0.852007
0.030303 -0.068686 0.851496
0.031721 -0.068639 0.850918
0.033139 -0.068598 0.850412
0.034559 -0.068563 0.849978
0.035982 -0.068535 0.849630
0.037400 -0.068503 0.849234
0.038832 -0.068496 0.849147
0.040271 -0.068503 0.849226
0.041712 -0.068510 0.849316
0.043148 -0.068511 0.849335
0.044592 -0.068523 0.849484
0.046028 -0.068523 0.849476
0.047455 -0.068510 0.849321
0.048891 -0.068510 0.849316
0.050322 -0.068504 0.849239
0.051757 -0.068503 0.849236
0.053198 -0.068510 0.849319
0.054655 -0.068537 0.849647
0.056120 -0.068571 0.850077
0.057598 -0.068620 0.850679
0.059083 -0.068675 0.851359
0.060570 -0.068729 0.852033
0.062048 -0.068771 0.852551
0.063515 -0.068799 0.852897
0.064976 -0.068818 0.853141
0.066436 -0.068837 0.853371
0.067899 -0.068857 0.853624
0.069377 -0.068892 0.854052
0.070884 -0.068953 0.854815
0.072429 -0.069049 0.855996
0.074003 -0.069168 0.857469
0.075578 -0.069283 0.858897
0.077096 -0.069342 0.859631
0.078555 -0.069347 0.859691
0.079959 -0.069304 0.859164
0.081267 -0.069181 0.857635
0.082508 -0.069006 0.855471
0.083751 -0.068839 0.853399
0.084969 -0.068658 0.851147
0.086161 -0.068462 0.848716
0.087374 -0.068288 0.846565
0.088622 -0.068147 0.844821
0.089881 -0.068020 0.843239
0.091155 -0.067907 0.841837
0.092452 -0.067814 0.840688
0.093780 -0.067747 0.839857
0.095135 -0.067700 0.839281
0.096491 -0.067656 0.838733
0.097871 -0.067630 0.838413
0.099250 -0.067604 0.838090
0.100637 -0.067584 0.837835
0.102022 -0.067563 0.837582
0.103427 -0.067556 0.837492
0.104833 -0.067550 0.837412
0.106278 -0.067568 0.837642
0.107746 -0.067601 0.838047
0.109229 -0.067642 0.838558
0.110713 -0.067683 0.839063
0.112155 -0.067697 0.839237
0.113602 -0.067714 0.839446
0.115063 -0.067738 0.839747
0.116544 -0.067774 0.840189
0.118041 -0.067818 0.840736
0.119623 -0.067909 0.841871
0.121231 -0.068013 0.843156
0.122897 -0.068146 0.844805
0.124622 -0.068309 0.846825
0.126465 -0.068532 0.849589
0.128371 -0.068784 0.852711
0.130285 -0.069034 0.855811
0.132120 -0.069237 0.858334
0.133875 -0.069395 0.860290
0.135601 -0.069534 0.862014
-0.056284 -0.073135 0.926118
-0.054700 -0.073111 0.925816
-0.053124 -0.073097 0.925631
-0.051525 -0.073048 0.925015
-0.049946 -0.073025 0.924721
-0.048366 -0.073001 0.924416
-0.046783 -0.072969 0.924014
-0.045202 -0.072939 0.923628
-0.043644 -0.072944 0.923697
-0.042110 -0.072993 0.924312
-0.040545 -0.072988 0.924248
-0.038979 -0.072980 0.924154
-0.037353 -0.072856 0.922582
-0.035642 -0.072549 0.918700
-0.033857 -0.072055 0.912442
-0.032038 -0.071438 0.904629
-0.030247 -0.070826 0.896881
-0.028534 -0.070341 0.890730
-0.026895 -0.069995 0.886351
-0.025318 -0.069777 0.883595
-0.023797 -0.069699 0.882601
-0.022282 -0.069626 0.881677
-0.020760 -0.069521 0.880346
-0.019250 -0.069441 0.879340
-0.017748 -0.069382 0.878589
-0.016253 -0.069339 0.878053
-0.014756 -0.069281 0.877311
-0.013266 -0.069245 0.876857
-0.011776 -0.069200 0.876289
-0.010287 -0.069150 0.875657
-0.008802 -0.069110 0.875145
-0.007321 -0.069096 0.874976
-0.005838 -0.069058 0.874484
-0.004358 -0.069022 0.874030
-0.002878 -0.068984 0.873547
-0.001401 -0.068948 0.873093
0.000075 -0.068863 0.872022
0.001548 -0.068787 0.871058
0.003015 -0.068673 0.869618
0.004476 -0.068534 0.867848
0.005931 -0.068395 0.866093
0.007384 -0.068291 0.864776
0.008833 -0.068191 0.863502
0.010282 -0.068122 0.862629
0.011728 -0.068048 0.861694
0.013164 -0.067942 0.860356
0.014594 -0.067826 0.858893
0.016022 -0.067727 0.857630
0.017447 -0.067630 0.856411
0.018877 -0.067565 0.855582
0.020310 -0.067520 0.855016
0.021745 -0.067487 0.854593
0.023177 -0.067451 0.854141
0.024606 -0.067410 0.853622
0.026029 -0.067358 0.852965
0.027452 -0.067312 0.852373
0.028878 -0.067277 0.851930
0.030300 -0.067237 0.851424
0.031718 -0.067192 0.850860
0.033137 -0.067153 0.850359
0.034557 -0.067117 0.849913
0.035976 -0.067084 0.849484
0.037394 -0.067051 0.849077
0.038821 -0.067038 0.848912
0.040259 -0.067043 0.848974
0.041696 -0.067045 0.848992
0.043132 -0.067046 0.849005
0.044571 -0.067052 0.849085
0.046006 -0.067052 0.849079
0.047438 -0.067046 0.849005
0.048873 -0.067046 0.849005
0.050308 -0.067046 0.849005
0.051743 -0.067046 0.849005
0.053183 -0.067052 0.849079
0.054634 -0.067071 0.849321
0.056098 -0.067104 0.849740
0.057570 -0.067145 0.850262
0.059054 -0.067198 0.850938
0.060541 -0.067252 0.851615
0.062018 -0.067293 0.852139
0.063491 -0.067327 0.852564
0.064957 -0.067353 0.852897
0.066418 -0.067372 0.853143
0.067881 -0.067393 0.853399
0.069364 -0.067432 0.853900
0.070871 -0.067492 0.854661
0.072423 -0.067593 0.855930
0.074011 -0.067722 0.857566
0.075600 -0.067846 0.859146
0.077135 -0.067919 0.860063
0.078618 -0.067944 0.860381
0.080036 -0.067913 0.859984
0.081359 -0.067804 0.858610
0.082610 -0.067639 0.856525
0.083853 -0.067474 0.854436
0.085055 -0.067283 0.852015
0.086238 -0.067083 0.849478
0.087426 -0.066893 0.847074
0.088655 -0.066740 0.845138
0.089897 -0.066602 0.843386
0.091171 -0.066491 0.841980
0.092470 -0.066401 0.840849
0.093801 -0.066338 0.840041
0.095155 -0.066292 0.839463
0.096519 -0.066254 0.838977
0.097899 -0.066228 0.838655
0.099281 -0.066204 0.838346
0.100678 -0.066191 0.838183
0.102075 -0.066178 0.838020
0.103482 -0.066171 0.837934
0.104888 -0.066165 0.837856
0.106334 -0.066183 0.838084
0.107802 -0.066215 0.838487
0.109286 -0.066255 0.838997
0.110783 -0.066302 0.839590
0.112238 -0.066323 0.839854
0.113707 -0.066352 0.840222
0.115179 -0.066382 0.840597
0.116681 -0.066428 0.841183
0.118181 -0.066472 0.841737
0.119753 -0.066555 0.842786
0.121351 -0.066650 0.843991
0.123030 -0.066786 0.845719
0.124771 -0.066954 0.847838
0.126644 -0.067187 0.850794
0.128566 -0.067441 0.854006
0.130455 -0.067671 0.856926
0.132260 -0.067854 0.859245
0.133976 -0.067988 0.860934
0.135688 -0.068117 0.862569
0.137364 -0.069689 0.863937
0.137430 -0.068258 0.864352
-0.056229 -0.071496 0.925217
-0.054644 -0.071468 0.924862
-0.053074 -0.071460 0.924758
-0.051482 -0.071420 0.924238
-0.049904 -0.071398 0.923959
-0.048326 -0.071375 0.923655
-0.046739 -0.071336 0.923144
-0.045137 -0.071269 0.922288
-0.043557 -0.071236 0.921862
-0.042007 -0.071251 0.922045
-0.040388 -0.071144 0.920670
-0.038777 -0.071044 0.919377
-0.037114 -0.070836 0.916683
-0.035365 -0.070441 0.911563
-0.033550 -0.069868 0.904160
-0.031803 -0.069391 0.897985
-0.030075 -0.068912 0.891783
-0.028423 -0.068564 0.887281
-0.026843 -0.068360 0.884644
-0.025313 -0.068265 0.883410
-0.023792 -0.068188 0.882416
-0.022279 -0.068123 0.881578
-0.020762 -0.068034 0.880414
-0.019253 -0.067964 0.879511
-0.017754 -0.067914 0.878865
-0.016261 -0.067887 0.878511
-0.014767 -0.067843 0.877950
-0.013276 -0.067808 0.877499
-0.011785 -0.067764 0.876930
-0.010293 -0.067707 0.876190
-0.008805 -0.067653 0.875493
-0.007322 -0.067626 0.875145
-0.005839 -0.067588 0.874641
-0.004358 -0.067547 0.874114
-0.002879 -0.067510 0.873634
-0.001401 -0.067468 0.873099
0.000075 -0.067372 0.871856
0.001547 -0.067284 0.870713
0.003014 -0.067165 0.869176
0.004474 -0.067028 0.867405
0.005928 -0.066894 0.865667
0.007381 -0.066799 0.864436
0.008830 -0.066700 0.863161
0.010278 -0.066632 0.862278
0.011722 -0.066553 0.861258
0.013158 -0.066450 0.859915
0.014588 -0.066343 0.858535
0.016017 -0.066252 0.857363
0.017444 -0.066165 0.856239
0.018873 -0.066102 0.855420
0.020306 -0.066058 0.854846
0.021740 -0.066024 0.854410
0.023172 -0.065989 0.853958
0.024601 -0.065950 0.853454
0.026027 -0.065907 0.852891
0.027453 -0.065868 0.852390
0.028879 -0.065834 0.851947
0.030301 -0.065794 0.851437
0.031722 -0.065757 0.850953
0.033141 -0.065719 0.850463
0.034561 -0.065686 0.850028
0.035980 -0.065651 0.849583
0.037397 -0.065619 0.849162
0.038822 -0.065600 0.848917
0.040257 -0.065599 0.848912
0.041692 -0.065600 0.848917
0.043128 -0.065600 0.848925
0.044567 -0.065606 0.849005
0.046002 -0.065606 0.849005
0.047438 -0.065606 0.849005
0.048873 -0.065606 0.849005
0.050308 -0.065606 0.849005
0.051743 -0.065606 0.849005
0.053179 -0.065606 0.849005
0.054624 -0.065618 0.849159
0.056081 -0.065644 0.849490
0.057542 -0.065672 0.849848
0.059020 -0.065718 0.850445
0.060505 -0.065769 0.851113
0.061981 -0.065809 0.851628
0.063459 -0.065849 0.852139
0.064937 -0.065887 0.852631
0.066405 -0.065913 0.852971
0.067874 -0.065939 0.853305
0.069362 -0.065983 0.853874
0.070875 -0.066047 0.854708
0.072428 -0.066146 0.855990
0.074011 -0.066267 0.857557
0.075593 -0.066383 0.859058
0.077141 -0.066466 0.860126
0.078634 -0.066499 0.860557
0.080071 -0.066484 0.860365
0.081421 -0.066399 0.859268
0.082695 -0.066256 0.857411
0.083939 -0.066094 0.855314
0.085136 -0.065901 0.852821
0.086311 -0.065699 0.850197
0.087489 -0.065504 0.847684
0.088701 -0.065341 0.845574
0.089933 -0.065198 0.843722
0.091206 -0.065089 0.842305
0.092506 -0.065002 0.841178
0.093839 -0.064940 0.840380
0.095202 -0.064901 0.839876
0.096573 -0.064868 0.839450
0.097954 -0.064843 0.839122
0.099336 -0.064819 0.838813
0.100735 -0.064807 0.838655
0.102134 -0.064794 0.838497
0.103533 -0.064783 0.838346
0.104941 -0.064777 0.838274
0.106387 -0.064795 0.838499
0.107856 -0.064826 0.838902
0.109351 -0.064871 0.839493
0.110860 -0.064924 0.840170
0.112338 -0.064957 0.840603
0.113821 -0.064993 0.841065
0.115305 -0.065028 0.841514
0.116808 -0.065072 0.842093
0.118307 -0.065114 0.842629
0.119870 -0.065189 0.843608
0.121480 -0.065288 0.844886
0.123182 -0.065434 0.846770
0.124943 -0.065607 0.849007
0.126822 -0.065837 0.851990
0.128736 -0.066080 0.855134
0.130587 -0.066286 0.857798
0.132354 -0.066445 0.859856
0.134042 -0.066561 0.861362
0.135756 -0.066688 0.863002
0.137501 -0.066827 0.864802
0.139288 -0.068453 0.866822
0.139394 -0.067034 0.867481
-0.054593 -0.069835 0.923996
-0.053030 -0.069834 0.923983
-0.051447 -0.069806 0.923607
-0.049868 -0.069781 0.923286
-0.048287 -0.069752 0.922896
-0.046696 -0.069707 0.922296
-0.045076 -0.069612 0.921041
-0.043467 -0.069529 0.919946
-0.041875 -0.069468 0.919142
-0.040206 -0.069271 0.916529
-0.038547 -0.069073 0.913914
-0.036842 -0.068775 0.909977
-0.035076 -0.068331 0.904092
-0.033320 -0.067869 0.897979
-0.031639 -0.067521 0.893378
-0.029977 -0.067181 0.888879
-0.028381 -0.066960 0.885962
-0.026847 -0.066870 0.884760
-0.025316 -0.066776 0.883515
-0.023795 -0.066700 0.882514
-0.022282 -0.066637 0.881682
-0.020768 -0.066562 0.880694
-0.019262 -0.066502 0.879893
-0.017765 -0.066467 0.879431
-0.016275 -0.066453 0.879249
-0.014780 -0.066417 0.878769
-0.013288 -0.066384 0.878335
-0.011797 -0.066346 0.877836
-0.010303 -0.066284 0.877010
-0.008812 -0.066222 0.876198
-0.007326 -0.066182 0.875663
-0.005842 -0.066137 0.875062
-0.004359 -0.066084 0.874371
-0.002879 -0.066042 0.873811
-0.001401 -0.065989 0.873109
0.000075 -0.065881 0.871687
0.001546 -0.065775 0.870276
0.003012 -0.065651 0.868635
0.004471 -0.065510 0.866777
0.005924 -0.065380 0.865052
0.007377 -0.065295 0.863925
0.008825 -0.065205 0.862731
0.010272 -0.065132 0.861770
0.011714 -0.065047 0.860648
0.013148 -0.064945 0.859291
0.014578 -0.064846 0.857987
0.016008 -0.064760 0.856844
0.017436 -0.064683 0.855830
0.018866 -0.064627 0.855089
0.020298 -0.064584 0.854513
0.021731 -0.064550 0.854066
0.023163 -0.064517 0.853630
0.024592 -0.064480 0.853141
0.026020 -0.064443 0.852659
0.027445 -0.064406 0.852159
0.028868 -0.064366 0.851634
0.030292 -0.064333 0.851201
0.031719 -0.064308 0.850869
0.033139 -0.064273 0.850397
0.034559 -0.064240 0.849973
0.035977 -0.064206 0.849518
0.037391 -0.064168 0.849012
0.038811 -0.064143 0.848684
0.040246 -0.064143 0.848687
0.041685 -0.064150 0.848772
0.043120 -0.064150 0.848783
0.044563 -0.064161 0.848925
0.045998 -0.064161 0.848923
0.047429 -0.064156 0.848851
0.048864 -0.064156 0.848851
0.050299 -0.064155 0.848849
0.051729 -0.064150 0.848772
0.053159 -0.064144 0.848695
0.054603 -0.064155 0.848838
0.056054 -0.064173 0.849086
0.057513 -0.064199 0.849432
0.058990 -0.064244 0.850020
0.060474 -0.064294 0.850679
0.061949 -0.064332 0.851189
0.063432 -0.064376 0.851770
0.064916 -0.064420 0.852351
0.066391 -0.064453 0.852789
0.067860 -0.064479 0.853133
0.069354 -0.064528 0.853774
0.070866 -0.064590 0.854605
0.072413 -0.064682 0.855813
0.073995 -0.064800 0.857379
0.075576 -0.064913 0.858872
0.077136 -0.065004 0.860079
0.078645 -0.065050 0.860683
0.080100 -0.065050 0.860679
0.081476 -0.064986 0.859845
0.082782 -0.064871 0.858312
0.084037 -0.064720 0.856321
0.085237 -0.064532 0.853831
0.086413 -0.064333 0.851204
0.087576 -0.064131 0.848529
0.088780 -0.063965 0.846327
0.089996 -0.063812 0.844311
0.091269 -0.063705 0.842891
0.092577 -0.063625 0.841827
0.093911 -0.063564 0.841025
0.095267 -0.063520 0.840448
0.096638 -0.063488 0.840016
0.098011 -0.063457 0.839609
0.099393 -0.063433 0.839291
0.100792 -0.063421 0.839128
0.102190 -0.063408 0.838963
0.103589 -0.063396 0.838805
0.104997 -0.063390 0.838726
0.106426 -0.063397 0.838810
0.107895 -0.063427 0.839209
0.109390 -0.063471 0.839795
0.110901 -0.063523 0.840487
0.112382 -0.063557 0.840933
0.113878 -0.063599 0.841484
0.115374 -0.063639 0.842017
0.116878 -0.063683 0.842602
0.118378 -0.063724 0.843139
0.119942 -0.063797 0.844111
0.121563 -0.063900 0.845464
0.123269 -0.064043 0.847366
0.125056 -0.064226 0.849777
0.126940 -0.064452 0.852779
0.128856 -0.064691 0.855929
0.130680 -0.064878 0.858409
0.132433 -0.065026 0.860366
0.134097 -0.065128 0.861716
0.135828 -0.065260 0.863458
0.137591 -0.065404 0.865364
0.139526 -0.065626 0.868302
-0.053015 -0.068249 0.923729
-0.051432 -0.068220 0.923333
-0.049843 -0.068182 0.922826
-0.048252 -0.068139 0.922239
-0.046660 -0.068090 0.921575
-0.045022 -0.067970 0.919955
-0.043388 -0.067846 0.918277
-0.041746 -0.067701 0.916311
-0.040024 -0.067410 0.912372
-0.038312 -0.067113 0.908353
-0.036582 -0.066757 0.903540
-0.034859 -0.066385 0.898506
-0.033172 -0.066050 0.893964
-0.031555 -0.065832 0.891010
-0.029950 -0.065614 0.888068
-0.028396 -0.065492 0.886414
-0.026858 -0.065397 0.885127
-0.025324 -0.065299 0.883798
-0.023803 -0.065225 0.882803
-0.022289 -0.065164 0.881971
-0.020779 -0.065104 0.881167
-0.019274 -0.065052 0.880461
-0.017780 -0.065030 0.880164
-0.016290 -0.065023 0.880068
-0.014797 -0.064999 0.879749
-0.013305 -0.064975 0.879413
-0.011811 -0.064939 0.878931
-0.010316 -0.064878 0.878098
-0.008822 -0.064811 0.877194
-0.007332 -0.064751 0.876387
-0.005846 -0.064693 0.875600
-0.004361 -0.064629 0.874728
-0.002880 -0.064570 0.873930
-0.001401 -0.064504 0.873037
0.000075 -0.064390 0.871503
0.001545 -0.064266 0.869818
0.003010 -0.064138 0.868082
0.004468 -0.064006 0.866303
0.005921 -0.063880 0.864592
0.007373 -0.063798 0.863483
0.008821 -0.063715 0.862366
0.010267 -0.063639 0.861329
0.011706 -0.063543 0.860042
0.013139 -0.063442 0.858671
0.014569 -0.063351 0.857444
0.015998 -0.063269 0.856325
0.017427 -0.063201 0.855407
0.018858 -0.063152 0.854744
0.020291 -0.063115 0.854239
0.021722 -0.063077 0.853727
0.023154 -0.063045 0.853299
0.024585 -0.063015 0.852883
0.026012 -0.062979 0.852396
0.027434 -0.062936 0.851815
0.028856 -0.062896 0.851283
0.030280 -0.062864 0.850844
0.031709 -0.062845 0.850592
0.033132 -0.062817 0.850215
0.034555 -0.062793 0.849881
0.035976 -0.062765 0.849504
0.037396 -0.062738 0.849135
0.038810 -0.062703 0.848662
0.040245 -0.062703 0.848664
0.041680 -0.062704 0.848681
0.043112 -0.062699 0.848612
0.044546 -0.062699 0.848607
0.045980 -0.062698 0.848597
0.047406 -0.062687 0.848448
0.048841 -0.062687 0.848448
0.050275 -0.062687 0.848443
0.051704 -0.062680 0.848360
0.053133 -0.062674 0.848275
0.054571 -0.062679 0.848346
0.056021 -0.062697 0.848583
0.057479 -0.062722 0.848924
0.058949 -0.062760 0.849433
0.060427 -0.062803 0.850017
0.061906 -0.062846 0.850599
0.063394 -0.062895 0.851262
0.064884 -0.062945 0.851939
0.066366 -0.062984 0.852470
0.067841 -0.063016 0.852897
0.069341 -0.063068 0.853610
0.070853 -0.063130 0.854441
0.072400 -0.063219 0.855654
0.073988 -0.063341 0.857297
0.075567 -0.063450 0.858770
0.077119 -0.063532 0.859887
0.078634 -0.063581 0.860554
0.080096 -0.063587 0.860636
0.081490 -0.063540 0.859989
0.082822 -0.063446 0.858729
0.084103 -0.063318 0.856992
0.085305 -0.063135 0.854518
0.086491 -0.062947 0.851967
0.087653 -0.062748 0.849273
0.088858 -0.062585 0.847075
0.090077 -0.062437 0.845072
0.091351 -0.062332 0.843648
0.092660 -0.062253 0.842578
0.093993 -0.062193 0.841763
0.095350 -0.062150 0.841183
0.096725 -0.062119 0.840766
0.098099 -0.062089 0.840361
0.099472 -0.062060 0.839963
0.100861 -0.062041 0.839701
0.102240 -0.062016 0.839372
0.103619 -0.061992 0.839050
0.105017 -0.061980 0.838883
0.106435 -0.061980 0.838879
0.107895 -0.062004 0.839205
0.109400 -0.062053 0.839866
0.110910 -0.062103 0.840552
0.112401 -0.062142 0.841079
0.113908 -0.062189 0.841704
0.115407 -0.062229 0.842257
0.116912 -0.062273 0.842847
0.118424 -0.062319 0.843467
0.119988 -0.062391 0.844438
0.121623 -0.062497 0.845881
0.123343 -0.062644 0.847873
0.125144 -0.062829 0.850372
0.127029 -0.063051 0.853376
0.128943 -0.063282 0.856506
0.130743 -0.063454 0.858823
0.132483 -0.063592 0.860694
0.134148 -0.063691 0.862041
0.135933 -0.063845 0.864124
0.137743 -0.064007 0.866318
0.139732 -0.064249 0.869585
-0.052993 -0.066656 0.923348
-0.051415 -0.066634 0.923045
-0.049828 -0.066597 0.922542
-0.048236 -0.066553 0.921921
-0.046621 -0.066472 0.920807
-0.044958 -0.066315 0.918633
