1707
0.026407 -0.074204 0.865348
0.027840 -0.074123 0.864411
0.029273 -0.074053 0.863591
0.030715 -0.074009 0.863075
0.032157 -0.073969 0.862609
0.033598 -0.073931 0.862169
0.035042 -0.073903 0.861837
0.036492 -0.073890 0.861684
0.037942 -0.073876 0.861520
0.039397 -0.073874 0.861503
0.040854 -0.073874 0.861498
0.042295 -0.073847 0.861187
0.043745 -0.073837 0.861077
0.045198 -0.073833 0.861023
0.046639 -0.073811 0.860768
0.048086 -0.073798 0.860611
0.049541 -0.073797 0.860608
0.050976 -0.073769 0.860280
0.052390 -0.073712 0.859611
0.053808 -0.073665 0.859062
0.055111 -0.073465 0.856731
0.056300 -0.073128 0.852804
0.057444 -0.072751 0.848402
0.058564 -0.072362 0.843871
0.059658 -0.071961 0.839198
0.060849 -0.071693 0.836070
0.062124 -0.071534 0.834208
0.063392 -0.071374 0.832350
0.064660 -0.071221 0.830558
0.065940 -0.071087 0.829001
0.067219 -0.070957 0.827486
0.068495 -0.070830 0.826004
0.069789 -0.070727 0.824798
0.071105 -0.070649 0.823892
0.072403 -0.070556 0.822814
0.073719 -0.070484 0.821974
0.075063 -0.070442 0.821478
0.076414 -0.070407 0.821073
0.077767 -0.070375 0.820702
0.079127 -0.070350 0.820412
0.080482 -0.070323 0.820094
0.081834 -0.070294 0.819749
0.083172 -0.070253 0.819275
0.084517 -0.070220 0.818890
0.085855 -0.070181 0.818441
0.087212 -0.070161 0.818196
0.088585 -0.070152 0.818100
0.089978 -0.070160 0.818190
0.091390 -0.070182 0.818448
0.092852 -0.070242 0.819143
0.094302 -0.070290 0.819705
0.095735 -0.070325 0.820113
0.097183 -0.070370 0.820635
0.098616 -0.070402 0.821014
0.100053 -0.070436 0.821411
0.101519 -0.070490 0.822042
0.103007 -0.070557 0.822826
0.104499 -0.070626 0.823622
0.106032 -0.070720 0.824718
0.107610 -0.070841 0.826131
0.109231 -0.070986 0.827825
0.110841 -0.071122 0.829405
0.112472 -0.071267 0.831096
0.114103 -0.071408 0.832746
0.115722 -0.071539 0.834269
0.117278 -0.071627 0.835303
0.118864 -0.071732 0.836528
0.120427 -0.071821 0.837563
0.121984 -0.071905 0.838534
-0.026860 -0.078795 0.937416
-0.025247 -0.078706 0.936360
-0.023643 -0.078636 0.935525
-0.022027 -0.078514 0.934074
-0.020413 -0.078381 0.932497
-0.018806 -0.078250 0.930942
-0.017202 -0.078116 0.929345
-0.015599 -0.077957 0.927447
-0.013994 -0.077750 0.924986
-0.012396 -0.077534 0.922424
-0.010802 -0.077287 0.919479
-0.009215 -0.077017 0.916270
-0.007637 -0.076724 0.912780
-0.006072 -0.076452 0.909546
-0.004517 -0.076155 0.906014
-0.002974 -0.075862 0.902530
-0.001443 -0.075577 0.899141
0.000077 -0.075322 0.896098
0.001585 -0.075007 0.892360
0.003082 -0.074721 0.888949
0.004570 -0.074482 0.886106
0.006052 -0.074279 0.883696
0.007527 -0.074095 0.881502
0.009006 -0.074005 0.880433
0.010482 -0.073917 0.879382
0.011951 -0.073806 0.878066
0.013413 -0.073685 0.876622
0.014872 -0.073568 0.875238
0.016322 -0.073434 0.873643
0.017773 -0.073330 0.872408
0.019228 -0.073255 0.871514
0.020679 -0.073176 0.870570
0.022119 -0.073069 0.869294
0.023552 -0.072956 0.867957
0.024980 -0.072841 0.866592
0.026404 -0.072730 0.865265
0.027834 -0.072645 0.864251
0.029267 -0.072575 0.863424
0.030708 -0.072531 0.862896
0.032150 -0.072492 0.862433
0.033591 -0.072456 0.862004
0.035039 -0.072435 0.861761
0.036489 -0.072422 0.861602
0.037934 -0.072401 0.861345
0.039389 -0.072398 0.861312
0.040844 -0.072397 0.861299
0.042282 -0.072366 0.860933
0.043736 -0.072364 0.860910
0.045193 -0.072366 0.860939
0.046631 -0.072338 0.860604
0.048072 -0.072318 0.860367
0.049526 -0.072317 0.860354
0.050961 -0.072289 0.860020
0.052375 -0.072234 0.859369
0.053799 -0.072196 0.858918
0.055149 -0.072062 0.857318
0.056333 -0.071725 0.853308
0.057469 -0.071343 0.848771
0.058584 -0.070956 0.844167
0.059678 -0.070562 0.839475
0.060826 -0.070249 0.835748
0.062118 -0.070113 0.834127
0.063398 -0.069969 0.832421
0.064660 -0.069813 0.830559
0.065934 -0.069675 0.828926
0.067207 -0.069542 0.827338
0.068482 -0.069417 0.825852
0.069776 -0.069316 0.824650
0.071099 -0.069246 0.823816
0.072397 -0.069156 0.822744
0.073725 -0.069097 0.822043
0.075076 -0.069062 0.821622
0.076428 -0.069028 0.821225
0.077781 -0.068997 0.820854
0.079148 -0.068978 0.820633
0.080505 -0.068953 0.820325
0.081860 -0.068926 0.820005
0.083213 -0.068898 0.819680
0.084574 -0.068879 0.819444
0.085921 -0.068847 0.819072
0.087287 -0.068833 0.818899
0.088676 -0.068836 0.818938
0.090078 -0.068849 0.819097
0.091492 -0.068872 0.819364
0.092956 -0.068930 0.820059
0.094406 -0.068977 0.820615
0.095841 -0.069011 0.821018
0.097300 -0.069062 0.821625
0.098755 -0.069107 0.822167
0.100223 -0.069162 0.822813
0.101713 -0.069229 0.823609
0.103224 -0.069309 0.824563
0.104740 -0.069389 0.825524
0.106299 -0.069496 0.826794
0.107914 -0.069637 0.828465
0.109561 -0.069794 0.830330
0.111177 -0.069927 0.831918
0.112811 -0.070068 0.833599
0.114445 -0.070206 0.835242
0.116039 -0.070317 0.836552
0.117589 -0.070397 0.837515
0.119187 -0.070505 0.838797
0.120752 -0.070591 0.839821
0.122325 -0.070680 0.840877
-0.026878 -0.077258 0.938057
-0.025269 -0.077187 0.937189
-0.023669 -0.077137 0.936580
-0.022061 -0.077050 0.935523
-0.020449 -0.076936 0.934139
-0.018840 -0.076813 0.932649
-0.017230 -0.076665 0.930851
-0.015619 -0.076483 0.928638
-0.014007 -0.076255 0.925875
-0.012405 -0.076027 0.923102
-0.010808 -0.075769 0.919974
-0.009218 -0.075489 0.916573
-0.007637 -0.075177 0.912786
-0.006070 -0.074886 0.909257
-0.004514 -0.074572 0.905436
-0.002971 -0.074269 0.901764
-0.001441 -0.073990 0.898369
0.000077 -0.073748 0.895433
0.001584 -0.073448 0.891794
0.003081 -0.073176 0.888495
0.004568 -0.072944 0.885674
0.006049 -0.072746 0.883268
0.007524 -0.072572 0.881152
0.009003 -0.072484 0.880082
0.010478 -0.072397 0.879028
0.011946 -0.072288 0.877708
0.013408 -0.072169 0.876266
0.014866 -0.072056 0.874888
0.016317 -0.071932 0.873381
0.017770 -0.071837 0.872236
0.019226 -0.071770 0.871424
0.020679 -0.071699 0.870561
0.022118 -0.071594 0.869288
0.023552 -0.071485 0.867962
0.024980 -0.071373 0.866601
0.026405 -0.071264 0.865276
0.027832 -0.071173 0.864176
0.029265 -0.071104 0.863334
0.030705 -0.071059 0.862787
0.032146 -0.071022 0.862337
0.033585 -0.070981 0.861843
0.035032 -0.070961 0.861602
0.036478 -0.070941 0.861352
0.037922 -0.070918 0.861077
0.039376 -0.070915 0.861037
0.040835 -0.070922 0.861116
0.042278 -0.070899 0.860840
0.043733 -0.070899 0.860837
0.045190 -0.070902 0.860879
0.046624 -0.070869 0.860481
0.048061 -0.070843 0.860167
0.049514 -0.070841 0.860139
0.050952 -0.070819 0.859877
0.052371 -0.070772 0.859299
0.053806 -0.070748 0.859015
0.055199 -0.070673 0.858103
0.056373 -0.070328 0.853912
0.057498 -0.069941 0.849209
0.058598 -0.069543 0.844374
0.059678 -0.069140 0.839484
0.060783 -0.068784 0.835167
0.062094 -0.068672 0.833802
0.063386 -0.068545 0.832265
0.064654 -0.068399 0.830487
0.065934 -0.068270 0.828926
0.067212 -0.068145 0.827408
0.068495 -0.068030 0.826003
0.069796 -0.067937 0.824881
0.071125 -0.067875 0.824124
0.072430 -0.067792 0.823125
0.073760 -0.067735 0.822429
0.075112 -0.067701 0.822013
0.076465 -0.067668 0.821617
0.077818 -0.067638 0.821243
0.079192 -0.067625 0.821087
0.080557 -0.067606 0.820855
0.081921 -0.067586 0.820621
0.083292 -0.067573 0.820459
0.084664 -0.067561 0.820308
0.086020 -0.067536 0.820014
0.087395 -0.067528 0.819913
0.088786 -0.067532 0.819960
0.090190 -0.067545 0.820119
0.091622 -0.067579 0.820531
0.093081 -0.067631 0.821160
0.094532 -0.067676 0.821710
0.095977 -0.067715 0.822185
0.097448 -0.067772 0.822870
0.098908 -0.067818 0.823439
0.100398 -0.067885 0.824250
0.101901 -0.067958 0.825137
0.103435 -0.068049 0.826244
0.104974 -0.068142 0.827370
0.106558 -0.068260 0.828806
0.108199 -0.068412 0.830650
0.109851 -0.068567 0.832530
0.111481 -0.068704 0.834190
0.113107 -0.068835 0.835785
0.114734 -0.068964 0.837352
0.116311 -0.069060 0.838512
0.117861 -0.069138 0.839456
0.119440 -0.069230 0.840579
0.121008 -0.069314 0.841602
0.122585 -0.069402 0.842664
-0.026896 -0.075718 0.938681
-0.025289 -0.075658 0.937928
-0.023692 -0.075621 0.937470
-0.022089 -0.075560 0.936720
-0.020481 -0.075470 0.935596
-0.018872 -0.075359 0.934226
-0.017255 -0.075195 0.932189
-0.015638 -0.074997 0.929732
-0.014018 -0.074741 0.926558
-0.012411 -0.074499 0.923566
-0.010809 -0.074217 0.920063
-0.009216 -0.073919 0.916370
-0.007633 -0.073590 0.912297
-0.006066 -0.073290 0.908575
-0.004509 -0.072961 0.904501
-0.002968 -0.072665 0.900827
-0.001440 -0.072398 0.897518
0.000077 -0.072168 0.894669
0.001583 -0.071891 0.891225
0.003079 -0.071640 0.888122
0.004567 -0.071421 0.885403
0.006047 -0.071227 0.883006
0.007522 -0.071057 0.880887
0.008998 -0.070956 0.879647
0.010471 -0.070858 0.878419
0.011937 -0.070749 0.877075
0.013399 -0.070639 0.875710
0.014857 -0.070530 0.874361
0.016309 -0.070417 0.872960
0.017764 -0.070338 0.871981
0.019223 -0.070280 0.871253
0.020675 -0.070211 0.870399
0.022116 -0.070115 0.869210
0.023552 -0.070014 0.867965
0.024980 -0.069905 0.866605
0.026405 -0.069798 0.865289
0.027830 -0.069702 0.864098
0.029261 -0.069633 0.863245
0.030701 -0.069589 0.862691
0.032143 -0.069553 0.862245
0.033579 -0.069507 0.861679
0.035025 -0.069487 0.861430
0.036467 -0.069459 0.861083
0.037907 -0.069431 0.860730
0.039357 -0.069422 0.860619
0.040816 -0.069429 0.860712
0.042262 -0.069414 0.860519
0.043721 -0.069420 0.860600
0.045182 -0.069430 0.860727
0.046620 -0.069405 0.860414
0.048062 -0.069386 0.860176
0.049514 -0.069383 0.860143
0.050952 -0.069362 0.859876
0.052371 -0.069315 0.859300
0.053801 -0.069286 0.858940
0.055204 -0.069225 0.858177
0.056421 -0.068940 0.854645
0.057542 -0.068553 0.849852
0.058636 -0.068155 0.844917
0.059719 -0.067763 0.840057
0.060811 -0.067399 0.835545
0.062075 -0.067239 0.833554
0.063379 -0.067128 0.832179
0.064660 -0.066996 0.830552
0.065940 -0.066871 0.829001
0.067225 -0.066755 0.827561
0.068514 -0.066648 0.826240
0.069823 -0.066565 0.825203
0.071155 -0.066505 0.824466
0.072467 -0.066430 0.823536
0.073803 -0.066380 0.822911
0.075164 -0.066353 0.822579
0.076518 -0.066322 0.822194
0.077873 -0.066292 0.821817
0.079252 -0.066283 0.821710
0.080618 -0.066264 0.821479
0.081985 -0.066247 0.821257
0.083373 -0.066246 0.821251
0.084754 -0.066240 0.821181
0.086120 -0.066224 0.820971
0.087498 -0.066216 0.820881
0.088900 -0.066226 0.821008
0.090314 -0.066246 0.821248
0.091758 -0.066286 0.821746
0.093219 -0.066337 0.822383
0.094681 -0.066387 0.823003
0.096135 -0.066430 0.823537
0.097609 -0.066486 0.824231
0.099082 -0.066540 0.824893
0.100585 -0.066612 0.825785
0.102108 -0.066695 0.826812
0.103645 -0.066784 0.827923
0.105197 -0.066881 0.829122
0.106804 -0.067010 0.830719
0.108460 -0.067166 0.832656
0.110108 -0.067313 0.834478
0.111740 -0.067447 0.836134
0.113358 -0.067568 0.837643
0.114959 -0.067677 0.838989
0.116516 -0.067758 0.839990
0.118057 -0.067827 0.840852
0.119637 -0.067917 0.841966
0.121209 -0.068001 0.843001
0.122791 -0.068087 0.844078
-0.025309 -0.074127 0.938680
-0.023715 -0.074103 0.938376
-0.022117 -0.074065 0.937889
-0.020510 -0.073988 0.936920
-0.018899 -0.073880 0.935553
-0.017280 -0.073720 0.933522
-0.015658 -0.073515 0.930929
-0.014036 -0.073266 0.927778
-0.012418 -0.072974 0.924079
-0.010808 -0.072651 0.919990
-0.009210 -0.072319 0.915786
-0.007625 -0.071966 0.911316
-0.006056 -0.071632 0.907085
-0.004503 -0.071331 0.903273
-0.002965 -0.071063 0.899875
-0.001439 -0.070817 0.896759
0.000077 -0.070600 0.894020
0.001583 -0.070343 0.890760
0.003078 -0.070112 0.887830
0.004565 -0.069899 0.885131
0.006045 -0.069709 0.882737
0.007519 -0.069535 0.880525
0.008993 -0.069423 0.879110
0.010462 -0.069312 0.877701
0.011927 -0.069205 0.876344
0.013389 -0.069103 0.875061
0.014847 -0.069004 0.873808
0.016302 -0.068909 0.872599
0.017761 -0.068845 0.871796
0.019221 -0.068795 0.871160
0.020673 -0.068728 0.870315
0.022118 -0.068647 0.869287
0.023556 -0.068555 0.868123
0.024985 -0.068448 0.866769
0.026410 -0.068344 0.865444
0.027832 -0.068244 0.864177
0.029261 -0.068169 0.863237
0.030698 -0.068120 0.862606
0.032140 -0.068085 0.862163
0.033572 -0.068034 0.861518
0.035018 -0.068013 0.861250
0.036455 -0.067977 0.860803
0.037894 -0.067949 0.860446
0.039341 -0.067936 0.860277
0.040801 -0.067944 0.860386
0.042249 -0.067934 0.860261
0.043711 -0.067946 0.860408
0.045172 -0.067956 0.860534
0.046614 -0.067938 0.860299
0.048064 -0.067931 0.860222
0.049517 -0.067930 0.860199
0.050961 -0.067915 0.860019
0.052380 -0.067870 0.859449
0.053810 -0.067841 0.859080
0.055213 -0.067781 0.858319
0.056425 -0.067495 0.854697
0.057537 -0.067107 0.849776
0.058627 -0.066712 0.844781
0.059707 -0.066326 0.839890
0.060791 -0.065962 0.835281
0.062063 -0.065812 0.833388
0.063379 -0.065716 0.832173
0.064671 -0.065600 0.830702
0.065953 -0.065479 0.829164
0.067245 -0.065371 0.827804
0.068541 -0.065273 0.826558
0.069852 -0.065192 0.825539
0.071190 -0.065140 0.824877
0.072517 -0.065079 0.824104
0.073861 -0.065036 0.823559
0.075230 -0.065016 0.823301
0.076592 -0.064991 0.822988
0.077948 -0.064961 0.822612
0.079329 -0.064953 0.822513
0.080703 -0.064940 0.822346
0.082079 -0.064929 0.822196
0.083476 -0.064934 0.822271
0.084867 -0.064935 0.822280
0.086250 -0.064930 0.822215
0.087632 -0.064924 0.822136
0.089044 -0.064940 0.822340
0.090469 -0.064965 0.822660
0.091925 -0.065011 0.823240
0.093391 -0.065063 0.823900
0.094865 -0.065119 0.824603
0.096321 -0.065161 0.825136
0.097791 -0.065210 0.825762
0.099265 -0.065261 0.826413
0.100761 -0.065326 0.827231
0.102286 -0.065407 0.828253
0.103824 -0.065494 0.829357
0.105389 -0.065595 0.830637
0.107000 -0.065722 0.832248
0.108670 -0.065882 0.834266
0.110321 -0.066026 0.836092
0.111955 -0.066156 0.837742
0.113566 -0.066270 0.839180
0.115158 -0.066370 0.840446
0.116696 -0.066436 0.841287
0.118227 -0.066497 0.842063
0.119799 -0.066580 0.843105
0.121375 -0.066663 0.844157
0.122951 -0.066744 0.845182
-0.022145 -0.072567 0.939077
-0.020543 -0.072514 0.938399
-0.018932 -0.072423 0.937221
-0.017316 -0.072290 0.935495
-0.015695 -0.072110 0.933169
-0.014070 -0.071864 0.929983
-0.012432 -0.071487 0.925105
-0.010807 -0.071084 0.919883
-0.009198 -0.070671 0.914541
-0.007605 -0.070243 0.909011
-0.006042 -0.069933 0.904997
-0.004496 -0.069683 0.901759
-0.002961 -0.069451 0.898754
-0.001438 -0.069239 0.896017
0.000077 -0.069043 0.893482
0.001582 -0.068812 0.890486
0.003078 -0.068592 0.887646
0.004564 -0.068384 0.884949
0.006043 -0.068192 0.882469
0.007515 -0.068014 0.880157
0.008986 -0.067884 0.878477
0.010452 -0.067760 0.876874
0.011916 -0.067655 0.875510
0.013377 -0.067557 0.874249
0.014836 -0.067469 0.873110
0.016294 -0.067395 0.872155
0.017755 -0.067346 0.871516
0.019215 -0.067299 0.870907
0.020669 -0.067240 0.870145
0.022116 -0.067167 0.869207
0.023556 -0.067084 0.868125
0.024985 -0.066980 0.866785
0.026410 -0.066878 0.865462
0.027832 -0.066779 0.864183
0.029261 -0.066706 0.863229
0.030695 -0.066651 0.862524
0.032137 -0.066617 0.862087
0.033569 -0.066567 0.861436
0.035011 -0.066539 0.861077
0.036447 -0.066504 0.860616
0.037886 -0.066476 0.860257
0.039329 -0.066457 0.860015
0.040791 -0.066470 0.860187
0.042247 -0.066472 0.860210
0.043708 -0.066484 0.860362
0.045171 -0.066495 0.860503
0.046621 -0.066489 0.860424
0.048071 -0.066483 0.860353
0.049526 -0.066483 0.860348
0.050971 -0.066470 0.860186
0.052390 -0.066427 0.859619
0.053806 -0.066380 0.859017
0.055207 -0.066319 0.858227
0.056411 -0.066029 0.854480
0.057519 -0.065646 0.849512
0.058620 -0.065272 0.844682
0.059705 -0.064900 0.839866
0.060794 -0.064549 0.835319
0.062075 -0.064412 0.833553
0.063402 -0.064330 0.832482
0.064696 -0.064217 0.831023
0.065985 -0.064104 0.829560
0.067283 -0.064005 0.828282
0.068586 -0.063914 0.827101
0.069904 -0.063841 0.826156
0.071250 -0.063796 0.825572
0.072591 -0.063748 0.824948
0.073944 -0.063712 0.824485
0.075316 -0.063693 0.824241
0.076681 -0.063670 0.823939
0.078038 -0.063640 0.823558
0.079413 -0.063626 0.823383
0.080782 -0.063608 0.823151
0.082159 -0.063597 0.823004
0.083558 -0.063603 0.823081
0.084951 -0.063604 0.823092
0.086351 -0.063610 0.823173
0.087749 -0.063615 0.823237
0.089172 -0.063638 0.823527
0.090616 -0.063674 0.823995
0.092091 -0.063731 0.824728
0.093554 -0.063777 0.825333
0.095023 -0.063827 0.825971
0.096481 -0.063868 0.826506
0.097942 -0.063909 0.827042
0.099409 -0.063954 0.827619
0.100897 -0.064010 0.828347
0.102415 -0.064084 0.829300
0.103955 -0.064169 0.830400
0.105522 -0.064268 0.831689
0.107136 -0.064393 0.833305
0.108818 -0.064556 0.835405
0.110483 -0.064703 0.837315
0.112119 -0.064831 0.838970
0.113732 -0.064942 0.840408
0.115315 -0.065034 0.841590
0.116854 -0.065098 0.842428
0.118385 -0.065157 0.843190
0.119960 -0.065238 0.844242
0.121552 -0.065327 0.845385
0.123142 -0.065412 0.846494
-0.020559 -0.070979 0.939134
-0.018952 -0.070907 0.938183
-0.017339 -0.070800 0.936762
-0.015724 -0.070655 0.934847
-0.014104 -0.070458 0.932238
-0.012442 -0.069978 0.925886
-0.010797 -0.069464 0.919083
-0.009173 -0.068937 0.912111
-0.007584 -0.068507 0.906430
-0.006027 -0.068225 0.902692
-0.004487 -0.068018 0.899956
-0.002957 -0.067821 0.897352
-0.001436 -0.067639 0.894937
0.000077 -0.067464 0.892619
0.001581 -0.067263 0.889969
0.003076 -0.067061 0.887298
0.004563 -0.066859 0.884613
0.006041 -0.066671 0.882133
0.007512 -0.066495 0.879797
0.008981 -0.066352 0.877915
0.010444 -0.066224 0.876212
0.011907 -0.066121 0.874859
0.013367 -0.066028 0.873622
0.014826 -0.065949 0.872584
0.016287 -0.065890 0.871795
0.017750 -0.065848 0.871247
0.019209 -0.065803 0.870646
0.020665 -0.065752 0.869968
0.022114 -0.065687 0.869112
0.023554 -0.065606 0.868045
0.024984 -0.065507 0.866729
0.026411 -0.065413 0.865485
0.027835 -0.065321 0.864267
0.029264 -0.065248 0.863308
0.030698 -0.065195 0.862600
0.032140 -0.065162 0.862163
0.033569 -0.065107 0.861436
0.035004 -0.065068 0.860919
0.036440 -0.065032 0.860450
0.037878 -0.065005 0.860085
0.039318 -0.064981 0.859766
0.040779 -0.064993 0.859932
0.042241 -0.065006 0.860105
0.043700 -0.065013 0.860201
0.045163 -0.065026 0.860362
0.046622 -0.065032 0.860448
0.048082 -0.065039 0.860537
0.049533 -0.065034 0.860475
0.050983 -0.065028 0.860394
0.052402 -0.064984 0.859813
0.053807 -0.064925 0.859038
0.055197 -0.064852 0.858070
0.056402 -0.064571 0.854353
0.057513 -0.064199 0.849431
0.058616 -0.063836 0.844627
0.059719 -0.063492 0.840064
0.060822 -0.063162 0.835703
0.062105 -0.063030 0.833963
0.063440 -0.062955 0.832969
0.064740 -0.062851 0.831587
0.066031 -0.062741 0.830138
0.067335 -0.062649 0.828921
0.068644 -0.062565 0.827805
0.069969 -0.062499 0.826928
0.071324 -0.062461 0.826427
0.072674 -0.062420 0.825890
0.074030 -0.062387 0.825443
0.075403 -0.062368 0.825196
0.076769 -0.062344 0.824880
0.078127 -0.062315 0.824499
0.079512 -0.062308 0.824402
0.080890 -0.062296 0.824244
0.082276 -0.062290 0.824168
0.083676 -0.062296 0.824244
0.085071 -0.062296 0.824252
0.086480 -0.062308 0.824402
0.087890 -0.062319 0.824557
0.089318 -0.062343 0.824868
0.090765 -0.062379 0.825346
0.092249 -0.062439 0.826141
0.093705 -0.062479 0.826666
0.095176 -0.062527 0.827308
0.096637 -0.062568 0.827841
0.098090 -0.062602 0.828295
0.099541 -0.062633 0.828710
0.101019 -0.062682 0.829347
0.102529 -0.062748 0.830224
0.104072 -0.062832 0.831335
0.105643 -0.062930 0.832639
0.107260 -0.063053 0.834268
0.108944 -0.063212 0.836369
0.110600 -0.063351 0.838207
0.112240 -0.063477 0.839872
0.113867 -0.063593 0.841405
0.115453 -0.063683 0.842599
0.117003 -0.063751 0.843504
0.118547 -0.063815 0.844343
0.120125 -0.063895 0.845399
0.121719 -0.063982 0.846550
0.123312 -0.064066 0.847659
-0.020568 -0.069420 0.939571
-0.018963 -0.069356 0.938715
-0.017355 -0.069272 0.937580
-0.015744 -0.069159 0.936051
-0.014130 -0.069008 0.933998
-0.012453 -0.068468 0.926691
-0.009143 -0.067170 0.909124
-0.007558 -0.066743 0.903342
-0.006009 -0.066505 0.900118
-0.004477 -0.066346 0.897974
-0.002952 -0.066201 0.896013
-0.001434 -0.066052 0.893997
0.000077 -0.065902 0.891965
0.001580 -0.065720 0.889505
0.003075 -0.065524 0.886846
0.004560 -0.065327 0.884176
0.006038 -0.065138 0.881623
0.007507 -0.064953 0.879122
0.008973 -0.064806 0.877134
0.010435 -0.064680 0.875418
0.011897 -0.064580 0.874070
0.013357 -0.064496 0.872939
0.014818 -0.064432 0.872071
0.016280 -0.064386 0.871438
0.017743 -0.064346 0.870907
0.019202 -0.064302 0.870306
0.020657 -0.064252 0.869629
0.022107 -0.064193 0.868832
0.023549 -0.064121 0.867862
0.024981 -0.064031 0.866638
0.026411 -0.063947 0.865497
0.027840 -0.063868 0.864434
0.029272 -0.063802 0.863546
0.030707 -0.063751 0.862850
0.032149 -0.063719 0.862419
0.033582 -0.063671 0.861762
0.035017 -0.063632 0.861235
0.036450 -0.063592 0.860693
0.037886 -0.063559 0.860251
0.039322 -0.063529 0.859848
0.040779 -0.063535 0.859929
0.042242 -0.063549 0.860110
0.043702 -0.063557 0.860230
0.045166 -0.063571 0.860412
0.046634 -0.063589 0.860656
0.048098 -0.063602 0.860828
0.049550 -0.063597 0.860769
0.051000 -0.063591 0.860681
0.052423 -0.063552 0.860164
0.053818 -0.063482 0.859209
0.055197 -0.063398 0.858070
0.056401 -0.063121 0.854329
0.057516 -0.062762 0.849467
0.058619 -0.062408 0.844670
0.059742 -0.062091 0.840381
0.060860 -0.061784 0.836220
0.062143 -0.061654 0.834469
0.063484 -0.061587 0.833556
0.064791 -0.061490 0.832243
0.066083 -0.061383 0.830795
0.067395 -0.061298 0.829651
0.068711 -0.061222 0.828616
0.070038 -0.061157 0.827744
0.071395 -0.061121 0.827253
0.072753 -0.061087 0.826791
0.074117 -0.061059 0.826411
0.075498 -0.061046 0.826238
0.076865 -0.061022 0.825920
0.078231 -0.060998 0.825593
0.079610 -0.060986 0.825425
0.080983 -0.060969 0.825198
0.082364 -0.060959 0.825056
0.083765 -0.060963 0.825120
0.085154 -0.060959 0.825055
0.086572 -0.060975 0.825281
0.087994 -0.060993 0.825527
0.089433 -0.061023 0.825934
0.090891 -0.061065 0.826490
0.092375 -0.061122 0.827272
0.093831 -0.061160 0.827780
0.095294 -0.061201 0.828335
0.096748 -0.061234 0.828789
0.098186 -0.061257 0.829100
0.099635 -0.061287 0.829494
0.101106 -0.061328 0.830061
0.102616 -0.061392 0.830927
0.104162 -0.061475 0.832051
0.105734 -0.061572 0.833359
0.107343 -0.061687 0.834915
0.109027 -0.061842 0.837010
0.110685 -0.061978 0.838848
0.112328 -0.062102 0.840533
0.113979 -0.062227 0.842227
0.115579 -0.062323 0.843517
0.117144 -0.062396 0.844516
0.118701 -0.062464 0.845437
0.120282 -0.062543 0.846507
0.121868 -0.062623 0.847584
0.123449 -0.062699 0.848606
0.124852 -0.064120 0.848385
0.124977 -0.062745 0.849235
-0.017373 -0.067756 0.938591
-0.015771 -0.067688 0.937652
-0.014168 -0.067605 0.936502
-0.009107 -0.065366 0.905481
-0.007531 -0.064975 0.900069
-0.005993 -0.064803 0.897684
-0.004468 -0.064700 0.896257
-0.002948 -0.064586 0.894675
-0.001433 -0.064456 0.892873
0.000077 -0.064329 0.891117
0.001579 -0.064164 0.888837
0.003073 -0.063979 0.886270
0.004557 -0.063788 0.883623
0.006034 -0.063604 0.881079
0.007501 -0.063418 0.878498
0.008966 -0.063274 0.876504
0.010428 -0.063151 0.874795
0.011888 -0.063054 0.873461
0.013349 -0.062979 0.872418
0.014812 -0.062928 0.871711
0.016275 -0.062889 0.871169
0.017737 -0.062851 0.870646
0.019196 -0.062808 0.870046
0.020650 -0.062758 0.869356
0.022100 -0.062699 0.868544
0.023542 -0.062630 0.867580
0.024976 -0.062548 0.866451
0.026409 -0.062473 0.865408
0.027843 -0.062409 0.864517
0.029278 -0.062352 0.863737
0.030717 -0.062309 0.863137
0.032160 -0.062278 0.862705
0.033595 -0.062235 0.862116
0.035031 -0.062197 0.861582
0.036465 -0.062158 0.861038
0.037901 -0.062126 0.860602
0.039341 -0.062102 0.860272
0.040799 -0.062108 0.860350
0.042262 -0.062121 0.860530
0.043719 -0.062123 0.860565
0.045183 -0.062137 0.860747
0.046651 -0.062154 0.860987
0.048117 -0.062167 0.861168
0.049570 -0.062163 0.861115
0.051020 -0.062156 0.861024
0.052448 -0.062123 0.860566
0.053847 -0.062060 0.859685
0.055233 -0.061983 0.858623
0.056394 -0.061666 0.854230
0.057516 -0.061322 0.849467
0.058617 -0.060975 0.844650
0.059738 -0.060663 0.840329
0.060859 -0.060365 0.836210
0.062197 -0.060292 0.835197
0.063539 -0.060226 0.834277
0.064848 -0.060131 0.832970
0.066147 -0.060033 0.831603
0.067461 -0.059951 0.830465
0.068785 -0.059881 0.829502
0.070114 -0.059819 0.828642
0.071474 -0.059784 0.828161
0.072839 -0.059756 0.827765
0.074204 -0.059728 0.827381
0.075580 -0.059710 0.827132
0.076954 -0.059692 0.826878
0.078329 -0.059674 0.826633
0.079704 -0.059657 0.826399
0.081078 -0.059640 0.826168
0.082459 -0.059629 0.826009
0.083847 -0.059623 0.825925
0.085236 -0.059617 0.825849
0.086664 -0.059639 0.826155
0.088096 -0.059664 0.826489
0.089547 -0.059699 0.826983
0.091014 -0.059745 0.827614
0.092492 -0.059795 0.828318
0.093939 -0.059825 0.828733
0.095395 -0.059860 0.829211
0.096833 -0.059882 0.829516
0.098263 -0.059899 0.829754
0.099703 -0.059922 0.830067
0.101166 -0.059957 0.830551
0.102668 -0.060014 0.831348
0.104225 -0.060101 0.832554
0.105799 -0.060196 0.833866
0.107398 -0.060303 0.835343
0.109071 -0.060447 0.837341
0.110726 -0.060578 0.839158
0.112361 -0.060695 0.840775
0.114025 -0.060824 0.842568
0.115651 -0.060930 0.844039
0.117240 -0.061015 0.845210
0.118811 -0.061088 0.846226
0.120395 -0.061166 0.847299
0.121969 -0.061237 0.848290
0.123539 -0.061304 0.849222
0.125053 -0.061343 0.849753
-0.007506 -0.063246 0.897180
-0.005983 -0.063172 0.896133
-0.004462 -0.063087 0.894927
-0.002944 -0.062984 0.893471
-0.001431 -0.062864 0.891771
0.000077 -0.062748 0.890116
0.001578 -0.062599 0.888001
0.003070 -0.062424 0.885528
0.004554 -0.062244 0.882964
0.006030 -0.062071 0.880511
0.007497 -0.061894 0.878011
0.008961 -0.061755 0.876027
0.010422 -0.061635 0.874329
0.011882 -0.061542 0.873009
0.013342 -0.061469 0.871973
0.014806 -0.061425 0.871345
0.016270 -0.061393 0.870900
0.017732 -0.061357 0.870389
0.019190 -0.061315 0.869792
0.020644 -0.061265 0.869076
0.022090 -0.061202 0.868186
0.023529 -0.061128 0.867135
0.024966 -0.061055 0.866099
0.026401 -0.060988 0.865148
0.027841 -0.060938 0.864440
0.029282 -0.060896 0.863842
0.030727 -0.060866 0.863423
0.032171 -0.060837 0.863007
0.033610 -0.060800 0.862488
0.035046 -0.060762 0.861943
0.036481 -0.060724 0.861409
0.037918 -0.060694 0.860981
0.039362 -0.060676 0.860726
0.040821 -0.060681 0.860803
0.042284 -0.060693 0.860966
0.043740 -0.060695 0.860990
0.045204 -0.060706 0.861150
0.046673 -0.060722 0.861379
0.048135 -0.060729 0.861483
0.049588 -0.060726 0.861430
0.051039 -0.060720 0.861345
0.052469 -0.060689 0.860905
0.053875 -0.060633 0.860121
0.055278 -0.060577 0.859326
0.056491 -0.060322 0.855701
0.057625 -0.059996 0.851079
0.058735 -0.059662 0.846347
0.059849 -0.059348 0.841892
0.060961 -0.059047 0.837614
0.062251 -0.058927 0.835917
0.063594 -0.058862 0.834992
0.064910 -0.058775 0.833765
0.066222 -0.058690 0.832549
0.067538 -0.058610 0.831423
0.068871 -0.058548 0.830541
0.070208 -0.058492 0.829748
0.071556 -0.058447 0.829113
0.072916 -0.058414 0.828636
0.074281 -0.058386 0.828240
0.075653 -0.058364 0.827929
0.077017 -0.058337 0.827549
0.078393 -0.058320 0.827309
0.079761 -0.058298 0.826990
0.081129 -0.058276 0.826683
0.082502 -0.058259 0.826434
0.083896 -0.058257 0.826410
0.085293 -0.058257 0.826408
0.086731 -0.058284 0.826794
0.088180 -0.058318 0.827278
0.089641 -0.058359 0.827851
0.091110 -0.058403 0.828488
0.092581 -0.058448 0.829118
0.094022 -0.058472 0.829461
0.095469 -0.058500 0.829854
0.096908 -0.058521 0.830159
0.098338 -0.058537 0.830390
0.099789 -0.058565 0.830778
0.101261 -0.058604 0.831332
0.102766 -0.058661 0.832139
0.104314 -0.058741 0.833271
0.105871 -0.058823 0.834434
0.107450 -0.058915 0.835744
0.109101 -0.059044 0.837570
0.110735 -0.059160 0.839226
0.112359 -0.059269 0.840764
0.114034 -0.059401 0.842638
0.115673 -0.059511 0.844201
0.117276 -0.059600 0.845469
0.118871 -0.059683 0.846647
0.120465 -0.059765 0.847797
0.122040 -0.059834 0.848781
0.123608 -0.059898 0.849692
0.125122 -0.059936 0.850224
0.126574 -0.061384 0.850321
0.126657 -0.059981 0.850875
-0.007499 -0.061663 0.896283
-0.005976 -0.061585 0.895144
-0.004457 -0.061507 0.894014
-0.002941 -0.061407 0.892559
-0.001429 -0.061290 0.890851
0.000077 -0.061176 0.889206
0.001576 -0.061031 0.887090
0.003067 -0.060867 0.884713
0.004550 -0.060697 0.882241
0.006026 -0.060535 0.879883
0.007493 -0.060369 0.877472
0.008957 -0.060244 0.875655
0.010418 -0.060128 0.873964
0.011877 -0.060037 0.872648
0.013338 -0.059971 0.871684
0.014802 -0.059934 0.871149
0.016267 -0.059905 0.870721
0.017729 -0.059870 0.870222
0.019188 -0.059834 0.869700
0.020639 -0.059779 0.868895
0.022086 -0.059717 0.868001
0.023524 -0.059645 0.866946
0.024965 -0.059584 0.866070
0.026402 -0.059525 0.865200
0.027848 -0.059488 0.864670
0.029293 -0.059453 0.864166
0.030742 -0.059431 0.863841
0.032187 -0.059403 0.863430
0.033627 -0.059368 0.862916
0.035064 -0.059330 0.862374
0.036499 -0.059294 0.861844
0.037937 -0.059265 0.861422
0.039383 -0.059248 0.861182
0.040838 -0.059248 0.861178
0.042298 -0.059253 0.861258
0.043750 -0.059248 0.861185
0.045210 -0.059253 0.861252
0.046673 -0.059263 0.861396
0.048135 -0.059270 0.861492
0.049589 -0.059266 0.861442
0.051045 -0.059266 0.861436
0.052475 -0.059237 0.861016
0.053893 -0.059195 0.860415
0.055310 -0.059155 0.859826
0.056570 -0.058953 0.856892
0.057715 -0.058645 0.852413
0.058833 -0.058325 0.847758
0.059944 -0.058012 0.843217
0.061046 -0.057706 0.838771
0.062299 -0.057554 0.836560
0.063643 -0.057491 0.835644
0.064972 -0.057417 0.834569
0.066288 -0.057335 0.833368
0.067612 -0.057263 0.832323
0.068944 -0.057201 0.831429
0.070282 -0.057146 0.830624
0.071618 -0.057092 0.829837
0.072971 -0.057053 0.829267
0.074330 -0.057019 0.828787
0.075696 -0.056993 0.828399
0.077054 -0.056962 0.827949
0.078431 -0.056945 0.827708
0.079799 -0.056923 0.827385
0.081166 -0.056901 0.827062
0.082539 -0.056883 0.826805
0.083934 -0.056882 0.826785
0.085340 -0.056887 0.826863
0.086780 -0.056915 0.827263
0.088239 -0.056954 0.827832
0.089709 -0.056998 0.828479
0.091180 -0.057042 0.829120
0.092644 -0.057081 0.829683
0.094093 -0.057109 0.830085
0.095541 -0.057136 0.830474
0.096981 -0.057157 0.830788
0.098414 -0.057174 0.831028
0.099875 -0.057206 0.831493
0.101348 -0.057244 0.832048
0.102855 -0.057300 0.832862
0.104396 -0.057373 0.833921
0.105942 -0.057447 0.834996
0.107500 -0.057525 0.836134
0.109119 -0.057634 0.837716
0.110732 -0.057736 0.839207
0.112344 -0.057836 0.840653
0.114019 -0.057965 0.842528
0.115657 -0.058072 0.844088
0.117272 -0.058165 0.845440
0.118867 -0.058247 0.846621
0.120462 -0.058326 0.847775
0.122038 -0.058394 0.848763
0.123605 -0.058457 0.849675
0.125132 -0.058499 0.850289
0.126679 -0.058550 0.851026
0.128264 -0.060061 0.851995
0.128335 -0.058649 0.852471
-0.009015 -0.060153 0.896413
-0.007493 -0.060096 0.895571
-0.005971 -0.060018 0.894410
-0.004454 -0.059950 0.893399
-0.002939 -0.059857 0.892003
-0.001429 -0.059747 0.890375
0.000076 -0.059636 0.888717
0.001575 -0.059489 0.886532
0.003065 -0.059330 0.884151
0.004548 -0.059165 0.881699
0.006022 -0.059008 0.879360
0.007488 -0.058848 0.876970
0.008954 -0.058737 0.875318
0.010414 -0.058624 0.873629
0.011873 -0.058535 0.872314
0.013334 -0.058476 0.871424
0.014799 -0.058445 0.870969
0.016262 -0.058412 0.870475
0.017724 -0.058379 0.869983
0.019185 -0.058349 0.869530
0.020634 -0.058289 0.868648
0.022079 -0.058230 0.867757
0.023520 -0.058164 0.866782
0.024965 -0.058116 0.866069
0.026405 -0.058064 0.865291
0.027854 -0.058034 0.864849
0.029301 -0.058006 0.864419
0.030754 -0.057989 0.864165
0.032196 -0.057956 0.863680
0.033636 -0.057922 0.863168
0.035077 -0.057890 0.862702
0.036513 -0.057855 0.862178
0.037952 -0.057827 0.861761
0.039402 -0.057817 0.861600
0.040858 -0.057816 0.861597
0.042315 -0.057817 0.861600
0.043767 -0.057811 0.861520
0.045223 -0.057811 0.861512
0.046684 -0.057815 0.861580
0.048145 -0.057821 0.861664
0.049607 -0.057827 0.861761
0.051069 -0.057833 0.861846
0.052511 -0.057816 0.861595
0.053945 -0.057793 0.861246
0.055374 -0.057764 0.860813
0.056669 -0.057602 0.858396
0.057822 -0.057305 0.853984
0.058948 -0.056999 0.849413
0.060042 -0.056676 0.844603
0.061134 -0.056366 0.839990
0.062353 -0.056185 0.837283
0.063699 -0.056124 0.836373
0.065036 -0.056057 0.835385
0.066360 -0.055983 0.834272
0.067679 -0.055908 0.833157
0.069006 -0.055842 0.832173
0.070337 -0.055781 0.831269
0.071654 -0.055713 0.830249
0.073000 -0.055669 0.829599
0.074358 -0.055636 0.829099
0.075716 -0.055604 0.828627
0.077068 -0.055568 0.828092
0.078443 -0.055551 0.827832
0.079803 -0.055523 0.827423
0.081163 -0.055497 0.827030
0.082537 -0.055481 0.826791
0.083941 -0.055485 0.826850
0.085356 -0.055496 0.827020
0.086806 -0.055529 0.827507
0.088274 -0.055572 0.828156
0.089752 -0.055621 0.828879
0.091225 -0.055664 0.829528
0.092689 -0.055701 0.830079
0.094145 -0.055733 0.830551
0.095603 -0.055764 0.831017
0.097055 -0.055791 0.831421
0.098500 -0.055814 0.831757
0.099972 -0.055851 0.832304
0.101447 -0.055888 0.832863
0.102947 -0.055938 0.833606
0.104470 -0.055999 0.834510
0.105995 -0.056059 0.835416
0.107531 -0.056124 0.836376
0.109120 -0.056214 0.837717
0.110721 -0.056308 0.839120
0.112322 -0.056399 0.840482
0.113985 -0.056520 0.842272
0.115611 -0.056618 0.843746
0.117222 -0.056708 0.845078
0.118806 -0.056782 0.846185
0.120390 -0.056855 0.847264
0.121976 -0.056927 0.848339
0.123556 -0.056994 0.849341
0.125097 -0.057041 0.850050
0.126646 -0.057092 0.850803
0.128336 -0.057204 0.852478
-0.010539 -0.060201 0.897133
-0.010538 -0.058671 0.896995
-0.009014 -0.058624 0.896280
-0.007493 -0.058575 0.895532
-0.005970 -0.058491 0.894249
-0.004453 -0.058418 0.893122
-0.002938 -0.058315 0.891555
-0.001428 -0.058208 0.889923
0.000076 -0.058094 0.888176
0.001574 -0.057951 0.885992
0.003064 -0.057801 0.883695
0.004546 -0.057652 0.881409
0.006021 -0.057505 0.879174
0.007488 -0.057356 0.876882
0.008954 -0.057253 0.875318
0.010413 -0.057138 0.873551
0.011871 -0.057051 0.872230
0.013332 -0.056993 0.871337
0.014798 -0.056963 0.870885
0.016259 -0.056926 0.870313
0.017722 -0.056898 0.869890
0.019182 -0.056868 0.869433
0.020631 -0.056811 0.868556
0.022077 -0.056753 0.867673
0.023520 -0.056695 0.866791
0.024968 -0.056655 0.866168
0.026411 -0.056611 0.865495
0.027863 -0.056588 0.865141
0.029311 -0.056559 0.864704
0.030763 -0.056541 0.864428
0.032203 -0.056503 0.863848
0.033640 -0.056464 0.863250
0.035077 -0.056429 0.862715
0.036516 -0.056399 0.862259
0.037956 -0.056372 0.861845
0.039409 -0.056366 0.861761
0.040866 -0.056366 0.861761
0.042323 -0.056366 0.861761
0.043776 -0.056362 0.861684
0.045232 -0.056361 0.861679
0.046693 -0.056366 0.861753
0.048159 -0.056377 0.861920
0.049627 -0.056389 0.862102
0.051095 -0.056400 0.862280
0.052542 -0.056390 0.862117
0.053987 -0.056377 0.861919
0.055426 -0.056358 0.861627
0.056758 -0.056234 0.859738
0.057950 -0.055982 0.855880
0.059088 -0.055691 0.851431
0.060176 -0.055368 0.846490
0.061262 -0.055057 0.841740
0.062446 -0.054847 0.838532
0.063755 -0.054754 0.837106
0.065100 -0.054695 0.836207
0.066425 -0.054622 0.835093
0.067739 -0.054544 0.833897
0.069060 -0.054473 0.832816
0.070383 -0.054408 0.831823
0.071682 -0.054326 0.830570
0.073021 -0.054278 0.829838
0.074372 -0.054240 0.829254
0.075716 -0.054199 0.828625
0.077059 -0.054158 0.827998
0.078432 -0.054140 0.827718
0.079792 -0.054113 0.827315
0.081153 -0.054088 0.826933
0.082536 -0.054078 0.826777
0.083948 -0.054087 0.826918
0.085372 -0.054104 0.827170
0.086830 -0.054141 0.827736
0.088308 -0.054189 0.828475
0.089795 -0.054242 0.829273
0.091268 -0.054284 0.829920
0.092740 -0.054325 0.830544
0.094207 -0.054361 0.831094
0.095676 -0.054397 0.831653
0.097141 -0.054430 0.832158
0.098597 -0.054457 0.832575
0.100071 -0.054493 0.833123
0.101547 -0.054530 0.833683
0.103039 -0.054573 0.834348
0.104542 -0.054622 0.835092
0.106047 -0.054670 0.835826
0.107562 -0.054722 0.836616
0.109120 -0.054794 0.837721
0.110711 -0.054880 0.839041
0.112301 -0.054965 0.840328
0.113943 -0.055071 0.841962
0.115555 -0.055162 0.843344
0.117163 -0.055248 0.844653
0.118733 -0.055314 0.845670
0.120328 -0.055390 0.846828
0.121936 -0.055470 0.848055
0.123530 -0.055542 0.849158
0.125083 -0.055595 0.849960
0.126644 -0.055649 0.850789
0.128335 -0.055758 0.852467
0.130017 -0.057310 0.854050
0.131279 -0.056405 0.862342
-0.009011 -0.057087 0.895999
-0.007491 -0.057046 0.895359
-0.005969 -0.056964 0.894066
-0.004451 -0.056886 0.892841
-0.002936 -0.056776 0.891118
-0.001427 -0.056677 0.889561
0.000076 -0.056561 0.887735
0.001573 -0.056422 0.885555
0.003063 -0.056281 0.883343
0.004545 -0.056146 0.881223
0.006020 -0.056004 0.878999
0.007487 -0.055864 0.876796
0.008954 -0.055769 0.875318
0.010414 -0.055662 0.873629
0.011873 -0.055578 0.872314
0.013334 -0.055521 0.871424
0.014799 -0.055492 0.870969
0.016261 -0.055455 0.870383
0.017722 -0.055423 0.869876
0.019182 -0.055393 0.869408
0.020631 -0.055338 0.868542
0.022077 -0.055282 0.867665
0.023522 -0.055231 0.866873
0.024970 -0.055193 0.866266
0.026417 -0.055156 0.865686
0.027872 -0.055139 0.865424
0.029321 -0.055112 0.864996
0.030770 -0.055088 0.864627
0.032212 -0.055055 0.864099
0.033646 -0.055011 0.863410
0.035080 -0.054971 0.862787
0.036520 -0.054942 0.862337
0.037959 -0.054916 0.861919
0.039409 -0.054906 0.861761
0.040866 -0.054906 0.861761
0.042323 -0.054906 0.861761
0.043780 -0.054906 0.861761
0.045240 -0.054910 0.861837
0.046702 -0.054916 0.861925
0.048174 -0.054932 0.862180
0.049647 -0.054950 0.862452
0.051121 -0.054968 0.862732
0.052567 -0.054954 0.862514
0.054012 -0.054941 0.862309
0.055445 -0.054916 0.861921
0.056804 -0.054821 0.860436
0.058026 -0.054603 0.857008
0.059176 -0.054328 0.852698
0.060274 -0.054021 0.847871
0.061364 -0.053719 0.843143
0.062519 -0.053488 0.839517
0.063799 -0.053372 0.837690
0.065151 -0.053319 0.836864
0.066483 -0.053253 0.835828
0.067798 -0.053177 0.834623
0.069106 -0.053097 0.833373
0.070422 -0.053027 0.832276
0.071707 -0.052937 0.830869
0.073035 -0.052882 0.829991
0.074379 -0.052839 0.829330
0.075716 -0.052794 0.828620
0.077044 -0.052745 0.827844
0.078417 -0.052726 0.827559
0.079784 -0.052706 0.827232
0.081147 -0.052683 0.826868
0.082544 -0.052682 0.826863
0.083971 -0.052700 0.827148
0.085403 -0.052721 0.827469
0.086863 -0.052758 0.828057
0.088349 -0.052810 0.828864
0.089830 -0.052857 0.829599
0.091302 -0.052897 0.830235
0.092777 -0.052937 0.830868
0.094254 -0.052978 0.831506
0.095736 -0.053020 0.832171
0.097219 -0.053062 0.832829
0.098695 -0.053099 0.833399
0.100178 -0.053138 0.834017
0.101656 -0.053174 0.834574
0.103138 -0.053210 0.835151
0.104632 -0.053252 0.835808
0.106117 -0.053288 0.836372
0.107611 -0.053328 0.837002
0.109150 -0.053389 0.837951
0.110730 -0.053468 0.839191
0.112311 -0.053545 0.840400
0.113922 -0.053634 0.841810
0.115522 -0.053716 0.843098
0.117116 -0.053794 0.844318
0.118675 -0.053854 0.845252
0.120258 -0.053923 0.846341
0.121877 -0.054006 0.847645
0.123481 -0.054081 0.848821
0.125047 -0.054138 0.849713
0.126597 -0.054187 0.850478
0.128263 -0.054283 0.851990
-0.010531 -0.055595 0.896433
-0.009008 -0.055550 0.895699
-0.007487 -0.055498 0.894873
-0.005966 -0.055425 0.893688
-0.004450 -0.055350 0.892476
-0.002935 -0.055243 0.890756
-0.001427 -0.055146 0.889195
0.000076 -0.055037 0.887437
0.001573 -0.054898 0.885197
0.003062 -0.054767 0.883081
0.004544 -0.054641 0.881054
0.006020 -0.054513 0.878992
0.007488 -0.054382 0.876880
0.008956 -0.054296 0.875490
0.010417 -0.054197 0.873885
0.011876 -0.054115 0.872570
0.013336 -0.054055 0.871600
0.014801 -0.054022 0.871062
0.016262 -0.053985 0.870467
0.017722 -0.053948 0.869876
0.019182 -0.053919 0.869408
0.020631 -0.053865 0.868542
0.022077 -0.053811 0.867665
0.023525 -0.053767 0.866950
0.024975 -0.053734 0.866420
0.026425 -0.053703 0.865928
0.027883 -0.053693 0.865757
0.029332 -0.053667 0.865340
0.030780 -0.053639 0.864899
0.032221 -0.053606 0.864354
0.033655 -0.053562 0.863654
0.035090 -0.053524 0.863031
0.036530 -0.053496 0.862586
0.037970 -0.053470 0.862163
0.039420 -0.053459 0.861996
0.040877 -0.053459 0.861996
0.042335 -0.053460 0.862004
0.043796 -0.053465 0.862087
0.045262 -0.053475 0.862245
0.046725 -0.053481 0.862339
0.048197 -0.053497 0.862605
0.049672 -0.053515 0.862891
0.051147 -0.053532 0.863171
0.052593 -0.053519 0.862954
0.054040 -0.053506 0.862752
0.055468 -0.053477 0.862287
0.056818 -0.053376 0.860647
0.058083 -0.053202 0.857846
0.059281 -0.052977 0.854209
0.060391 -0.052685 0.849507
0.061483 -0.052392 0.844789
0.062650 -0.052175 0.841279
0.063881 -0.052019 0.838770
0.065189 -0.051931 0.837355
0.066523 -0.051867 0.836322
0.067838 -0.051792 0.835107
0.069133 -0.051705 0.833707
0.070443 -0.051632 0.832530
0.071721 -0.051539 0.831027
0.073041 -0.051479 0.830064
0.074379 -0.051433 0.829330
0.075709 -0.051385 0.828549
0.077037 -0.051337 0.827768
0.078417 -0.051324 0.827559
0.079793 -0.051309 0.827320
0.081158 -0.051288 0.826982
0.082570 -0.051296 0.827116
0.083997 -0.051314 0.827400
0.085428 -0.051334 0.827718
0.086890 -0.051370 0.828312
0.088377 -0.051421 0.829121
0.089849 -0.051461 0.829778
0.091329 -0.051505 0.830474
0.092804 -0.051544 0.831112
0.094292 -0.051590 0.831847
0.095794 -0.051641 0.832677
0.097288 -0.051687 0.833417
0.098772 -0.051726 0.834054
0.100256 -0.051765 0.834670
0.101736 -0.051799 0.835228
0.103210 -0.051831 0.835736
0.104703 -0.051871 0.836378
0.106178 -0.051900 0.836858
0.107663 -0.051934 0.837406
0.109192 -0.051988 0.838273
0.110762 -0.052060 0.839433
0.112332 -0.052130 0.840559
0.113922 -0.052207 0.841807
0.115509 -0.052282 0.843005
0.117081 -0.052347 0.844061
0.118629 -0.052401 0.844925
0.120202 -0.052464 0.845942
0.121819 -0.052545 0.847246
0.123423 -0.052618 0.848424
0.124987 -0.052673 0.849308
0.126526 -0.052715 0.849996
0.129436 -0.053322 0.859780
-0.010536 -0.054100 0.896836
-0.009008 -0.054031 0.895693
-0.007485 -0.053965 0.894594
-0.005964 -0.053888 0.893328
-0.004448 -0.053815 0.892113
-0.002934 -0.053716 0.890468
-0.001426 -0.053626 0.888976
0.000076 -0.053525 0.887313
0.001573 -0.053396 0.885166
0.003062 -0.053274 0.883151
0.004545 -0.053153 0.881136
0.006021 -0.053034 0.879162
0.007490 -0.052912 0.877138
0.008958 -0.052824 0.875682
0.010420 -0.052732 0.874164
0.011881 -0.052657 0.872925
0.013341 -0.052594 0.871880
0.014804 -0.052556 0.871247
0.016266 -0.052520 0.870646
0.017724 -0.052479 0.869968
0.019182 -0.052447 0.869433
0.020633 -0.052399 0.868633
0.022079 -0.052346 0.867756
0.023527 -0.052302 0.867036
0.024977 -0.052270 0.866500
0.026429 -0.052244 0.866077
0.027888 -0.052234 0.865910
0.029338 -0.052210 0.865512
0.030786 -0.052184 0.865076
0.032228 -0.052151 0.864531
0.033662 -0.052109 0.863833
0.035098 -0.052073 0.863229
0.036539 -0.052046 0.862787
0.037979 -0.052020 0.862359
0.039432 -0.052014 0.862252
0.040889 -0.052014 0.862252
0.042348 -0.052015 0.862274
0.043814 -0.052025 0.862448
0.045285 -0.052040 0.862691
0.046749 -0.052046 0.862785
0.048222 -0.052062 0.863050
0.049696 -0.052078 0.863312
0.051172 -0.052094 0.863586
0.052618 -0.052080 0.863359
0.054070 -0.052073 0.863236
0.055505 -0.052050 0.862857
0.056867 -0.051962 0.861388
0.058182 -0.051836 0.859309
0.059390 -0.051624 0.855785
0.060500 -0.051337 0.851037
0.061587 -0.051046 0.846207
0.062737 -0.050819 0.842449
0.063915 -0.050624 0.839208
0.065220 -0.050536 0.837758
0.066554 -0.050474 0.836721
0.067865 -0.050396 0.835440
0.069155 -0.050307 0.833966
0.070458 -0.050231 0.832702
0.071735 -0.050140 0.831186
0.073048 -0.050077 0.830146
0.074386 -0.050033 0.829409
0.075723 -0.049989 0.828696
0.077058 -0.049947 0.827985
0.078439 -0.049935 0.827789
0.079823 -0.049925 0.827637
0.081197 -0.049910 0.827376
0.082611 -0.049919 0.827525
0.084045 -0.049940 0.827872
0.085478 -0.049960 0.828203
0.086940 -0.049995 0.828788
0.088420 -0.050040 0.829529
0.089883 -0.050073 0.830087
0.091354 -0.050111 0.830706
0.092829 -0.050149 0.831337
0.094319 -0.050194 0.832086
0.095830 -0.050248 0.832991
0.097334 -0.050298 0.833813
0.098828 -0.050341 0.834526
0.100315 -0.050379 0.835156
0.101805 -0.050418 0.835799
0.103281 -0.050448 0.836307
0.104775 -0.050487 0.836951
0.106242 -0.050512 0.837361
0.107719 -0.050541 0.837835
0.109228 -0.050584 0.838550
0.110786 -0.050648 0.839613
0.112344 -0.050710 0.840650
0.113912 -0.050776 0.841737
0.115498 -0.050848 0.842923
0.117057 -0.050906 0.843889
0.118604 -0.050958 0.844750
0.120167 -0.051015 0.845694
0.121783 -0.051093 0.846992
0.123383 -0.051163 0.848152
0.124957 -0.051220 0.849104
0.126496 -0.051262 0.849798
-0.012072 -0.052669 0.898357
-0.010543 -0.052616 0.897461
-0.009012 -0.052535 0.896070
-0.007486 -0.052455 0.894705
-0.005963 -0.052368 0.893226
-0.004447 -0.052291 0.891909
-0.002933 -0.052195 0.890275
-0.001426 -0.052108 0.888790
0.000076 -0.052016 0.887223
0.001573 -0.051895 0.885160
0.003062 -0.051783 0.883247
0.004546 -0.051670 0.881313
0.006023 -0.051559 0.879430
0.007493 -0.051446 0.877497
0.008961 -0.051361 0.876057
0.010425 -0.051277 0.874622
0.011887 -0.051204 0.873375
0.013346 -0.051138 0.872242
0.014808 -0.051095 0.871516
0.016270 -0.051059 0.870907
0.017727 -0.051015 0.870145
0.019185 -0.050979 0.869530
0.020637 -0.050936 0.868809
0.022084 -0.050885 0.867932
0.023529 -0.050838 0.867133
0.024980 -0.050807 0.866595
0.026432 -0.050781 0.866165
0.027891 -0.050772 0.866000
0.029341 -0.050748 0.865600
0.030789 -0.050723 0.865163
0.032234 -0.050695 0.864697
0.033672 -0.050660 0.864086
0.035110 -0.050625 0.863506
0.036555 -0.050605 0.863160
0.037998 -0.050584 0.862805
0.039451 -0.050577 0.862685
0.040910 -0.050577 0.862685
0.042370 -0.050580 0.862723
0.043838 -0.050591 0.862910
0.045310 -0.050605 0.863160
0.046774 -0.050610 0.863245
0.048243 -0.050620 0.863414
0.049716 -0.050635 0.863663
0.051187 -0.050645 0.863838
0.052633 -0.050631 0.863600
0.054086 -0.050624 0.863486
0.055527 -0.050607 0.863197
0.056901 -0.050532 0.861910
0.058260 -0.050446 0.860453
0.059506 -0.050270 0.857449
0.060633 -0.050004 0.852909
0.061725 -0.049722 0.848102
0.062857 -0.049486 0.844062
0.063992 -0.049261 0.840227
0.065257 -0.049144 0.838228
0.066579 -0.049074 0.837037
0.067890 -0.048998 0.835751
0.069181 -0.048912 0.834276
0.070478 -0.048834 0.832943
0.071761 -0.048749 0.831495
0.073069 -0.048683 0.830378
0.074400 -0.048636 0.829569
0.075737 -0.048594 0.828856
0.077079 -0.048557 0.828221
0.078462 -0.048546 0.828032
0.079855 -0.048542 0.827961
0.081236 -0.048531 0.827774
0.082658 -0.048544 0.827996
0.084093 -0.048565 0.828352
0.085529 -0.048584 0.828691
0.086983 -0.048614 0.829198
0.088454 -0.048652 0.829849
0.089900 -0.048676 0.830248
0.091370 -0.048711 0.830853
0.092837 -0.048744 0.831408
0.094335 -0.048792 0.832228
0.095847 -0.048845 0.833137
0.097351 -0.048893 0.833959
0.098847 -0.048936 0.834687
0.100343 -0.048977 0.835390
0.101835 -0.049016 0.836049
0.103322 -0.049051 0.836643
0.104828 -0.049094 0.837377
0.106296 -0.049118 0.837790
0.107763 -0.049141 0.838183
0.109262 -0.049178 0.838809
0.110808 -0.049235 0.839781
0.112356 -0.049291 0.840740
0.113903 -0.049345 0.841668
0.115487 -0.049414 0.842847
0.117034 -0.049466 0.843727
0.118580 -0.049516 0.844579
0.120151 -0.049575 0.845585
0.121768 -0.049651 0.846890
0.123369 -0.049719 0.848050
0.124953 -0.049779 0.849075
0.126491 -0.049820 0.849761
-0.013625 -0.051272 0.900567
-0.012086 -0.051203 0.899363
-0.010552 -0.051140 0.898248
-0.009018 -0.051047 0.896621
-0.007488 -0.050953 0.894975
-0.005964 -0.050863 0.893381
-0.004446 -0.050774 0.891816
-0.002933 -0.050685 0.890267
-0.001426 -0.050602 0.888798
0.000076 -0.050514 0.887256
0.001573 -0.050402 0.885282
0.003063 -0.050301 0.883521
0.004547 -0.050192 0.881600
0.006025 -0.050089 0.879797
0.007497 -0.049989 0.878028
0.008967 -0.049907 0.876593
0.010432 -0.049825 0.875159
0.011894 -0.049754 0.873907
0.013353 -0.049684 0.872684
0.014813 -0.049634 0.871796
0.016275 -0.049598 0.871160
0.017731 -0.049549 0.870315
0.019187 -0.049510 0.869616
0.020642 -0.049473 0.868978
0.022088 -0.049424 0.868107
0.023533 -0.049374 0.867243
0.024983 -0.049344 0.866698
0.026435 -0.049318 0.866259
0.027891 -0.049304 0.866011
0.029342 -0.049282 0.865609
0.030789 -0.049256 0.865169
0.032237 -0.049234 0.864773
0.033679 -0.049204 0.864251
0.035120 -0.049176 0.863764
0.036569 -0.049162 0.863512
0.038018 -0.049147 0.863242
0.039472 -0.049140 0.863128
0.040934 -0.049145 0.863205
0.042396 -0.049147 0.863249
0.043869 -0.049162 0.863515
0.045346 -0.049181 0.863839
0.046811 -0.049186 0.863925
0.048271 -0.049186 0.863933
0.049746 -0.049199 0.864166
0.051211 -0.049204 0.864252
0.052654 -0.049187 0.863944
0.054108 -0.049181 0.863837
0.055555 -0.049169 0.863634
0.056936 -0.049101 0.862436
0.058302 -0.049024 0.861086
0.059593 -0.048888 0.858704
