1706
0.126023 -0.039970 0.886909
0.128380 -0.040239 0.892873
0.130830 -0.040530 0.899342
0.133187 -0.040786 0.905024
0.135413 -0.040997 0.909701
0.137178 -0.041065 0.911207
0.138898 -0.041118 0.912387
0.140567 -0.041155 0.913213
0.142217 -0.041186 0.913895
0.145142 -0.041582 0.922666
-0.020859 -0.038363 0.884526
-0.019350 -0.038337 0.883922
-0.017841 -0.038306 0.883211
-0.016330 -0.038264 0.882246
-0.014818 -0.038210 0.880991
-0.013307 -0.038148 0.879566
-0.011804 -0.038096 0.878368
-0.010305 -0.038045 0.877181
-0.008815 -0.038013 0.876440
-0.007327 -0.037980 0.875682
-0.005843 -0.037961 0.875258
-0.004361 -0.037935 0.874649
-0.002880 -0.037911 0.874093
-0.001401 -0.037883 0.873457
0.000075 -0.037861 0.872937
0.001550 -0.037828 0.872187
0.003022 -0.037801 0.871571
0.004492 -0.037777 0.871006
0.005962 -0.037761 0.870638
0.007434 -0.037758 0.870569
0.008909 -0.037774 0.870935
0.010386 -0.037790 0.871310
0.011866 -0.037812 0.871816
0.013341 -0.037816 0.871908
0.014815 -0.037816 0.871904
0.016298 -0.037836 0.872374
0.017784 -0.037860 0.872916
0.019283 -0.037907 0.874001
0.020791 -0.037962 0.875272
0.022311 -0.038031 0.876854
0.023836 -0.038099 0.878440
0.025397 -0.038213 0.881068
0.026958 -0.038315 0.883419
0.028531 -0.038422 0.885881
0.030097 -0.038510 0.887904
0.031648 -0.038570 0.889303
0.033158 -0.038578 0.889475
0.034657 -0.038573 0.889366
0.036128 -0.038538 0.888554
0.037583 -0.038489 0.887436
0.039017 -0.038424 0.885938
0.040447 -0.038360 0.884461
0.041866 -0.038291 0.882857
0.043302 -0.038241 0.881698
0.044734 -0.038191 0.880548
0.046166 -0.038144 0.879467
0.047594 -0.038097 0.878390
0.049014 -0.038047 0.877227
0.050440 -0.038004 0.876235
0.051863 -0.037961 0.875247
0.053289 -0.037922 0.874361
0.054711 -0.037884 0.873478
0.056142 -0.037853 0.872761
0.057565 -0.037819 0.871973
0.058986 -0.037785 0.871184
0.060405 -0.037751 0.870402
0.061843 -0.037731 0.869940
0.063271 -0.037705 0.869347
0.064691 -0.037676 0.868682
0.066106 -0.037646 0.867982
0.067530 -0.037621 0.867421
0.068927 -0.037584 0.866554
0.070336 -0.037554 0.865867
0.071783 -0.037545 0.865660
0.073245 -0.037544 0.865638
0.074704 -0.037542 0.865591
0.076169 -0.037543 0.865611
0.077646 -0.037549 0.865756
0.079115 -0.037552 0.865824
0.080588 -0.037556 0.865924
0.082063 -0.037561 0.866034
0.083543 -0.037568 0.866203
0.085006 -0.037568 0.866195
0.086453 -0.037561 0.866020
0.087900 -0.037553 0.865851
0.089364 -0.037553 0.865845
0.090820 -0.037550 0.865774
0.092275 -0.037547 0.865694
0.093754 -0.037553 0.865837
0.095253 -0.037567 0.866161
0.096776 -0.037590 0.866687
0.098324 -0.037621 0.867411
0.099881 -0.037655 0.868199
0.101448 -0.037692 0.869049
0.102998 -0.037722 0.869738
0.104534 -0.037746 0.870286
0.106061 -0.037765 0.870737
0.107616 -0.037794 0.871409
0.109135 -0.037810 0.871777
0.110657 -0.037827 0.872157
0.112220 -0.037857 0.872844
0.113819 -0.037898 0.873796
0.115418 -0.037938 0.874717
0.117020 -0.037978 0.875641
0.118677 -0.038034 0.876943
0.120292 -0.038076 0.877914
0.121960 -0.038134 0.879238
0.123738 -0.038224 0.881315
0.126037 -0.038471 0.887012
0.128412 -0.038735 0.893099
0.130863 -0.039015 0.899564
0.133217 -0.039261 0.905228
0.135444 -0.039464 0.909912
0.137207 -0.039529 0.911403
0.138926 -0.039580 0.912574
0.140596 -0.039616 0.913398
0.142245 -0.039645 0.914075
0.144994 -0.039977 0.921724
-0.019370 -0.036876 0.884817
-0.017860 -0.036847 0.884129
-0.016351 -0.036814 0.883341
-0.014836 -0.036762 0.882078
-0.013323 -0.036703 0.880656
-0.011817 -0.036649 0.879376
-0.010318 -0.036603 0.878267
-0.008824 -0.036566 0.877372
-0.007334 -0.036533 0.876598
-0.005849 -0.036512 0.876074
-0.004364 -0.036482 0.875357
-0.002882 -0.036455 0.874713
-0.001403 -0.036431 0.874153
0.000075 -0.036410 0.873634
0.001551 -0.036378 0.872880
0.003024 -0.036352 0.872245
0.004495 -0.036325 0.871585
0.005966 -0.036309 0.871212
0.007438 -0.036304 0.871082
0.008915 -0.036323 0.871549
0.010394 -0.036342 0.872007
0.011875 -0.036363 0.872519
0.013351 -0.036364 0.872535
0.014827 -0.036367 0.872603
0.016310 -0.036384 0.873009
0.017795 -0.036403 0.873465
0.019295 -0.036448 0.874547
0.020804 -0.036500 0.875809
0.022323 -0.036564 0.877322
0.023853 -0.036636 0.879066
0.025421 -0.036754 0.881886
0.026987 -0.036856 0.884344
0.028561 -0.036959 0.886820
0.030128 -0.037042 0.888813
0.031676 -0.037096 0.890098
0.033185 -0.037100 0.890191
0.034683 -0.037092 0.890013
0.036158 -0.037062 0.889292
0.037618 -0.037019 0.888256
0.039054 -0.036957 0.886772
0.040485 -0.036896 0.885289
0.041906 -0.036829 0.883686
0.043337 -0.036776 0.882415
0.044766 -0.036724 0.881169
0.046193 -0.036675 0.879990
0.047618 -0.036626 0.878831
0.049043 -0.036581 0.877747
0.050476 -0.036544 0.876853
0.051900 -0.036504 0.875880
0.053333 -0.036470 0.875083
0.054757 -0.036434 0.874202
0.056183 -0.036400 0.873394
0.057596 -0.036360 0.872434
0.059017 -0.036327 0.871634
0.060429 -0.036290 0.870757
0.061863 -0.036268 0.870217
0.063284 -0.036239 0.869533
0.064717 -0.036218 0.869024
0.066138 -0.036192 0.868403
0.067570 -0.036172 0.867936
0.068982 -0.036144 0.867243
0.070406 -0.036122 0.866719
0.071854 -0.036113 0.866518
0.073320 -0.036114 0.866522
0.074781 -0.036112 0.866488
0.076241 -0.036110 0.866431
0.077704 -0.036109 0.866406
0.079157 -0.036103 0.866280
0.080614 -0.036100 0.866197
0.082073 -0.036098 0.866144
0.083545 -0.036101 0.866226
0.084999 -0.036097 0.866119
0.086436 -0.036085 0.865848
0.087873 -0.036074 0.865580
0.089335 -0.036074 0.865565
0.090800 -0.036074 0.865580
0.092274 -0.036079 0.865685
0.093773 -0.036092 0.866014
0.095292 -0.036113 0.866515
0.096826 -0.036139 0.867128
0.098375 -0.036169 0.867862
0.099933 -0.036202 0.868655
0.101502 -0.036238 0.869517
0.103054 -0.036267 0.870207
0.104590 -0.036290 0.870747
0.106117 -0.036308 0.871199
0.107673 -0.036337 0.871873
0.109192 -0.036351 0.872233
0.110712 -0.036366 0.872591
0.112264 -0.036391 0.873187
0.113862 -0.036430 0.874127
0.115451 -0.036466 0.874970
0.117055 -0.036504 0.875899
0.118711 -0.036558 0.877197
0.120339 -0.036602 0.878254
0.121999 -0.036655 0.879516
0.123782 -0.036743 0.881629
0.126099 -0.036986 0.887447
0.128502 -0.037247 0.893726
0.130956 -0.037517 0.900208
0.133323 -0.037757 0.905952
0.135561 -0.037955 0.910699
0.137311 -0.038013 0.912095
0.139014 -0.038057 0.913154
0.141180 -0.038225 0.917197
0.143391 -0.038402 0.921438
-0.019389 -0.035411 0.885682
-0.017878 -0.035384 0.885029
-0.016368 -0.035354 0.884258
-0.014853 -0.035306 0.883069
-0.013340 -0.035253 0.881727
-0.011833 -0.035205 0.880547
-0.010333 -0.035165 0.879533
-0.008837 -0.035132 0.878717
-0.007345 -0.035097 0.877848
-0.005856 -0.035069 0.877139
-0.004369 -0.035033 0.876243
-0.002885 -0.035000 0.875414
-0.001403 -0.034972 0.874701
0.000075 -0.034948 0.874106
0.001552 -0.034917 0.873349
0.003026 -0.034891 0.872691
0.004498 -0.034864 0.872014
0.005969 -0.034849 0.871635
0.007442 -0.034844 0.871502
0.008920 -0.034863 0.871977
0.010399 -0.034881 0.872442
0.011880 -0.034899 0.872881
0.013356 -0.034899 0.872893
0.014834 -0.034906 0.873049
0.016319 -0.034925 0.873533
0.017806 -0.034943 0.873998
0.019309 -0.034990 0.875166
0.020820 -0.035043 0.876495
0.022341 -0.035104 0.878019
0.023876 -0.035179 0.879891
0.025448 -0.035296 0.882825
0.027015 -0.035395 0.885292
0.028588 -0.035489 0.887649
0.030152 -0.035564 0.889526
0.031698 -0.035612 0.890714
0.033208 -0.035616 0.890817
0.034708 -0.035610 0.890666
0.036189 -0.035586 0.890054
0.037654 -0.035548 0.889114
0.039092 -0.035489 0.887638
0.040525 -0.035430 0.886153
0.041949 -0.035368 0.884608
0.043378 -0.035313 0.883243
0.044806 -0.035262 0.881959
0.046230 -0.035211 0.880687
0.047655 -0.035164 0.879515
0.049082 -0.035121 0.878440
0.050521 -0.035089 0.877631
0.051948 -0.035051 0.876683
0.053382 -0.035019 0.875890
0.054802 -0.034980 0.874915
0.056223 -0.034944 0.874018
0.057630 -0.034902 0.872953
0.059046 -0.034866 0.872065
0.060458 -0.034831 0.871173
0.061886 -0.034805 0.870545
0.063302 -0.034775 0.869773
0.064733 -0.034754 0.869247
0.066156 -0.034729 0.868632
0.067589 -0.034711 0.868184
0.069015 -0.034690 0.867658
0.070454 -0.034676 0.867309
0.071912 -0.034672 0.867212
0.073386 -0.034676 0.867306
0.074856 -0.034678 0.867347
0.076316 -0.034675 0.867279
0.077778 -0.034673 0.867230
0.079225 -0.034665 0.867022
0.080674 -0.034658 0.866844
0.082118 -0.034648 0.866615
0.083575 -0.034645 0.866531
0.085013 -0.034634 0.866264
0.086434 -0.034617 0.865823
0.087860 -0.034602 0.865451
0.089321 -0.034601 0.865428
0.090786 -0.034602 0.865451
0.092272 -0.034610 0.865663
0.093790 -0.034631 0.866174
0.095329 -0.034658 0.866853
0.096875 -0.034687 0.867574
0.098434 -0.034719 0.868389
0.099995 -0.034752 0.869195
0.101564 -0.034786 0.870046
0.103108 -0.034810 0.870667
0.104656 -0.034835 0.871295
0.106194 -0.034857 0.871831
0.107751 -0.034884 0.872505
0.109270 -0.034898 0.872860
0.110790 -0.034912 0.873207
0.112331 -0.034932 0.873713
0.113910 -0.034963 0.874494
0.115498 -0.034996 0.875324
0.117102 -0.035034 0.876251
0.118759 -0.035086 0.877553
0.120390 -0.035129 0.878628
0.122051 -0.035179 0.879896
0.123972 -0.035303 0.882984
0.126310 -0.035541 0.888932
0.128723 -0.035793 0.895258
0.131204 -0.036059 0.901908
0.133595 -0.036295 0.907798
0.135706 -0.036450 0.911671
0.137445 -0.036502 0.912984
0.139150 -0.036545 0.914042
0.141354 -0.036716 0.918323
0.144130 -0.037030 0.926187
-0.019419 -0.033962 0.887051
-0.017903 -0.033932 0.886274
-0.016386 -0.033893 0.885249
-0.014869 -0.033847 0.884053
-0.013356 -0.033799 0.882788
-0.011847 -0.033754 0.881619
-0.010346 -0.033719 0.880702
-0.008849 -0.033688 0.879899
-0.007355 -0.033658 0.879110
-0.005863 -0.033624 0.878219
-0.004373 -0.033585 0.877219
-0.002887 -0.033550 0.876287
-0.001405 -0.033522 0.875563
0.000075 -0.033493 0.874814
0.001553 -0.033467 0.874137
0.003028 -0.033439 0.873406
0.004501 -0.033410 0.872637
0.005973 -0.033392 0.872168
0.007445 -0.033383 0.871939
0.008922 -0.033395 0.872244
0.010402 -0.033412 0.872696
0.011886 -0.033435 0.873296
0.013366 -0.033445 0.873562
0.014850 -0.033461 0.873973
0.016340 -0.033487 0.874643
0.017832 -0.033511 0.875275
0.019335 -0.033552 0.876347
0.020846 -0.033600 0.877612
0.022369 -0.033659 0.879149
0.023912 -0.033738 0.881214
0.025484 -0.033848 0.884092
0.027052 -0.033940 0.886483
0.028620 -0.034022 0.888638
0.030179 -0.034087 0.890314
0.031717 -0.034122 0.891246
0.033229 -0.034127 0.891367
0.034731 -0.034122 0.891245
0.036219 -0.034105 0.890802
0.037689 -0.034073 0.889953
0.039136 -0.034022 0.888641
0.040571 -0.033966 0.887173
0.041998 -0.033907 0.885624
0.043419 -0.033848 0.884079
0.044843 -0.033795 0.882687
0.046260 -0.033740 0.881251
0.047681 -0.033691 0.879986
0.049113 -0.033654 0.879000
0.050553 -0.033622 0.878189
0.051986 -0.033589 0.877321
0.053421 -0.033559 0.876526
0.054835 -0.033518 0.875458
0.056251 -0.033480 0.874457
0.057658 -0.033438 0.873378
0.059064 -0.033398 0.872329
0.060471 -0.033361 0.871358
0.061898 -0.033336 0.870711
0.063312 -0.033306 0.869919
0.064743 -0.033285 0.869388
0.066180 -0.033269 0.868949
0.067621 -0.033255 0.868597
0.069057 -0.033239 0.868178
0.070503 -0.033229 0.867916
0.071963 -0.033226 0.867824
0.073431 -0.033226 0.867839
0.074900 -0.033227 0.867861
0.076360 -0.033224 0.867781
0.077817 -0.033220 0.867664
0.079264 -0.033211 0.867454
0.080707 -0.033202 0.867196
0.082142 -0.033189 0.866876
0.083591 -0.033183 0.866698
0.085021 -0.033169 0.866341
0.086433 -0.033149 0.865817
0.087859 -0.033134 0.865442
0.089319 -0.033133 0.865417
0.090785 -0.033134 0.865442
0.092271 -0.033143 0.865657
0.093799 -0.033166 0.866257
0.095349 -0.033195 0.867028
0.096906 -0.033226 0.867847
0.098484 -0.033264 0.868827
0.100064 -0.033301 0.869791
0.101634 -0.033334 0.870647
0.103180 -0.033357 0.871268
0.104737 -0.033384 0.871972
0.106278 -0.033405 0.872518
0.107838 -0.033432 0.873210
0.109370 -0.033449 0.873655
0.110903 -0.033466 0.874095
0.112436 -0.033482 0.874526
0.114014 -0.033512 0.875294
0.115591 -0.033540 0.876027
0.117184 -0.033572 0.876868
0.118833 -0.033619 0.878096
0.120466 -0.033660 0.879179
0.122266 -0.033747 0.881440
0.124351 -0.033909 0.885680
0.126735 -0.034148 0.891924
0.129170 -0.034395 0.898367
0.131669 -0.034653 0.905108
0.133923 -0.034841 0.910028
0.135893 -0.034952 0.912923
0.137608 -0.034996 0.914063
0.139299 -0.035033 0.915022
0.141958 -0.035309 0.922245
-0.019446 -0.032504 0.888322
-0.017929 -0.032477 0.887573
-0.016406 -0.032431 0.886322
-0.014887 -0.032388 0.885129
-0.013372 -0.032341 0.883867
-0.011862 -0.032299 0.882694
-0.010358 -0.032263 0.881706
-0.008859 -0.032233 0.880904
-0.007364 -0.032204 0.880119
-0.005869 -0.032169 0.879153
-0.004378 -0.032135 0.878216
-0.002891 -0.032103 0.877344
-0.001407 -0.032079 0.876695
0.000075 -0.032052 0.875942
0.001555 -0.032027 0.875267
0.003032 -0.031997 0.874454
0.004506 -0.031966 0.873615
0.005978 -0.031943 0.872982
0.007451 -0.031931 0.872654
0.008928 -0.031935 0.872760
0.010409 -0.031954 0.873267
0.011895 -0.031979 0.873952
0.013380 -0.031996 0.874423
0.014868 -0.032019 0.875051
0.016364 -0.032050 0.875901
0.017858 -0.032074 0.876546
0.019359 -0.032107 0.877458
0.020873 -0.032153 0.878711
0.022397 -0.032209 0.880240
0.023948 -0.032294 0.882568
0.025519 -0.032394 0.885303
0.027088 -0.032481 0.887676
0.028655 -0.032555 0.889716
0.030209 -0.032610 0.891203
0.031740 -0.032635 0.891891
0.033256 -0.032643 0.892097
0.034762 -0.032641 0.892052
0.036252 -0.032625 0.891612
0.037730 -0.032600 0.890920
0.039179 -0.032552 0.889621
0.040620 -0.032502 0.888243
0.042049 -0.032446 0.886708
0.043472 -0.032389 0.885165
0.044889 -0.032332 0.883607
0.046306 -0.032278 0.882142
0.047725 -0.032229 0.880797
0.049158 -0.032193 0.879806
0.050600 -0.032164 0.879001
0.052034 -0.032132 0.878128
0.053463 -0.032099 0.877230
0.054874 -0.032056 0.876070
0.056279 -0.032013 0.874886
0.057681 -0.031970 0.873723
0.059081 -0.031929 0.872590
0.060490 -0.031894 0.871628
0.061911 -0.031867 0.870898
0.063332 -0.031841 0.870188
0.064763 -0.031821 0.869653
0.066207 -0.031809 0.869308
0.067651 -0.031797 0.868972
0.069099 -0.031787 0.868716
0.070553 -0.031780 0.868535
0.072014 -0.031777 0.868443
0.073482 -0.031777 0.868442
0.074944 -0.031775 0.868373
0.076398 -0.031769 0.868206
0.077849 -0.031762 0.868020
0.079292 -0.031752 0.867756
0.080728 -0.031740 0.867426
0.082170 -0.031730 0.867165
0.083610 -0.031720 0.866893
0.085031 -0.031704 0.866448
0.086444 -0.031685 0.865923
0.087871 -0.031672 0.865561
0.089323 -0.031668 0.865456
0.090797 -0.031672 0.865561
0.092290 -0.031682 0.865837
0.093827 -0.031707 0.866512
0.095386 -0.031738 0.867366
0.096953 -0.031771 0.868268
0.098534 -0.031807 0.869265
0.100114 -0.031842 0.870229
0.101694 -0.031877 0.871164
0.103250 -0.031902 0.871862
0.104810 -0.031928 0.872578
0.106362 -0.031951 0.873208
0.107945 -0.031983 0.874078
0.109492 -0.032004 0.874631
0.111039 -0.032023 0.875172
0.112585 -0.032042 0.875690
0.114155 -0.032067 0.876370
0.115710 -0.032088 0.876931
0.117280 -0.032112 0.877585
0.119076 -0.032196 0.879893
0.120882 -0.032281 0.882221
0.122866 -0.032411 0.885770
0.125027 -0.032584 0.890495
0.127449 -0.032820 0.896948
0.129741 -0.033017 0.902340
0.132048 -0.033214 0.907713
0.134150 -0.033355 0.911566
0.136093 -0.033454 0.914267
0.137796 -0.033492 0.915314
0.139490 -0.033527 0.916275
-0.021003 -0.031080 0.890659
-0.019469 -0.031035 0.889360
-0.017951 -0.031009 0.888630
-0.016425 -0.030965 0.887353
-0.014906 -0.030926 0.886242
-0.013390 -0.030884 0.885041
-0.011877 -0.030840 0.883781
-0.010372 -0.030808 0.882857
-0.008871 -0.030780 0.882051
-0.007373 -0.030753 0.881267
-0.005877 -0.030719 0.880298
-0.004385 -0.030690 0.879464
-0.002895 -0.030660 0.878609
-0.001409 -0.030635 0.877893
0.000075 -0.030611 0.877210
0.001557 -0.030590 0.876602
0.003037 -0.030564 0.875862
0.004513 -0.030532 0.874961
0.005988 -0.030512 0.874387
0.007462 -0.030495 0.873884
0.008939 -0.030494 0.873870
0.010421 -0.030509 0.874294
0.011909 -0.030534 0.875001
0.013395 -0.030549 0.875447
0.014889 -0.030578 0.876275
0.016385 -0.030606 0.877070
0.017881 -0.030628 0.877709
0.019383 -0.030657 0.878518
0.020898 -0.030700 0.879758
0.022423 -0.030753 0.881272
0.023979 -0.030837 0.883685
0.025547 -0.030927 0.886269
0.027120 -0.031012 0.888717
0.028687 -0.031083 0.890738
0.030241 -0.031132 0.892135
0.031773 -0.031156 0.892823
0.033293 -0.031166 0.893106
0.034798 -0.031161 0.892965
0.036289 -0.031145 0.892510
0.037771 -0.031123 0.891891
0.039223 -0.031079 0.890611
0.040666 -0.031031 0.889252
0.042101 -0.030981 0.887811
0.043525 -0.030926 0.886250
0.044940 -0.030869 0.884598
0.046354 -0.030814 0.883041
0.047773 -0.030767 0.881690
0.049204 -0.030730 0.880615
0.050641 -0.030699 0.879726
0.052076 -0.030668 0.878841
0.053502 -0.030633 0.877853
0.054907 -0.030590 0.876606
0.056312 -0.030548 0.875410
0.057715 -0.030507 0.874239
0.059110 -0.030465 0.873020
0.060520 -0.030431 0.872063
0.061942 -0.030406 0.871335
0.063365 -0.030382 0.870638
0.064798 -0.030364 0.870118
0.066249 -0.030354 0.869862
0.067700 -0.030346 0.869608
0.069156 -0.030339 0.869433
0.070617 -0.030336 0.869322
0.072079 -0.030332 0.869224
0.073541 -0.030329 0.869138
0.075003 -0.030326 0.869055
0.076457 -0.030320 0.868885
0.077910 -0.030314 0.868704
0.079362 -0.030308 0.868526
0.080800 -0.030296 0.868196
0.082235 -0.030284 0.867855
0.083667 -0.030272 0.867483
0.085089 -0.030256 0.867037
0.086495 -0.030235 0.866441
0.087925 -0.030223 0.866089
0.089370 -0.030217 0.865909
0.090843 -0.030220 0.865997
0.092328 -0.030226 0.866189
0.093865 -0.030250 0.866861
0.095425 -0.030280 0.867723
0.097001 -0.030314 0.868700
0.098583 -0.030349 0.869700
0.100174 -0.030385 0.870749
0.101758 -0.030419 0.871709
0.103324 -0.030446 0.872493
0.104895 -0.030474 0.873287
0.106468 -0.030502 0.874079
0.108065 -0.030536 0.875051
0.109637 -0.030561 0.875787
0.111200 -0.030584 0.876436
0.112749 -0.030602 0.876963
0.114298 -0.030620 0.877474
0.115841 -0.030636 0.877923
0.117565 -0.030699 0.879720
0.119534 -0.030823 0.883279
0.121531 -0.030951 0.886953
0.123712 -0.031123 0.891870
0.126045 -0.031328 0.897748
0.128346 -0.031520 0.903257
0.130439 -0.031657 0.907197
0.132569 -0.031800 0.911291
0.134522 -0.031898 0.914097
0.136323 -0.031958 0.915815
0.138017 -0.031992 0.916781
0.140095 -0.032113 0.920253
-0.021018 -0.029591 0.891275
-0.019487 -0.029555 0.890190
-0.017969 -0.029532 0.889518
-0.016442 -0.029492 0.888298
-0.014923 -0.029458 0.887278
-0.013407 -0.029421 0.886155
-0.011891 -0.029378 0.884878
-0.010384 -0.029347 0.883946
-0.008882 -0.029320 0.883117
-0.007383 -0.029296 0.882405
-0.005885 -0.029265 0.881454
-0.004391 -0.029240 0.880712
-0.002900 -0.029216 0.879976
-0.001411 -0.029192 0.879277
0.000076 -0.029170 0.878600
0.001560 -0.029152 0.878061
0.003042 -0.029130 0.877401
0.004520 -0.029097 0.876413
0.005998 -0.029079 0.875842
0.007474 -0.029061 0.875318
0.008952 -0.029055 0.875143
0.010435 -0.029064 0.875412
0.011925 -0.029090 0.876199
0.013414 -0.029106 0.876657
0.014908 -0.029130 0.877399
0.016406 -0.029156 0.878178
0.017905 -0.029179 0.878873
0.019407 -0.029203 0.879594
0.020923 -0.029244 0.880831
0.022453 -0.029297 0.882426
0.024010 -0.029378 0.884850
0.025576 -0.029458 0.887281
0.027149 -0.029537 0.889651
0.028715 -0.029601 0.891576
0.030267 -0.029645 0.892897
0.031801 -0.029668 0.893598
0.033323 -0.029678 0.893891
0.034831 -0.029676 0.893827
0.036323 -0.029660 0.893357
0.037808 -0.029640 0.892748
0.039261 -0.029597 0.891468
0.040710 -0.029555 0.890200
0.042146 -0.029507 0.888746
0.043567 -0.029452 0.887101
0.044982 -0.029397 0.885430
0.046392 -0.029342 0.883782
0.047812 -0.029297 0.882416
0.049240 -0.029259 0.881263
0.050678 -0.029229 0.880367
0.052113 -0.029199 0.879466
0.053540 -0.029166 0.878483
0.054942 -0.029122 0.877153
0.056348 -0.029082 0.875959
0.057751 -0.029043 0.874780
0.059141 -0.029000 0.873470
0.060556 -0.028970 0.872584
0.061986 -0.028949 0.871946
0.063416 -0.028929 0.871341
0.064857 -0.028915 0.870913
0.066310 -0.028906 0.870653
0.067755 -0.028895 0.870315
0.069206 -0.028886 0.870052
0.070662 -0.028880 0.869870
0.072118 -0.028875 0.869700
0.073581 -0.028872 0.869616
0.075044 -0.028869 0.869530
0.076505 -0.028866 0.869433
0.077965 -0.028862 0.869322
0.079426 -0.028859 0.869224
0.080872 -0.028850 0.868972
0.082309 -0.028839 0.868632
0.083734 -0.028824 0.868185
0.085157 -0.028809 0.867731
0.086564 -0.028789 0.867128
0.087995 -0.028778 0.866778
0.089441 -0.028771 0.866593
0.090914 -0.028774 0.866672
0.092391 -0.028778 0.866784
0.093922 -0.028798 0.867389
0.095484 -0.028827 0.868255
0.097061 -0.028859 0.869232
0.098643 -0.028892 0.870228
0.100244 -0.028930 0.871359
0.101840 -0.028965 0.872409
0.103411 -0.028991 0.873221
0.105004 -0.029024 0.874191
0.106599 -0.029056 0.875156
0.108199 -0.029088 0.876134
0.109775 -0.029113 0.876887
0.111339 -0.029135 0.877534
0.112890 -0.029152 0.878059
0.114430 -0.029166 0.878487
0.115973 -0.029181 0.878922
0.117864 -0.029282 0.881955
0.120018 -0.029444 0.886852
0.122209 -0.029612 0.891902
0.124592 -0.029821 0.898209
0.127088 -0.030052 0.905175
0.129208 -0.030190 0.909328
0.131126 -0.030278 0.911975
0.133080 -0.030372 0.914810
0.134885 -0.030430 0.916566
0.136543 -0.030455 0.917291
0.138242 -0.030487 0.918275
0.140693 -0.030683 0.924183
-0.021032 -0.028099 0.891893
-0.019505 -0.028071 0.890995
-0.017988 -0.028054 0.890457
-0.016461 -0.028018 0.889303
-0.014940 -0.027986 0.888284
-0.013422 -0.027951 0.887175
-0.011905 -0.027911 0.885894
-0.010395 -0.027879 0.884881
-0.008890 -0.027850 0.883969
-0.007390 -0.027827 0.883248
-0.005891 -0.027802 0.882455
-0.004397 -0.027784 0.881890
-0.002904 -0.027767 0.881344
-0.001413 -0.027750 0.880814
0.000076 -0.027732 0.880219
0.001563 -0.027714 0.879668
0.003047 -0.027692 0.878948
0.004528 -0.027658 0.877886
0.006008 -0.027640 0.877316
0.007486 -0.027623 0.876763
0.008966 -0.027616 0.876534
0.010452 -0.027626 0.876868
0.011947 -0.027654 0.877752
0.013437 -0.027667 0.878156
0.014933 -0.027689 0.878857
0.016431 -0.027709 0.879512
0.017930 -0.027728 0.880117
0.019433 -0.027749 0.880776
0.020951 -0.027789 0.882024
0.022484 -0.027840 0.883643
0.024044 -0.027916 0.886080
0.025607 -0.027988 0.888356
0.027178 -0.028059 0.890621
0.028746 -0.028120 0.892539
0.030300 -0.028162 0.893884
0.031837 -0.028185 0.894620
0.033364 -0.028198 0.895011
0.034875 -0.028196 0.894951
0.036369 -0.028181 0.894471
0.037852 -0.028159 0.893782
0.039306 -0.028119 0.892505
0.040753 -0.028076 0.891149
0.042186 -0.028027 0.889588
0.043599 -0.027969 0.887752
0.045010 -0.027913 0.885983
0.046421 -0.027861 0.884331
0.047843 -0.027819 0.882979
0.049270 -0.027782 0.881812
0.050709 -0.027753 0.880907
0.052145 -0.027725 0.879997
0.053573 -0.027694 0.879020
0.054986 -0.027658 0.877866
0.056400 -0.027623 0.876773
0.057809 -0.027588 0.875667
0.059206 -0.027549 0.874433
0.060622 -0.027521 0.873532
0.062054 -0.027501 0.872904
0.063486 -0.027482 0.872306
0.064929 -0.027469 0.871883
0.066382 -0.027460 0.871601
0.067828 -0.027449 0.871248
0.069267 -0.027436 0.870823
0.070718 -0.027427 0.870560
0.072168 -0.027419 0.870306
0.073626 -0.027414 0.870144
0.075083 -0.027409 0.869983
0.076546 -0.027406 0.869890
0.078007 -0.027403 0.869792
0.079469 -0.027400 0.869700
0.080917 -0.027392 0.869453
0.082361 -0.027384 0.869189
0.083795 -0.027372 0.868817
0.085227 -0.027361 0.868446
0.086652 -0.027347 0.868007
0.088092 -0.027338 0.867735
0.089539 -0.027332 0.867542
0.091013 -0.027335 0.867613
0.092491 -0.027338 0.867717
0.094007 -0.027352 0.868171
0.095561 -0.027377 0.868957
0.097139 -0.027408 0.869937
0.098722 -0.027439 0.870923
0.100326 -0.027475 0.872070
0.101932 -0.027511 0.873200
0.103526 -0.027542 0.874191
0.105122 -0.027573 0.875178
0.106733 -0.027607 0.876253
0.108345 -0.027640 0.877315
0.109931 -0.027666 0.878140
0.111496 -0.027686 0.878770
0.113048 -0.027702 0.879287
0.114579 -0.027713 0.879626
0.116102 -0.027722 0.879899
0.118156 -0.027855 0.884144
0.120487 -0.028050 0.890318
0.122890 -0.028257 0.896874
0.125442 -0.028492 0.904343
0.127962 -0.028714 0.911402
0.129889 -0.028800 0.914117
0.131639 -0.028844 0.915538
0.133433 -0.028898 0.917234
0.135086 -0.028920 0.917928
0.136736 -0.028941 0.918590
0.138452 -0.028975 0.919674
0.141260 -0.029234 0.927901
-0.021032 -0.026587 0.891857
-0.019515 -0.026574 0.891447
-0.017999 -0.026561 0.890997
-0.016476 -0.026534 0.890094
-0.014954 -0.026504 0.889097
-0.013437 -0.026477 0.888167
-0.011921 -0.026444 0.887058
-0.010409 -0.026414 0.886052
-0.008902 -0.026386 0.885140
-0.007400 -0.026365 0.884418
-0.005899 -0.026341 0.883625
-0.004403 -0.026325 0.883072
-0.002908 -0.026311 0.882601
-0.001415 -0.026295 0.882077
0.000076 -0.026280 0.881558
0.001565 -0.026263 0.881019
0.003052 -0.026245 0.880382
0.004536 -0.026215 0.879398
0.006019 -0.026201 0.878912
0.007501 -0.026187 0.878443
0.008984 -0.026180 0.878218
0.010471 -0.026188 0.878481
0.011965 -0.026206 0.879096
0.013453 -0.026210 0.879224
0.014947 -0.026223 0.879653
0.016443 -0.026237 0.880130
0.017941 -0.026252 0.880649
0.019448 -0.026277 0.881478
0.020971 -0.026318 0.882849
0.022508 -0.026370 0.884584
0.024069 -0.026442 0.887021
0.025629 -0.026504 0.889101
0.027195 -0.026566 0.891167
0.028763 -0.026623 0.893072
0.030319 -0.026663 0.894428
0.031861 -0.026689 0.895286
0.033396 -0.026706 0.895864
0.034915 -0.026709 0.895970
0.036410 -0.026695 0.895497
0.037899 -0.026677 0.894894
0.039355 -0.026639 0.893610
0.040799 -0.026595 0.892149
0.042224 -0.026543 0.890397
0.043633 -0.026485 0.888444
0.045036 -0.026427 0.886500
0.046448 -0.026378 0.884848
0.047876 -0.026340 0.883586
0.049305 -0.026306 0.882434
0.050749 -0.026281 0.881605
0.052190 -0.026256 0.880770
0.053625 -0.026230 0.879880
0.055047 -0.026198 0.878833
0.056474 -0.026171 0.877920
0.057886 -0.026139 0.876833
0.059290 -0.026104 0.875676
0.060702 -0.026075 0.874690
0.062130 -0.026054 0.873979
0.063558 -0.026033 0.873295
0.064996 -0.026018 0.872782
0.066438 -0.026005 0.872336
0.067884 -0.025993 0.871964
0.069322 -0.025980 0.871516
0.070773 -0.025972 0.871247
0.072225 -0.025964 0.870984
0.073682 -0.025959 0.870807
0.075133 -0.025952 0.870559
0.076590 -0.025947 0.870391
0.078047 -0.025942 0.870227
0.079510 -0.025939 0.870144
0.080966 -0.025935 0.869983
0.082420 -0.025929 0.869804
0.083864 -0.025921 0.869532
0.085306 -0.025913 0.869245
0.086741 -0.025902 0.868895
0.088183 -0.025894 0.868634
0.089633 -0.025889 0.868460
0.091109 -0.025891 0.868528
0.092587 -0.025894 0.868620
0.094102 -0.025907 0.869050
0.095648 -0.025928 0.869748
0.097227 -0.025957 0.870724
0.098812 -0.025986 0.871722
0.100418 -0.026021 0.872868
0.102035 -0.026057 0.874083
0.103650 -0.026091 0.875241
0.105261 -0.026124 0.876332
0.106884 -0.026159 0.877500
0.108510 -0.026193 0.878653
0.110097 -0.026217 0.879466
0.111663 -0.026236 0.880085
0.113216 -0.026251 0.880594
0.114728 -0.026256 0.880773
0.116232 -0.026260 0.880886
0.118455 -0.026423 0.886379
0.120954 -0.026643 0.893767
0.123535 -0.026876 0.901578
0.126114 -0.027103 0.909187
0.128636 -0.027312 0.916197
0.130364 -0.027350 0.917463
0.131956 -0.027358 0.917746
0.133601 -0.027377 0.918388
0.135272 -0.027401 0.919193
0.136939 -0.027424 0.919950
0.138670 -0.027459 0.921117
-0.021039 -0.025083 0.892160
-0.019522 -0.025073 0.891797
-0.018006 -0.025061 0.891367
-0.016486 -0.025040 0.890633
-0.014966 -0.025017 0.889817
-0.013449 -0.024994 0.888985
-0.011934 -0.024968 0.888065
-0.010423 -0.024944 0.887220
-0.008914 -0.024919 0.886319
-0.007410 -0.024899 0.885596
-0.005908 -0.024878 0.884870
-0.004408 -0.024860 0.884235
-0.002912 -0.024845 0.883691
-0.001417 -0.024830 0.883162
0.000076 -0.024815 0.882630
0.001567 -0.024800 0.882087
0.003056 -0.024784 0.881531
0.004542 -0.024760 0.880650
0.006028 -0.024748 0.880239
0.007512 -0.024736 0.879800
0.008998 -0.024731 0.879629
0.010486 -0.024734 0.879734
0.011979 -0.024746 0.880162
0.013468 -0.024747 0.880205
0.014962 -0.024757 0.880541
0.016456 -0.024766 0.880867
0.017960 -0.024785 0.881563
0.019472 -0.024814 0.882572
0.020999 -0.024855 0.884049
0.022541 -0.024907 0.885884
0.024100 -0.024971 0.888153
0.025655 -0.025023 0.890026
0.027219 -0.025077 0.891956
0.028785 -0.025129 0.893771
0.030343 -0.025168 0.895161
0.031894 -0.025197 0.896206
0.033434 -0.025216 0.896874
0.034954 -0.025219 0.896977
0.036455 -0.025208 0.896591
0.037942 -0.025189 0.895908
0.039404 -0.025155 0.894715
0.040845 -0.025111 0.893154
0.042270 -0.025061 0.891371
0.043676 -0.025003 0.889313
0.045080 -0.024948 0.887352
0.046489 -0.024899 0.885624
0.047918 -0.024864 0.884373
0.049350 -0.024832 0.883235
0.050791 -0.024807 0.882325
0.052233 -0.024783 0.881497
0.053674 -0.024761 0.880685
0.055109 -0.024736 0.879819
0.056545 -0.024714 0.879022
0.057971 -0.024689 0.878122
0.059383 -0.024658 0.877044
0.060797 -0.024630 0.876055
0.062226 -0.024610 0.875321
0.063655 -0.024590 0.874625
0.065088 -0.024573 0.874018
0.066524 -0.024558 0.873473
0.067959 -0.024543 0.872933
0.069386 -0.024526 0.872321
0.070825 -0.024513 0.871880
0.072262 -0.024501 0.871438
0.073706 -0.024491 0.871085
0.075155 -0.024483 0.870814
0.076611 -0.024478 0.870637
0.078069 -0.024473 0.870475
0.079540 -0.024473 0.870475
0.081005 -0.024471 0.870397
0.082460 -0.024467 0.870230
0.083922 -0.024464 0.870129
0.085383 -0.024461 0.870032
0.086838 -0.024457 0.869871
0.088300 -0.024454 0.869788
0.089770 -0.024454 0.869781
0.091239 -0.024454 0.869775
0.092711 -0.024454 0.869781
0.094217 -0.024463 0.870111
0.095754 -0.024480 0.870713
0.097333 -0.024507 0.871675
0.098922 -0.024536 0.872687
0.100540 -0.024571 0.873927
0.102161 -0.024605 0.875157
0.103786 -0.024640 0.876386
0.105399 -0.024671 0.877486
0.107036 -0.024706 0.878741
0.108655 -0.024736 0.879825
0.110255 -0.024762 0.880727
0.111814 -0.024777 0.881276
0.113359 -0.024789 0.881707
0.114851 -0.024790 0.881719
0.116351 -0.024792 0.881791
0.118718 -0.024976 0.888345
0.121220 -0.025184 0.895738
0.123800 -0.025402 0.903512
0.126378 -0.025615 0.911088
0.128880 -0.025808 0.917940
0.130450 -0.025812 0.918064
0.132056 -0.025822 0.918438
0.133729 -0.025845 0.919272
0.135417 -0.025871 0.920180
0.137099 -0.025895 0.921029
0.139109 -0.025980 0.924036
-0.021048 -0.023582 0.892580
-0.019532 -0.023572 0.892217
-0.018016 -0.023563 0.891871
-0.016499 -0.023549 0.891347
-0.014979 -0.023528 0.890550
-0.013462 -0.023509 0.889821
-0.011947 -0.023487 0.888992
-0.010434 -0.023465 0.888161
-0.008923 -0.023439 0.887180
-0.007417 -0.023420 0.886437
-0.005913 -0.023398 0.885633
-0.004412 -0.023379 0.884903
-0.002914 -0.023362 0.884261
-0.001418 -0.023350 0.883800
0.000076 -0.023336 0.883271
0.001568 -0.023322 0.882737
0.003059 -0.023307 0.882175
0.004546 -0.023288 0.881458
0.006033 -0.023276 0.880990
0.007520 -0.023267 0.880644
0.009007 -0.023262 0.880475
0.010497 -0.023267 0.880641
0.011990 -0.023275 0.880967
0.013483 -0.023280 0.881170
0.014977 -0.023288 0.881449
0.016474 -0.023297 0.881798
0.017980 -0.023318 0.882577
0.019497 -0.023347 0.883677
0.021026 -0.023387 0.885180
0.022570 -0.023435 0.887029
0.024128 -0.023492 0.889186
0.025682 -0.023539 0.890938
0.027244 -0.023587 0.892770
0.028809 -0.023633 0.894510
0.030369 -0.023670 0.895921
0.031924 -0.023700 0.897056
0.033465 -0.023718 0.897718
0.034986 -0.023720 0.897812
0.036489 -0.023710 0.897433
0.037978 -0.023692 0.896763
0.039445 -0.023663 0.895656
0.040888 -0.023622 0.894101
0.042319 -0.023577 0.892400
0.043726 -0.023523 0.890334
0.045131 -0.023471 0.888370
0.046542 -0.023425 0.886633
0.047973 -0.023392 0.885372
0.049401 -0.023359 0.884151
0.050844 -0.023335 0.883245
0.052283 -0.023311 0.882331
0.053730 -0.023292 0.881600
0.055172 -0.023271 0.880826
0.056616 -0.023253 0.880127
0.058051 -0.023232 0.879323
0.059470 -0.023206 0.878335
0.060880 -0.023177 0.877249
0.062304 -0.023155 0.876423
0.063734 -0.023136 0.875707
0.065163 -0.023118 0.875014
0.066601 -0.023104 0.874473
0.068035 -0.023089 0.873913
0.069457 -0.023070 0.873209
0.070883 -0.023054 0.872598
0.072315 -0.023040 0.872071
0.073751 -0.023028 0.871618
0.075192 -0.023018 0.871247
0.076648 -0.023013 0.871056
0.078106 -0.023009 0.870885
0.079578 -0.023009 0.870885
0.081050 -0.023009 0.870885
0.082515 -0.023007 0.870808
0.083987 -0.023007 0.870808
0.085460 -0.023007 0.870815
0.086934 -0.023007 0.870829
0.088407 -0.023008 0.870845
0.089888 -0.023010 0.870929
0.091361 -0.023010 0.870929
0.092833 -0.023010 0.870929
0.094332 -0.023016 0.871171
0.095861 -0.023030 0.871684
0.097434 -0.023053 0.872573
0.099032 -0.023082 0.873660
0.100654 -0.023115 0.874918
0.102288 -0.023150 0.876245
0.103916 -0.023183 0.877486
0.105540 -0.023214 0.878656
0.107168 -0.023245 0.879826
0.108800 -0.023276 0.880996
0.110404 -0.023300 0.881913
0.111977 -0.023317 0.882563
0.113526 -0.023329 0.883006
0.115029 -0.023331 0.883081
0.116528 -0.023332 0.883131
0.118726 -0.023472 0.888409
0.121183 -0.023658 0.895460
0.123722 -0.023856 0.902948
0.126282 -0.024053 0.910397
0.128773 -0.024232 0.917173
0.130495 -0.024264 0.918386
0.132140 -0.024281 0.919025
0.133844 -0.024308 0.920060
0.135766 -0.024374 0.922549
0.137688 -0.024438 0.924986
0.139996 -0.024569 0.929927
-0.021060 -0.022081 0.893057
-0.019542 -0.022071 0.892670
-0.018027 -0.022065 0.892414
-0.016512 -0.022056 0.892054
-0.014994 -0.022041 0.891459
-0.013477 -0.022026 0.890831
-0.011963 -0.022010 0.890181
-0.010448 -0.021989 0.889348
-0.008934 -0.021964 0.888350
-0.007426 -0.021946 0.887599
-0.005920 -0.021923 0.886693
-0.004417 -0.021903 0.885875
-0.002917 -0.021887 0.885223
-0.001420 -0.021875 0.884743
0.000076 -0.021858 0.884055
0.001570 -0.021843 0.883440
0.003061 -0.021827 0.882803
0.004550 -0.021811 0.882152
0.006038 -0.021800 0.881695
0.007526 -0.021791 0.881361
0.009015 -0.021790 0.881278
0.010508 -0.021795 0.881518
0.012001 -0.021802 0.881777
0.013495 -0.021807 0.881986
0.014992 -0.021816 0.882351
0.016491 -0.021825 0.882713
0.018001 -0.021846 0.883582
0.019521 -0.021876 0.884772
0.021053 -0.021913 0.886281
0.022598 -0.021959 0.888122
0.024153 -0.022008 0.890107
0.025705 -0.022049 0.891761
0.027269 -0.022094 0.893595
0.028839 -0.022140 0.895447
0.030405 -0.022178 0.896970
0.031967 -0.022210 0.898272
0.033510 -0.022226 0.898926
0.035030 -0.022226 0.898919
0.036530 -0.022214 0.898441
0.038017 -0.022195 0.897691
0.039487 -0.022168 0.896599
0.040931 -0.022130 0.895050
0.042369 -0.022091 0.893456
0.043783 -0.022042 0.891491
0.045195 -0.021996 0.889628
0.046612 -0.021955 0.887966
0.048048 -0.021925 0.886764
0.049482 -0.021896 0.885597
0.050926 -0.021874 0.884680
0.052368 -0.021851 0.883764
0.053817 -0.021833 0.883022
0.055265 -0.021815 0.882312
0.056707 -0.021796 0.881541
0.058150 -0.021778 0.880821
0.059571 -0.021754 0.879826
0.060983 -0.021727 0.878734
0.062397 -0.021702 0.877736
0.063823 -0.021682 0.876937
0.065236 -0.021659 0.876004
0.066675 -0.021645 0.875454
0.068105 -0.021630 0.874813
0.069528 -0.021612 0.874105
0.070955 -0.021597 0.873478
0.072387 -0.021583 0.872939
0.073817 -0.021570 0.872399
0.075259 -0.021561 0.872025
0.076717 -0.021556 0.871836
0.078176 -0.021552 0.871671
0.079657 -0.021554 0.871750
0.081130 -0.021554 0.871750
0.082604 -0.021554 0.871750
0.084086 -0.021556 0.871836
0.085570 -0.021559 0.871934
0.087055 -0.021561 0.872046
0.088539 -0.021564 0.872144
0.090022 -0.021566 0.872230
0.091497 -0.021566 0.872230
0.092972 -0.021566 0.872230
0.094473 -0.021572 0.872477
0.095996 -0.021583 0.872914
0.097570 -0.021605 0.873794
0.099171 -0.021632 0.874890
0.100796 -0.021663 0.876160
0.102424 -0.021694 0.877415
0.104064 -0.021727 0.878741
0.105690 -0.021756 0.879907
0.107321 -0.021785 0.881083
0.108965 -0.021816 0.882334
0.110593 -0.021843 0.883428
0.112181 -0.021861 0.884169
0.113735 -0.021872 0.884629
0.115249 -0.021876 0.884776
0.116752 -0.021877 0.884831
0.118809 -0.021981 0.889027
0.121115 -0.022128 0.894962
0.123596 -0.022303 0.902025
0.126108 -0.022478 0.909143
0.128552 -0.022638 0.915604
0.130387 -0.022688 0.917624
0.132365 -0.022761 0.920588
0.134318 -0.022829 0.923317
0.136519 -0.022936 0.927666
0.138723 -0.023042 0.931938
0.141303 -0.023207 0.938609
0.143298 -0.024869 0.941293
0.144274 -0.023432 0.947705
0.146696 -0.025179 0.953030
0.147305 -0.023661 0.956984
0.149972 -0.025462 0.963729
0.150119 -0.023851 0.964673
0.153144 -0.025721 0.973533
-0.019563 -0.020581 0.893654
-0.018047 -0.020574 0.893380
-0.016533 -0.020570 0.893198
-0.015014 -0.020558 0.892652
-0.013496 -0.020543 0.892033
-0.011980 -0.020530 0.891464
-0.010463 -0.020511 0.890632
-0.008947 -0.020487 0.889608
-0.007436 -0.020468 0.888765
-0.005926 -0.020443 0.887684
-0.004421 -0.020420 0.886694
-0.002919 -0.020403 0.885934
-0.001420 -0.020388 0.885291
0.000076 -0.020370 0.884517
0.001570 -0.020354 0.883819
0.003062 -0.020341 0.883245
0.004553 -0.020327 0.882665
0.006042 -0.020319 0.882296
0.007532 -0.020313 0.882050
0.009023 -0.020314 0.882062
0.010516 -0.020318 0.882229
0.012011 -0.020324 0.882496
0.013508 -0.020331 0.882797
0.015007 -0.020339 0.883180
0.016508 -0.020349 0.883615
0.018021 -0.020371 0.884558
0.019542 -0.020398 0.885741
0.021072 -0.020429 0.887091
0.022616 -0.020470 0.888848
0.024168 -0.020512 0.890658
0.025721 -0.020550 0.892309
0.027286 -0.020592 0.894162
0.028862 -0.020638 0.896140
0.030432 -0.020676 0.897775
0.032002 -0.020710 0.899254
0.033546 -0.020724 0.899892
0.035067 -0.020724 0.899873
0.036568 -0.020713 0.899388
0.038056 -0.020695 0.898620
0.039531 -0.020671 0.897602
0.040982 -0.020638 0.896152
0.042430 -0.020606 0.894740
0.043856 -0.020565 0.892975
0.045276 -0.020525 0.891220
0.046695 -0.020486 0.889554
0.048138 -0.020460 0.888423
0.049569 -0.020431 0.887157
0.051016 -0.020410 0.886241
0.052460 -0.020389 0.885314
0.053911 -0.020371 0.884565
0.055350 -0.020351 0.883676
0.056788 -0.020331 0.882803
0.058221 -0.020310 0.881903
0.059639 -0.020285 0.880820
0.061046 -0.020258 0.879640
0.062461 -0.020235 0.878632
0.063888 -0.020216 0.877829
0.065302 -0.020194 0.876885
0.066743 -0.020182 0.876337
0.068168 -0.020165 0.875616
0.069592 -0.020149 0.874905
0.071020 -0.020134 0.874280
0.072446 -0.020120 0.873656
0.073871 -0.020106 0.873039
0.075322 -0.020099 0.872754
0.076783 -0.020095 0.872582
0.078245 -0.020092 0.872437
0.079735 -0.020096 0.872606
0.081225 -0.020100 0.872763
0.082708 -0.020101 0.872848
0.084200 -0.020105 0.873019
0.085694 -0.020110 0.873197
0.087188 -0.020114 0.873374
0.088674 -0.020116 0.873467
0.090159 -0.020118 0.873551
0.091636 -0.020118 0.873551
0.093112 -0.020118 0.873551
0.094625 -0.020125 0.873880
0.096151 -0.020135 0.874326
0.097720 -0.020154 0.875141
0.099322 -0.020179 0.876219
0.100948 -0.020208 0.877481
0.102570 -0.020235 0.878662
0.104213 -0.020266 0.879991
0.105851 -0.020295 0.881249
0.107475 -0.020320 0.882349
0.109122 -0.020349 0.883609
0.110753 -0.020374 0.884701
0.112354 -0.020394 0.885536
0.113922 -0.020406 0.886085
0.115465 -0.020414 0.886428
0.116986 -0.020418 0.886597
0.118890 -0.020488 0.889631
0.121030 -0.020596 0.894333
0.123326 -0.020728 0.900055
0.125691 -0.020868 0.906136
0.128009 -0.020997 0.911734
0.129879 -0.021050 0.914048
0.132196 -0.021174 0.919416
0.134509 -0.021294 0.924631
0.137102 -0.021455 0.931631
0.139666 -0.021608 0.938275
0.142609 -0.021816 0.947285
0.145213 -0.021967 0.953870
0.147798 -0.022113 0.960188
0.150158 -0.022222 0.964922
-0.018073 -0.019087 0.894666
-0.016558 -0.019085 0.894532
-0.015040 -0.019078 0.894204
-0.013518 -0.019063 0.893510
-0.012000 -0.019051 0.892955
-0.010480 -0.019033 0.892114
-0.008962 -0.019011 0.891078
-0.007447 -0.018989 0.890055
-0.005934 -0.018964 0.888881
-0.004426 -0.018941 0.887797
-0.002923 -0.018922 0.886937
-0.001422 -0.018907 0.886199
0.000076 -0.018890 0.885412
0.001572 -0.018873 0.884621
0.003065 -0.018859 0.883943
0.004556 -0.018844 0.883272
0.006046 -0.018835 0.882827
0.007535 -0.018826 0.882433
0.009027 -0.018827 0.882449
0.010521 -0.018830 0.882604
0.012019 -0.018839 0.883044
0.013519 -0.018849 0.883520
0.015023 -0.018863 0.884165
0.016530 -0.018876 0.884775
0.018046 -0.018898 0.885791
0.019566 -0.018919 0.886801
0.021093 -0.018945 0.887971
0.022634 -0.018978 0.889554
0.024178 -0.019010 0.891018
0.025734 -0.019046 0.892742
0.027307 -0.019091 0.894855
0.028891 -0.019138 0.897053
0.030473 -0.019180 0.898987
0.032058 -0.019219 0.900825
0.033602 -0.019231 0.901384
0.035115 -0.019225 0.901107
0.036614 -0.019212 0.900500
0.038092 -0.019190 0.899472
0.039564 -0.019166 0.898350
0.041020 -0.019137 0.896980
0.042481 -0.019112 0.895825
0.043919 -0.019079 0.894255
0.045355 -0.019047 0.892771
0.046782 -0.019014 0.891209
0.048228 -0.018989 0.890079
0.049657 -0.018961 0.888728
0.051102 -0.018939 0.887734
0.052544 -0.018918 0.886735
0.053992 -0.018900 0.885895
0.055432 -0.018881 0.884985
0.056865 -0.018860 0.883994
0.058293 -0.018838 0.882993
0.059705 -0.018813 0.881806
0.061114 -0.018788 0.880623
0.062525 -0.018764 0.879532
0.063953 -0.018747 0.878719
0.065373 -0.018728 0.877836
0.066815 -0.018717 0.877288
0.068242 -0.018701 0.876570
0.069662 -0.018685 0.875791
0.071085 -0.018669 0.875077
0.072506 -0.018654 0.874373
0.073931 -0.018641 0.873754
0.075385 -0.018635 0.873478
0.076855 -0.018634 0.873407
0.078327 -0.018633 0.873354
0.079827 -0.018638 0.873614
0.081328 -0.018644 0.873868
0.082822 -0.018647 0.874049
0.084325 -0.018653 0.874311
0.085828 -0.018659 0.874568
0.087324 -0.018662 0.874739
0.088811 -0.018664 0.874823
0.090298 -0.018666 0.874901
0.091785 -0.018667 0.874980
0.093274 -0.018669 0.875066
0.094791 -0.018677 0.875410
0.096320 -0.018686 0.875861
0.097882 -0.018702 0.876587
0.099466 -0.018721 0.877490
0.101083 -0.018746 0.878653
0.102696 -0.018769 0.879741
0.104342 -0.018798 0.881083
0.105983 -0.018825 0.882349
0.107620 -0.018850 0.883536
0.109261 -0.018875 0.884728
0.110902 -0.018900 0.885893
0.112507 -0.018918 0.886741
0.114089 -0.018932 0.887385
0.115660 -0.018943 0.887926
0.117219 -0.018953 0.888369
0.118977 -0.018994 0.890282
0.120940 -0.019066 0.893667
0.123057 -0.019160 0.898092
0.125224 -0.019260 0.902772
0.127398 -0.019359 0.907381
0.129277 -0.019410 0.909809
0.131621 -0.019530 0.915414
0.134283 -0.019693 0.923077
0.137258 -0.019899 0.932689
0.140155 -0.020088 0.941559
0.143402 -0.020322 0.952555
0.145975 -0.020457 0.958880
0.148152 -0.020534 0.962485
-0.019728 -0.017699 0.901209
-0.018103 -0.017600 0.896140
-0.016585 -0.017598 0.896026
-0.015066 -0.017592 0.895749
-0.013544 -0.017583 0.895274
-0.012022 -0.017570 0.894639
-0.010499 -0.017552 0.893702
-0.008977 -0.017530 0.892591
-0.007459 -0.017509 0.891551
-0.005943 -0.017483 0.890205
-0.004433 -0.017461 0.889081
-0.002926 -0.017442 0.888135
-0.001424 -0.017426 0.887301
0.000076 -0.017407 0.886342
0.001573 -0.017390 0.885440
0.003067 -0.017374 0.884670
0.004559 -0.017360 0.883915
0.006050 -0.017349 0.883398
0.007540 -0.017342 0.882998
0.009032 -0.017341 0.882987
0.010527 -0.017344 0.883132
0.012028 -0.017356 0.883725
0.013531 -0.017368 0.884321
0.015039 -0.017383 0.885093
0.016550 -0.017398 0.885890
0.018067 -0.017417 0.886833
0.019585 -0.017433 0.887665
0.021110 -0.017454 0.888712
0.022648 -0.017481 0.890098
0.024183 -0.017503 0.891205
0.025743 -0.017539 0.893075
0.027323 -0.017585 0.895374
0.028918 -0.017634 0.897879
0.030512 -0.017678 0.900128
0.032109 -0.017719 0.902243
0.033655 -0.017731 0.902800
0.035166 -0.017723 0.902420
0.036656 -0.017706 0.901553
0.038132 -0.017683 0.900401
0.039600 -0.017660 0.899185
0.041057 -0.017632 0.897798
0.042521 -0.017610 0.896665
0.043969 -0.017583 0.895274
0.045416 -0.017557 0.893975
0.046855 -0.017530 0.892592
0.048303 -0.017508 0.891469
0.049739 -0.017483 0.890205
0.051187 -0.017463 0.889201
0.052625 -0.017442 0.888115
0.054076 -0.017426 0.887275
0.055518 -0.017407 0.886354
0.056947 -0.017386 0.885275
0.058370 -0.017365 0.884165
0.059778 -0.017339 0.882875
0.061176 -0.017313 0.881521
0.062577 -0.017288 0.880261
0.063999 -0.017270 0.879358
0.065421 -0.017253 0.878482
0.066864 -0.017242 0.877930
0.068306 -0.017231 0.877386
0.069727 -0.017216 0.876605
0.071150 -0.017202 0.875881
0.072571 -0.017188 0.875155
0.073997 -0.017175 0.874526
0.075445 -0.017168 0.874175
0.076930 -0.017170 0.874259
0.078419 -0.017172 0.874378
0.079937 -0.017181 0.874812
0.081456 -0.017189 0.875251
0.082970 -0.017197 0.875615
0.084479 -0.017202 0.875907
0.085985 -0.017207 0.876170
0.087475 -0.017209 0.876257
0.088957 -0.017209 0.876257
0.090446 -0.017211 0.876337
0.091946 -0.017214 0.876508
0.093447 -0.017218 0.876691
0.094976 -0.017226 0.877127
0.096509 -0.017235 0.877579
0.098054 -0.017246 0.878127
0.099619 -0.017260 0.878838
0.101216 -0.017279 0.879808
0.102821 -0.017299 0.880813
0.104460 -0.017324 0.882081
0.106115 -0.017350 0.883442
0.107754 -0.017374 0.884638
0.109404 -0.017398 0.885893
0.111039 -0.017420 0.886985
0.112656 -0.017438 0.887912
0.114242 -0.017451 0.888575
0.115849 -0.017467 0.889382
0.117426 -0.017478 0.889935
0.119053 -0.017496 0.890851
0.120847 -0.017538 0.892983
0.122788 -0.017600 0.896128
0.124757 -0.017664 0.899401
0.126758 -0.017731 0.902823
0.128617 -0.017777 0.905165
0.137230 -0.018314 0.932500
0.143763 -0.018755 0.954949
-0.018198 -0.016165 0.900854
-0.016608 -0.016100 0.897229
-0.015089 -0.016098 0.897107
-0.013567 -0.016092 0.896776
-0.012045 -0.016084 0.896333
-0.010520 -0.016069 0.895478
-0.008996 -0.016050 0.894442
-0.007474 -0.016030 0.893312
-0.005955 -0.016005 0.891949
-0.004441 -0.015983 0.890731
-0.002932 -0.015965 0.889685
-0.001426 -0.015947 0.888681
0.000076 -0.015926 0.887543
0.001575 -0.015907 0.886460
0.003070 -0.015891 0.885588
0.004563 -0.015875 0.884669
0.006054 -0.015864 0.884052
0.007545 -0.015856 0.883628
0.009039 -0.015856 0.883595
0.010534 -0.015858 0.883731
0.012037 -0.015871 0.884433
0.013545 -0.015885 0.885222
0.015058 -0.015902 0.886195
0.016573 -0.015919 0.887109
0.018091 -0.015934 0.887984
0.019609 -0.015949 0.888790
0.021132 -0.015964 0.889643
0.022664 -0.015984 0.890742
0.024193 -0.015998 0.891564
0.025758 -0.016035 0.893586
0.027342 -0.016078 0.896000
0.028946 -0.016127 0.898747
0.030552 -0.016173 0.901309
0.032160 -0.016216 0.903687
0.033709 -0.016226 0.904246
0.035221 -0.016219 0.903838
0.036710 -0.016201 0.902863
0.038179 -0.016177 0.901519
0.039645 -0.016153 0.900194
0.041099 -0.016127 0.898712
0.042561 -0.016105 0.897499
0.044014 -0.016082 0.896201
0.045472 -0.016062 0.895081
0.046918 -0.016038 0.893796
0.048373 -0.016020 0.892763
0.049815 -0.015998 0.891565
0.051264 -0.015980 0.890543
0.052704 -0.015960 0.889444
0.054152 -0.015944 0.888523
0.055597 -0.015928 0.887614
0.057023 -0.015907 0.886452
0.058443 -0.015885 0.885264
0.059846 -0.015861 0.883884
0.061244 -0.015836 0.882497
0.062634 -0.015810 0.881069
0.064051 -0.015792 0.880068
0.065474 -0.015777 0.879192
0.066919 -0.015767 0.878654
0.068364 -0.015757 0.878135
0.069798 -0.015746 0.877503
0.071236 -0.015736 0.876935
0.072663 -0.015724 0.876274
0.074098 -0.015714 0.875723
0.075555 -0.015709 0.875449
0.077042 -0.015711 0.875537
0.078533 -0.015713 0.875651
0.080061 -0.015722 0.876174
0.081593 -0.015732 0.876716
0.083120 -0.015741 0.877195
0.084640 -0.015747 0.877573
0.086157 -0.015754 0.877920
0.087650 -0.015755 0.878004
0.089134 -0.015755 0.878004
0.090627 -0.015757 0.878090
0.092131 -0.015760 0.878273
0.093637 -0.015764 0.878473
0.095162 -0.015770 0.878844
0.096688 -0.015777 0.879209
0.098214 -0.015783 0.879563
0.099760 -0.015792 0.880081
0.101338 -0.015807 0.880869
0.102935 -0.015823 0.881791
0.104567 -0.015845 0.882987
0.106223 -0.015869 0.884345
0.107864 -0.015890 0.885541
0.109516 -0.015913 0.886795
0.111152 -0.015933 0.887893
0.112770 -0.015949 0.888816
0.114359 -0.015961 0.889486
0.115978 -0.015977 0.890367
0.117557 -0.015987 0.890930
0.119185 -0.016003 0.891841
0.120854 -0.016025 0.893030
0.122647 -0.016062 0.895101
0.124446 -0.016099 0.897160
0.126303 -0.016142 0.899583
0.128017 -0.016167 0.900941
0.130939 -0.017885 0.910671
0.130269 -0.016258 0.906015
-0.016738 -0.014694 0.904274
-0.015151 -0.014638 0.900821
-0.013588 -0.014595 0.898176
-0.012065 -0.014589 0.897827
-0.010539 -0.014577 0.897073
-0.009012 -0.014561 0.896118
-0.007488 -0.014542 0.894918
-0.005966 -0.014520 0.893611
-0.004449 -0.014499 0.892313
-0.002936 -0.014481 0.891178
-0.001428 -0.014462 0.890007
0.000077 -0.014444 0.888912
0.001577 -0.014423 0.887646
0.003074 -0.014408 0.886679
0.004568 -0.014390 0.885582
0.006060 -0.014378 0.884861
0.007551 -0.014369 0.884326
0.009045 -0.014368 0.884212
0.010542 -0.014370 0.884375
0.012049 -0.014385 0.885263
