1714
0.038297 -0.095943 0.837436
0.039393 -0.095171 0.830698
0.040574 -0.094650 0.826147
0.041915 -0.094524 0.825052
0.043260 -0.094416 0.824105
0.044601 -0.094306 0.823148
0.045936 -0.094189 0.822127
0.047279 -0.094097 0.821325
0.048618 -0.094000 0.820475
0.049962 -0.093920 0.819775
0.051312 -0.093855 0.819213
0.052663 -0.093794 0.818675
0.054002 -0.093717 0.818000
0.055358 -0.093670 0.817597
0.056712 -0.093624 0.817190
0.058051 -0.093556 0.816596
0.059398 -0.093502 0.816130
0.060747 -0.093455 0.815720
0.062085 -0.093393 0.815181
0.063422 -0.093333 0.814652
0.064774 -0.093296 0.814333
0.066113 -0.093244 0.813877
0.067456 -0.093199 0.813483
0.068817 -0.093179 0.813309
0.070198 -0.093187 0.813377
0.071576 -0.093191 0.813413
0.072980 -0.093228 0.813735
0.074389 -0.093270 0.814102
0.075821 -0.093338 0.814695
0.077251 -0.093402 0.815253
0.078719 -0.093509 0.816189
0.080191 -0.093617 0.817129
0.081674 -0.093733 0.818141
0.083130 -0.093815 0.818859
0.084579 -0.093887 0.819487
0.086020 -0.093948 0.820018
0.087447 -0.093991 0.820400
0.088868 -0.094027 0.820711
0.090281 -0.094054 0.820943
0.092265 -0.096066 0.826284
0.091928 -0.094320 0.823269
0.106321 -0.101411 0.885159
0.108462 -0.102017 0.890454
0.110044 -0.102088 0.891074
0.111702 -0.102227 0.892282
0.113545 -0.104046 0.894921
0.113418 -0.102414 0.893916
0.016806 -0.101538 0.899580
0.018318 -0.101487 0.899127
0.019816 -0.101378 0.898165
0.021309 -0.101254 0.897066
0.022789 -0.101093 0.895637
0.024250 -0.100871 0.893672
0.025702 -0.100641 0.891632
0.027157 -0.100450 0.889937
0.028600 -0.100234 0.888030
0.030041 -0.100031 0.886230
0.031471 -0.099817 0.884332
0.032834 -0.099416 0.880777
0.034030 -0.098568 0.873269
0.035117 -0.097488 0.863700
0.037044 -0.094941 0.841136
0.038066 -0.093953 0.832380
0.039251 -0.093424 0.827697
0.040518 -0.093122 0.825019
0.041858 -0.093000 0.823938
0.043205 -0.092902 0.823071
0.044550 -0.092804 0.822202
0.045887 -0.092697 0.821256
0.047230 -0.092608 0.820462
0.048566 -0.092510 0.819600
0.049904 -0.092423 0.818824
0.051248 -0.092351 0.818189
0.052597 -0.092290 0.817645
0.053939 -0.092221 0.817037
0.055289 -0.092169 0.816572
0.056640 -0.092123 0.816163
0.057982 -0.092062 0.815629
0.059328 -0.092010 0.815168
0.060677 -0.091967 0.814783
0.062025 -0.091923 0.814397
0.063372 -0.091880 0.814019
0.064729 -0.091853 0.813774
0.066080 -0.091819 0.813471
0.067436 -0.091792 0.813236
0.068803 -0.091782 0.813147
0.070184 -0.091791 0.813223
0.071562 -0.091793 0.813248
0.072958 -0.091820 0.813486
0.074353 -0.091845 0.813706
0.075764 -0.091888 0.814087
0.077185 -0.091941 0.814555
0.078637 -0.092029 0.815333
0.080093 -0.092119 0.816129
0.081573 -0.092231 0.817129
0.083034 -0.092321 0.817920
0.084490 -0.092400 0.818624
0.085939 -0.092470 0.819243
0.087374 -0.092524 0.819718
0.088794 -0.092560 0.820036
0.090206 -0.092586 0.820269
0.091585 -0.092578 0.820194
0.105935 -0.099547 0.881944
0.108375 -0.100427 0.889735
0.109940 -0.100483 0.890233
0.111583 -0.100607 0.891330
0.113273 -0.100770 0.892774
0.016825 -0.100123 0.900567
0.018324 -0.099995 0.899422
0.019813 -0.099840 0.898022
0.021293 -0.099661 0.896416
0.022760 -0.099450 0.894514
0.024217 -0.099221 0.892456
0.025666 -0.098994 0.890414
0.027119 -0.098800 0.888671
0.028560 -0.098590 0.886784
0.030007 -0.098418 0.885229
0.031436 -0.098207 0.883337
0.032728 -0.097608 0.877948
0.033844 -0.096557 0.868492
0.036752 -0.092780 0.834517
0.037860 -0.092041 0.827878
0.039131 -0.091741 0.825178
0.040479 -0.091634 0.824212
0.041817 -0.091513 0.823130
0.043164 -0.091418 0.822274
0.044507 -0.091322 0.821408
0.045843 -0.091218 0.820474
0.047185 -0.091130 0.819677
0.048515 -0.091027 0.818755
0.049848 -0.090932 0.817900
0.051190 -0.090860 0.817255
0.052531 -0.090791 0.816634
0.053868 -0.090717 0.815962
0.055215 -0.090664 0.815485
0.056561 -0.090611 0.815014
0.057896 -0.090544 0.814411
0.059244 -0.090501 0.814020
0.060597 -0.090466 0.813705
0.061950 -0.090433 0.813407
0.063307 -0.090407 0.813179
0.064669 -0.090389 0.813020
0.066026 -0.090365 0.812797
0.067387 -0.090348 0.812648
0.068755 -0.090340 0.812575
0.070141 -0.090356 0.812716
0.071516 -0.090358 0.812734
0.072904 -0.090374 0.812885
0.074298 -0.090398 0.813099
0.075706 -0.090438 0.813459
0.077112 -0.090475 0.813786
0.078561 -0.090560 0.814550
0.080008 -0.090638 0.815257
0.081472 -0.090734 0.816116
0.082923 -0.090813 0.816826
0.084384 -0.090899 0.817600
0.085833 -0.090969 0.818232
0.087282 -0.091038 0.818856
0.088711 -0.091084 0.819267
0.090138 -0.091126 0.819648
0.091541 -0.091143 0.819799
0.093552 -0.093156 0.825315
0.093231 -0.091442 0.822485
0.107999 -0.098576 0.886653
0.109826 -0.098871 0.889305
0.111451 -0.098979 0.890277
0.113114 -0.099118 0.891526
0.115014 -0.100974 0.894580
0.114842 -0.099309 0.893245
0.015332 -0.098790 0.902341
0.016839 -0.098679 0.901323
0.018330 -0.098503 0.899718
0.019808 -0.098293 0.897802
0.021277 -0.098068 0.895746
0.022737 -0.097832 0.893586
0.024189 -0.097598 0.891446
0.025638 -0.097378 0.889436
0.027092 -0.097198 0.887796
0.028537 -0.097010 0.886074
0.029985 -0.096848 0.884596
0.031352 -0.096453 0.880989
0.032565 -0.095641 0.873578
0.035528 -0.091848 0.838926
0.036560 -0.090887 0.830152
0.037750 -0.090376 0.825482
0.039099 -0.090268 0.824498
0.040441 -0.090153 0.823450
0.041778 -0.090034 0.822360
0.043123 -0.089939 0.821492
0.044465 -0.089845 0.820636
0.045800 -0.089743 0.819706
0.047140 -0.089656 0.818910
0.048470 -0.089555 0.817987
0.049800 -0.089461 0.817124
0.051142 -0.089391 0.816483
0.052477 -0.089314 0.815782
0.053811 -0.089240 0.815105
0.055157 -0.089188 0.814633
0.056502 -0.089136 0.814161
0.057835 -0.089070 0.813552
0.059192 -0.089042 0.813299
0.060544 -0.089009 0.812995
0.061896 -0.088977 0.812706
0.063253 -0.088953 0.812484
0.064619 -0.088943 0.812396
0.065975 -0.088919 0.812181
0.067343 -0.088912 0.812113
0.068716 -0.088912 0.812113
0.070101 -0.088927 0.812254
0.071475 -0.088929 0.812267
0.072855 -0.088937 0.812342
0.074241 -0.088952 0.812482
0.075641 -0.088984 0.812767
0.077045 -0.089018 0.813083
0.078479 -0.089086 0.813700
0.079917 -0.089155 0.814333
0.081370 -0.089239 0.815098
0.082811 -0.089307 0.815723
0.084270 -0.089391 0.816492
0.085724 -0.089468 0.817194
0.087188 -0.089554 0.817975
0.088632 -0.089615 0.818535
0.090074 -0.089673 0.819068
0.091502 -0.089715 0.819450
0.092939 -0.089765 0.819907
0.107583 -0.096699 0.883237
0.109682 -0.097236 0.888142
0.111280 -0.097320 0.888914
0.112927 -0.097444 0.890048
0.114641 -0.097623 0.891680
0.013837 -0.097477 0.904344
0.015342 -0.097322 0.902908
0.016841 -0.097168 0.901480
0.018327 -0.096961 0.899563
0.019796 -0.096712 0.897251
0.021258 -0.096461 0.894923
0.022714 -0.096219 0.892677
0.024167 -0.095998 0.890623
0.025618 -0.095792 0.888715
0.027070 -0.095617 0.887092
0.028517 -0.095441 0.885459
0.029967 -0.095290 0.884057
0.031270 -0.094710 0.878679
0.032406 -0.093701 0.869314
0.035358 -0.089993 0.834916
0.036471 -0.089262 0.828130
0.037739 -0.088950 0.825233
0.039080 -0.088828 0.824106
0.040415 -0.088699 0.822911
0.041747 -0.088573 0.821744
0.043086 -0.088471 0.820798
0.044423 -0.088371 0.819866
0.045757 -0.088270 0.818928
0.047096 -0.088185 0.818138
0.048428 -0.088092 0.817279
0.049758 -0.088001 0.816430
0.051098 -0.087931 0.815788
0.052432 -0.087857 0.815092
0.053770 -0.087790 0.814477
0.055110 -0.087732 0.813935
0.056453 -0.087681 0.813465
0.057785 -0.087616 0.812859
0.059141 -0.087588 0.812602
0.060487 -0.087548 0.812232
0.061844 -0.087525 0.812018
0.063199 -0.087501 0.811794
0.064564 -0.087491 0.811703
0.065918 -0.087467 0.811480
0.067284 -0.087459 0.811407
0.068650 -0.087452 0.811339
0.070028 -0.087460 0.811415
0.071401 -0.087461 0.811425
0.072774 -0.087462 0.811436
0.074151 -0.087469 0.811500
0.075550 -0.087500 0.811784
0.076953 -0.087535 0.812106
0.078385 -0.087601 0.812721
0.079820 -0.087668 0.813342
0.081270 -0.087749 0.814097
0.082708 -0.087815 0.814708
0.084171 -0.087904 0.815534
0.085624 -0.087980 0.816240
0.087103 -0.088080 0.817170
0.088561 -0.088157 0.817882
0.090013 -0.088225 0.818509
0.091464 -0.088290 0.819116
0.092936 -0.088373 0.819884
0.095260 -0.090655 0.828037
0.094963 -0.088973 0.825452
0.109299 -0.095396 0.885042
0.111143 -0.095695 0.887815
0.112763 -0.095797 0.888759
0.114452 -0.095953 0.890204
0.116425 -0.097855 0.893799
0.116244 -0.096191 0.892413
0.118238 -0.098106 0.896092
0.118068 -0.096448 0.894803
0.013847 -0.096011 0.904978
0.015348 -0.095832 0.903295
0.016843 -0.095649 0.901568
0.018320 -0.095400 0.899224
0.019780 -0.095114 0.896527
0.021234 -0.094838 0.893925
0.022686 -0.094590 0.891581
0.024137 -0.094372 0.889532
0.025591 -0.094189 0.887801
0.027043 -0.094018 0.886190
0.028494 -0.093864 0.884740
0.029946 -0.093725 0.883430
0.031186 -0.092970 0.876316
0.035192 -0.088161 0.830989
0.036385 -0.087649 0.826162
0.037724 -0.087515 0.824900
0.039061 -0.087388 0.823698
0.040388 -0.087246 0.822363
0.041715 -0.087113 0.821113
0.043049 -0.087005 0.820092
0.044381 -0.086898 0.819077
0.045713 -0.086798 0.818141
0.047050 -0.086714 0.817348
0.048382 -0.086624 0.816499
0.049711 -0.086535 0.815662
0.051046 -0.086461 0.814957
0.052379 -0.086387 0.814263
0.053715 -0.086322 0.813647
0.055049 -0.086257 0.813041
0.056387 -0.086200 0.812505
0.057722 -0.086143 0.811964
0.059076 -0.086116 0.811714
0.060421 -0.086077 0.811346
0.061782 -0.086062 0.811203
0.063135 -0.086038 0.810972
0.064493 -0.086020 0.810801
0.065838 -0.085987 0.810493
0.067196 -0.085971 0.810340
0.068554 -0.085956 0.810200
0.069936 -0.085971 0.810340
0.071313 -0.085979 0.810421
0.072690 -0.085988 0.810500
0.074073 -0.086002 0.810641
0.075470 -0.086033 0.810929
0.076871 -0.086066 0.811243
0.078296 -0.086125 0.811799
0.079722 -0.086184 0.812351
0.081163 -0.086256 0.813028
0.082599 -0.086320 0.813632
0.084061 -0.086409 0.814469
0.085520 -0.086492 0.815253
0.087007 -0.086599 0.816267
0.088480 -0.086691 0.817134
0.089947 -0.086774 0.817913
0.091415 -0.086855 0.818673
0.092912 -0.086960 0.819669
0.094659 -0.087293 0.822809
0.108946 -0.093592 0.882181
0.111047 -0.094109 0.887053
0.112644 -0.094190 0.887817
0.114307 -0.094324 0.889078
0.116095 -0.094557 0.891270
0.117907 -0.094802 0.893579
0.012336 -0.094624 0.906393
0.013852 -0.094509 0.905282
0.015350 -0.094314 0.903413
0.016840 -0.094103 0.901401
0.018310 -0.093825 0.898736
0.019765 -0.093523 0.895839
0.021213 -0.093232 0.893053
0.022661 -0.092979 0.890633
0.024112 -0.092765 0.888584
0.025564 -0.092585 0.886855
0.027017 -0.092427 0.885339
0.028473 -0.092294 0.884068
0.029871 -0.091996 0.881212
0.031046 -0.091074 0.872386
0.034072 -0.087484 0.837997
0.035114 -0.086559 0.829136
0.036378 -0.086232 0.826004
0.037712 -0.086091 0.824654
0.039042 -0.085949 0.823294
0.040360 -0.085794 0.821806
0.041678 -0.085647 0.820402
0.043004 -0.085524 0.819225
0.044330 -0.085411 0.818135
0.045656 -0.085306 0.817129
0.046993 -0.085224 0.816345
0.048323 -0.085136 0.815502
0.049655 -0.085056 0.814735
0.050988 -0.084983 0.814040
0.052320 -0.084910 0.813342
0.053650 -0.084839 0.812660
0.054987 -0.084783 0.812119
0.056323 -0.084727 0.811585
0.057652 -0.084664 0.810980
0.059004 -0.084637 0.810726
0.060348 -0.084599 0.810359
0.061701 -0.084577 0.810144
0.063048 -0.084546 0.809849
0.064403 -0.084527 0.809671
0.065745 -0.084494 0.809349
0.067094 -0.084469 0.809117
0.068449 -0.084453 0.808965
0.069829 -0.084468 0.809103
0.071204 -0.084477 0.809190
0.072581 -0.084487 0.809282
0.073968 -0.084509 0.809495
0.075364 -0.084539 0.809784
0.076762 -0.084572 0.810097
0.078185 -0.084629 0.810648
0.079616 -0.084694 0.811268
0.081057 -0.084766 0.811961
0.082498 -0.084837 0.812640
0.083966 -0.084932 0.813547
0.085433 -0.085023 0.814419
0.086926 -0.085137 0.815515
0.088422 -0.085251 0.816601
0.089906 -0.085348 0.817536
0.091390 -0.085444 0.818454
0.092911 -0.085570 0.819665
0.094409 -0.085672 0.820636
0.108590 -0.091796 0.879301
0.110958 -0.092531 0.886342
0.112551 -0.092609 0.887083
0.114198 -0.092729 0.888234
0.115971 -0.092946 0.890316
0.117769 -0.093178 0.892534
0.010818 -0.093211 0.907584
0.012340 -0.093115 0.906651
0.013851 -0.092971 0.905252
0.015345 -0.092748 0.903077
0.016828 -0.092508 0.900743
0.018294 -0.092223 0.897970
0.019744 -0.091907 0.894892
0.021185 -0.091595 0.891852
0.022629 -0.091337 0.889342
0.024074 -0.091118 0.887212
0.025525 -0.090941 0.885490
0.026981 -0.090804 0.884154
0.028446 -0.090710 0.883241
0.029786 -0.090247 0.878731
0.033922 -0.085683 0.834291
0.035042 -0.084979 0.827434
0.036375 -0.084826 0.825942
0.037705 -0.084678 0.824500
0.039023 -0.084514 0.822908
0.040333 -0.084344 0.821251
0.041642 -0.084183 0.819685
0.042962 -0.084053 0.818422
0.044282 -0.083933 0.817254
0.045608 -0.083831 0.816258
0.046943 -0.083751 0.815477
0.048276 -0.083672 0.814710
0.049606 -0.083593 0.813942
0.050934 -0.083514 0.813168
0.052264 -0.083442 0.812470
0.053592 -0.083371 0.811778
0.054923 -0.083309 0.811170
0.056257 -0.083254 0.810635
0.057589 -0.083198 0.810097
0.058930 -0.083158 0.809707
0.060266 -0.083113 0.809264
0.061617 -0.083090 0.809039
0.062957 -0.083053 0.808677
0.064305 -0.083028 0.808440
0.065651 -0.083003 0.808191
0.066998 -0.082978 0.807954
0.068351 -0.082962 0.807799
0.069722 -0.082970 0.807869
0.071102 -0.082985 0.808025
0.072484 -0.083004 0.808200
0.073871 -0.083027 0.808431
0.075264 -0.083057 0.808719
0.076666 -0.083095 0.809087
0.078079 -0.083142 0.809553
0.079503 -0.083200 0.810113
0.080948 -0.083278 0.810871
0.082403 -0.083363 0.811703
0.083878 -0.083466 0.812698
0.085359 -0.083570 0.813715
0.086859 -0.083690 0.814883
0.088363 -0.083810 0.816051
0.089854 -0.083914 0.817062
0.091356 -0.084025 0.818143
0.092887 -0.084159 0.819445
0.094401 -0.084274 0.820567
0.096499 -0.086300 0.826654
0.096234 -0.084666 0.824387
0.110636 -0.090765 0.883771
0.112462 -0.091033 0.886384
0.114085 -0.091133 0.887353
0.115832 -0.091328 0.889250
0.117624 -0.091552 0.891437
0.119592 -0.093424 0.894889
0.119443 -0.091792 0.893772
0.010822 -0.091706 0.907916
0.012340 -0.091576 0.906636
0.013848 -0.091412 0.905005
0.015334 -0.091156 0.902477
0.016809 -0.090878 0.899720
0.018270 -0.090580 0.896771
0.019718 -0.090269 0.893689
0.021155 -0.089954 0.890579
0.022596 -0.089701 0.888068
0.024042 -0.089493 0.886014
0.025493 -0.089328 0.884376
0.026950 -0.089204 0.883148
0.028422 -0.089139 0.882507
0.029704 -0.088511 0.876291
0.033847 -0.084084 0.832464
0.035049 -0.083594 0.827605
0.036379 -0.083435 0.826031
0.037705 -0.083280 0.824503
0.039016 -0.083103 0.822750
0.040318 -0.082920 0.820936
0.041618 -0.082745 0.819204
0.042928 -0.082601 0.817776
0.044243 -0.082475 0.816532
0.045564 -0.082368 0.815471
0.046894 -0.082283 0.814634
0.048225 -0.082205 0.813856
0.049550 -0.082120 0.813014
0.050871 -0.082034 0.812163
0.052199 -0.081963 0.811461
0.053525 -0.081893 0.810770
0.054850 -0.081824 0.810091
0.056177 -0.081763 0.809485
0.057507 -0.081709 0.808946
0.058831 -0.081648 0.808347
0.060153 -0.081588 0.807748
0.061490 -0.081549 0.807367
0.062820 -0.081505 0.806927
0.064156 -0.081468 0.806564
0.065506 -0.081452 0.806404
0.066857 -0.081436 0.806248
0.068213 -0.081429 0.806172
0.069593 -0.081449 0.806371
0.070983 -0.081479 0.806673
0.072369 -0.081504 0.806921
0.073761 -0.081536 0.807232
0.075159 -0.081571 0.807585
0.076559 -0.081608 0.807950
0.077975 -0.081661 0.808472
0.079403 -0.081724 0.809098
0.080854 -0.081808 0.809931
0.082324 -0.081908 0.810919
0.083805 -0.082016 0.811987
0.085293 -0.082127 0.813086
0.086792 -0.082245 0.814252
0.088301 -0.082369 0.815478
0.089800 -0.082479 0.816574
0.091319 -0.082605 0.817817
0.092853 -0.082739 0.819146
0.094384 -0.082868 0.820418
0.095979 -0.083048 0.822200
0.110348 -0.089034 0.881466
0.112427 -0.089503 0.886109
0.114036 -0.089590 0.886972
0.115759 -0.089764 0.888691
0.117516 -0.089958 0.890618
0.119320 -0.090184 0.892851
0.121298 -0.092053 0.896310
0.121171 -0.090439 0.895374
0.009304 -0.090332 0.909585
0.010827 -0.090202 0.908271
0.012340 -0.090043 0.906672
0.013844 -0.089854 0.904769
0.015325 -0.089574 0.901950
0.016795 -0.089283 0.899016
0.018252 -0.088974 0.895910
0.019699 -0.088669 0.892841
0.021134 -0.088360 0.889728
0.022572 -0.088102 0.887131
0.024016 -0.087898 0.885070
0.025468 -0.087744 0.883526
0.026930 -0.087641 0.882484
0.028408 -0.087598 0.882050
0.029693 -0.086994 0.875971
0.033851 -0.082683 0.832563
0.035056 -0.082207 0.827769
0.036386 -0.082050 0.826193
0.037709 -0.081891 0.824586
0.039012 -0.081701 0.822677
0.040307 -0.081506 0.820710
0.041599 -0.081319 0.818828
0.042903 -0.081169 0.817316
0.044214 -0.081038 0.815995
0.045533 -0.080931 0.814926
0.046859 -0.080841 0.814020
0.048185 -0.080757 0.813170
0.049503 -0.080665 0.812247
0.050818 -0.080573 0.811320
0.052136 -0.080490 0.810478
0.053455 -0.080414 0.809714
0.054778 -0.080347 0.809037
0.056099 -0.080279 0.808360
0.057427 -0.080225 0.807809
0.058743 -0.080157 0.807130
0.060052 -0.080083 0.806383
0.061372 -0.080028 0.805827
0.062693 -0.079975 0.805295
0.064025 -0.079938 0.804926
0.065380 -0.079931 0.804856
0.066742 -0.079932 0.804865
0.068109 -0.079940 0.804944
0.069500 -0.079975 0.805291
0.070894 -0.080012 0.805665
0.072285 -0.080044 0.805989
0.073684 -0.080083 0.806381
0.075080 -0.080119 0.806743
0.076479 -0.080155 0.807104
0.077887 -0.080200 0.807560
0.079313 -0.080261 0.808179
0.080770 -0.080352 0.809092
0.082253 -0.080465 0.810225
0.083736 -0.080573 0.811318
0.085237 -0.080696 0.812553
0.086733 -0.080810 0.813706
0.088241 -0.080932 0.814928
0.089747 -0.081047 0.816087
0.091282 -0.081186 0.817484
0.092826 -0.081327 0.818909
0.094374 -0.081469 0.820334
0.095985 -0.081659 0.822255
0.098376 -0.083907 0.830708
0.098125 -0.082288 0.828589
0.110052 -0.087305 0.879099
0.112402 -0.087981 0.885913
0.114011 -0.088067 0.886776
0.115711 -0.088220 0.888318
0.117442 -0.088393 0.890054
0.119230 -0.088603 0.892177
0.121057 -0.088837 0.894528
0.007783 -0.088976 0.911487
0.009306 -0.088802 0.909706
0.010824 -0.088644 0.908089
0.012334 -0.088461 0.906214
0.013831 -0.088240 0.903945
0.015310 -0.087953 0.901011
0.016776 -0.087658 0.897987
0.018233 -0.087363 0.894968
0.019681 -0.087074 0.892005
0.021117 -0.086780 0.888992
0.022556 -0.086535 0.886487
0.024001 -0.086343 0.884513
0.025452 -0.086193 0.882981
0.026916 -0.086101 0.882035
0.028399 -0.086076 0.881780
0.029694 -0.085513 0.876011
0.033869 -0.081315 0.833006
0.035066 -0.080827 0.828008
0.036396 -0.080673 0.826428
0.037716 -0.080508 0.824740
0.039016 -0.080314 0.822752
0.040303 -0.080108 0.820641
0.041591 -0.079917 0.818685
0.042892 -0.079762 0.817097
0.044197 -0.079625 0.815695
0.045513 -0.079514 0.814553
0.046832 -0.079417 0.813563
0.048153 -0.079327 0.812640
0.049465 -0.079228 0.811628
0.050775 -0.079131 0.810629
0.052086 -0.079041 0.809708
0.053405 -0.078967 0.808951
0.054731 -0.078907 0.808338
0.056050 -0.078840 0.807656
0.057377 -0.078787 0.807112
0.058686 -0.078713 0.806350
0.059982 -0.078625 0.805449
0.061284 -0.078548 0.804664
0.062595 -0.078486 0.804030
0.063913 -0.078436 0.803517
0.065266 -0.078430 0.803453
0.066638 -0.078446 0.803618
0.068017 -0.078470 0.803860
0.069409 -0.078507 0.804237
0.070814 -0.078557 0.804752
0.072210 -0.078596 0.805154
0.073607 -0.078634 0.805542
0.075003 -0.078670 0.805914
0.076407 -0.078712 0.806343
0.077815 -0.078758 0.806810
0.079246 -0.078825 0.807499
0.080711 -0.078922 0.808492
0.082200 -0.079040 0.809706
0.083690 -0.079155 0.810876
0.085198 -0.079282 0.812182
0.086694 -0.079394 0.813332
0.088200 -0.079513 0.814547
0.089712 -0.079633 0.815772
0.091256 -0.079777 0.817248
0.092808 -0.079923 0.818751
0.094365 -0.080070 0.820255
0.095976 -0.080258 0.822178
0.097858 -0.080664 0.826335
0.109766 -0.085592 0.876821
0.112393 -0.086472 0.885837
0.114000 -0.086556 0.886693
0.115687 -0.086696 0.888135
0.117403 -0.086855 0.889764
0.119166 -0.087044 0.891700
0.120966 -0.087255 0.893861
0.122928 -0.089097 0.897150
0.122822 -0.087501 0.896378
0.006249 -0.087532 0.912547
0.007783 -0.087431 0.911488
0.009305 -0.087258 0.909682
0.010822 -0.087086 0.907893
0.012327 -0.086873 0.905672
0.013817 -0.086618 0.903017
0.015292 -0.086328 0.899988
0.016757 -0.086038 0.896968
0.018214 -0.085759 0.894061
0.019663 -0.085485 0.891204
0.021100 -0.085206 0.888294
0.022541 -0.084974 0.885876
0.023985 -0.084787 0.883921
0.025438 -0.084648 0.882478
0.026906 -0.084574 0.881703
0.028394 -0.084565 0.881614
0.029696 -0.084032 0.876057
0.033884 -0.079938 0.833376
0.035077 -0.079448 0.828259
0.036407 -0.079296 0.826681
0.037723 -0.079125 0.824900
0.039020 -0.078927 0.822831
0.040303 -0.078717 0.820641
0.041591 -0.078529 0.818685
0.042892 -0.078377 0.817097
0.044197 -0.078242 0.815690
0.045512 -0.078132 0.814545
0.046832 -0.078036 0.813548
0.048152 -0.077947 0.812617
0.049463 -0.077849 0.811596
0.050768 -0.077746 0.810517
0.052078 -0.077657 0.809589
0.053392 -0.077577 0.808755
0.054713 -0.077512 0.808077
0.056028 -0.077441 0.807335
0.057354 -0.077388 0.806786
0.058653 -0.077303 0.805898
0.059938 -0.077202 0.804853
0.061227 -0.077112 0.803913
0.062524 -0.077037 0.803124
0.063824 -0.076967 0.802396
0.065169 -0.076953 0.802255
0.066545 -0.076976 0.802494
0.067929 -0.077007 0.802813
0.069326 -0.077051 0.803279
0.070749 -0.077122 0.804009
0.072157 -0.077174 0.804554
0.073559 -0.077218 0.805016
0.074961 -0.077260 0.805457
0.076370 -0.077308 0.805956
0.077777 -0.077352 0.806416
0.079209 -0.077419 0.807116
0.080679 -0.077521 0.808177
0.082170 -0.077639 0.809406
0.083659 -0.077752 0.810579
0.085174 -0.077884 0.811956
0.086670 -0.077994 0.813107
0.088176 -0.078111 0.814326
0.089696 -0.078236 0.815628
0.091247 -0.078384 0.817174
0.092800 -0.078529 0.818685
0.094365 -0.078680 0.820260
0.095978 -0.078866 0.822192
0.097627 -0.079076 0.824382
0.111879 -0.084582 0.881790
0.113750 -0.084866 0.884750
0.115667 -0.085176 0.887979
0.117368 -0.085322 0.889497
0.119107 -0.085490 0.891254
0.120904 -0.085696 0.893399
0.122745 -0.085928 0.895818
0.004713 -0.087652 0.913793
0.004707 -0.086001 0.912707
0.006244 -0.085908 0.911721
0.007777 -0.085818 0.910772
0.009299 -0.085652 0.909006
0.010812 -0.085472 0.907093
0.012311 -0.085231 0.904544
0.013797 -0.084964 0.901706
0.015270 -0.084679 0.898678
0.016733 -0.084395 0.895668
0.018192 -0.084140 0.892964
0.019645 -0.083898 0.890394
0.021092 -0.083665 0.887924
0.022536 -0.083455 0.885695
0.023985 -0.083287 0.883906
0.025440 -0.083159 0.882553
0.026908 -0.083087 0.881780
0.028394 -0.083071 0.881614
0.029696 -0.082547 0.876057
0.030821 -0.083074 0.866065
0.030821 -0.081606 0.866065
0.033892 -0.078543 0.833561
0.035087 -0.078067 0.828513
0.036421 -0.077925 0.827002
0.037738 -0.077756 0.825212
0.039034 -0.077561 0.823134
0.040314 -0.077347 0.820864
0.041599 -0.077155 0.818830
0.042896 -0.076998 0.817167
0.044197 -0.076860 0.815695
0.045516 -0.076758 0.814622
0.046837 -0.076666 0.813637
0.048161 -0.076585 0.812777
0.049474 -0.076489 0.811763
0.050782 -0.076393 0.810744
0.052093 -0.076306 0.809818
0.053407 -0.076227 0.808978
0.054728 -0.076163 0.808300
0.056043 -0.076093 0.807558
0.057365 -0.076035 0.806947
0.058659 -0.075945 0.805985
0.059943 -0.075845 0.804930
0.061227 -0.075750 0.803918
0.062519 -0.075669 0.803057
0.063812 -0.075593 0.802248
0.065145 -0.075565 0.801953
0.066506 -0.075571 0.802023
0.067883 -0.075595 0.802272
0.069280 -0.075639 0.802745
0.070703 -0.075710 0.803493
0.072117 -0.075768 0.804110
0.073526 -0.075819 0.804652
0.074933 -0.075867 0.805160
0.076349 -0.075921 0.805735
0.077755 -0.075965 0.806194
0.079194 -0.076037 0.806961
0.080670 -0.076143 0.808087
0.082154 -0.076252 0.809250
0.083643 -0.076363 0.810421
0.085164 -0.076498 0.811859
0.086660 -0.076608 0.813021
0.088169 -0.076724 0.814256
0.089697 -0.076854 0.815636
0.091249 -0.077000 0.817184
0.092802 -0.077143 0.818698
0.094375 -0.077298 0.820343
0.095987 -0.077480 0.822275
0.097627 -0.077678 0.824384
0.111329 -0.082679 0.877456
0.113503 -0.083185 0.882824
0.115677 -0.083678 0.888060
0.117346 -0.083798 0.889327
0.119050 -0.083939 0.890827
0.120832 -0.084131 0.892868
0.122648 -0.084342 0.895105
0.124572 -0.086143 0.898065
0.124448 -0.084537 0.897174
0.004702 -0.084348 0.911566
0.006237 -0.084270 0.910726
0.007768 -0.084176 0.909706
0.009287 -0.084007 0.907880
0.010796 -0.083804 0.905683
0.012292 -0.083566 0.903111
0.013774 -0.083294 0.900178
0.015248 -0.083038 0.897405
0.016713 -0.082777 0.894589
0.018176 -0.082554 0.892178
0.019630 -0.082329 0.889743
0.021085 -0.082133 0.887629
0.022531 -0.081936 0.885504
0.023982 -0.081781 0.883822
0.025440 -0.081664 0.882556
0.026911 -0.081599 0.881860
0.028394 -0.081576 0.881614
0.029689 -0.081044 0.875860
0.033887 -0.077120 0.833449
0.035095 -0.076679 0.828684
0.036432 -0.076546 0.827249
0.037753 -0.076388 0.825536
0.039053 -0.076202 0.823528
0.040330 -0.075985 0.821184
0.041614 -0.075795 0.819133
0.042907 -0.075634 0.817390
0.044209 -0.075497 0.815916
0.045529 -0.075399 0.814855
0.046855 -0.075316 0.813959
0.048181 -0.075238 0.813114
0.049503 -0.075158 0.812253
0.050814 -0.075065 0.811248
0.052126 -0.074980 0.810330
0.053445 -0.074909 0.809556
0.054772 -0.074852 0.808940
0.056087 -0.074783 0.808192
0.057410 -0.074726 0.807578
0.058709 -0.074642 0.806674
0.059999 -0.074550 0.805678
0.061290 -0.074463 0.804738
0.062584 -0.074385 0.803892
0.063878 -0.074309 0.803077
0.065199 -0.074267 0.802618
0.066541 -0.074251 0.802443
0.067905 -0.074258 0.802527
0.069289 -0.074288 0.802849
0.070707 -0.074353 0.803542
0.072122 -0.074410 0.804165
0.073531 -0.074461 0.804711
0.074933 -0.074502 0.805160
0.076350 -0.074556 0.805742
0.077756 -0.074599 0.806204
0.079194 -0.074670 0.806969
0.080671 -0.074773 0.808092
0.082154 -0.074880 0.809245
0.083642 -0.074988 0.810413
0.085163 -0.075121 0.811849
0.086667 -0.075235 0.813082
0.088184 -0.075357 0.814396
0.089722 -0.075492 0.815859
0.091283 -0.075643 0.817490
0.092844 -0.075789 0.819066
0.094418 -0.075942 0.820716
0.096022 -0.076113 0.822574
0.097645 -0.076295 0.824532
0.099969 -0.078422 0.832275
0.099724 -0.076822 0.830234
0.110773 -0.080786 0.873070
0.113243 -0.081501 0.880804
0.115675 -0.082171 0.888041
0.117332 -0.082281 0.889224
0.119013 -0.082404 0.890551
0.120782 -0.082583 0.892496
0.122582 -0.082781 0.894628
0.124369 -0.082963 0.896604
0.004693 -0.082646 0.909840
0.006226 -0.082578 0.909087
0.007754 -0.082484 0.908051
0.009271 -0.082327 0.906327
0.010776 -0.082119 0.904039
0.012268 -0.081878 0.901383
0.013747 -0.081613 0.898464
0.015223 -0.081379 0.895891
0.016690 -0.081149 0.893357
0.018157 -0.080957 0.891244
0.019614 -0.080753 0.889000
0.021072 -0.080580 0.887093
0.022524 -0.080411 0.885238
0.023980 -0.080276 0.883747
0.025441 -0.080169 0.882575
0.026914 -0.080114 0.881963
0.028399 -0.080097 0.881780
0.029626 -0.079390 0.873995
0.033805 -0.075522 0.831419
0.035094 -0.075273 0.828666
0.036433 -0.075144 0.827257
0.037758 -0.074998 0.825647
0.039063 -0.074824 0.823730
0.040347 -0.074624 0.821525
0.041631 -0.074437 0.819463
0.042928 -0.074283 0.817776
0.044230 -0.074149 0.816298
0.045551 -0.074053 0.815238
0.046882 -0.073978 0.814419
0.048214 -0.073910 0.813663
0.049542 -0.073839 0.812885
0.050863 -0.073762 0.812037
0.052186 -0.073692 0.811262
0.053512 -0.073629 0.810575
0.054846 -0.073580 0.810033
0.056168 -0.073518 0.809351
0.057492 -0.073462 0.808729
0.058797 -0.073384 0.807881
0.060100 -0.073307 0.807033
0.061400 -0.073231 0.806188
0.062699 -0.073156 0.805364
0.063990 -0.073076 0.804481
0.065293 -0.073012 0.803784
0.066612 -0.072968 0.803301
0.067956 -0.072953 0.803134
0.069322 -0.072962 0.803235
0.070734 -0.073018 0.803844
0.072148 -0.073074 0.804460
0.073558 -0.073123 0.805004
0.074961 -0.073164 0.805457
0.076384 -0.073223 0.806107
0.077793 -0.073267 0.806583
0.079231 -0.073335 0.807343
0.080708 -0.073437 0.808464
0.082184 -0.073536 0.809546
0.083673 -0.073641 0.810710
0.085194 -0.073771 0.812141
0.086706 -0.073890 0.813450
0.088233 -0.074017 0.814848
0.089780 -0.074157 0.816391
0.091342 -0.074306 0.818023
0.092904 -0.074449 0.819601
0.094479 -0.074599 0.821249
0.096069 -0.074755 0.822972
0.097683 -0.074927 0.824859
0.099508 -0.075252 0.828436
0.101855 -0.077375 0.836210
0.101361 -0.075589 0.832152
0.113013 -0.079846 0.879017
0.115684 -0.080673 0.888116
0.117318 -0.080764 0.889118
0.118974 -0.080867 0.890261
0.120717 -0.081027 0.892016
0.122491 -0.081204 0.893961
0.124263 -0.081375 0.895843
0.126123 -0.083120 0.898299
0.126017 -0.081529 0.897544
0.004685 -0.080963 0.908265
0.006215 -0.080902 0.907583
0.007740 -0.080804 0.906484
0.009256 -0.080659 0.904847
0.010758 -0.080454 0.902552
0.012248 -0.080219 0.899918
0.013727 -0.079969 0.897116
0.015203 -0.079760 0.894762
0.016673 -0.079553 0.892439
0.018144 -0.079389 0.890602
0.019606 -0.079212 0.888623
0.021069 -0.079065 0.886964
0.022526 -0.078916 0.885295
0.023987 -0.078800 0.884003
0.025449 -0.078698 0.882854
0.026922 -0.078643 0.882239
0.028405 -0.078618 0.881961
0.029568 -0.077755 0.872276
0.033727 -0.073942 0.829498
0.035092 -0.073865 0.828634
0.036435 -0.073747 0.827313
0.037768 -0.073619 0.825872
0.039077 -0.073456 0.824045
0.040366 -0.073267 0.821924
0.041655 -0.073090 0.819941
0.042953 -0.072940 0.818259
0.044260 -0.072814 0.816849
0.045585 -0.072725 0.815848
0.046921 -0.072658 0.815094
0.048258 -0.072597 0.814409
0.049592 -0.072534 0.813708
0.050920 -0.072466 0.812940
0.052249 -0.072404 0.812249
0.053583 -0.072350 0.811642
0.054919 -0.072303 0.811116
0.056249 -0.072250 0.810517
0.057580 -0.072201 0.809967
0.058898 -0.072139 0.809267
0.060220 -0.072083 0.808643
0.061541 -0.072029 0.808042
0.062861 -0.071976 0.807444
0.064161 -0.071903 0.806629
0.065460 -0.071833 0.805840
0.066763 -0.071769 0.805117
0.068084 -0.071727 0.804648
0.069427 -0.071709 0.804447
0.070814 -0.071736 0.804757
0.072216 -0.071778 0.805218
0.073613 -0.071812 0.805609
0.075017 -0.071852 0.806056
0.076441 -0.071910 0.806708
0.077864 -0.071965 0.807325
0.079312 -0.072040 0.808166
0.080798 -0.072148 0.809371
0.082276 -0.072244 0.810450
0.083773 -0.072353 0.811678
0.085289 -0.072476 0.813049
0.086804 -0.072593 0.814363
0.088333 -0.072718 0.815771
0.089883 -0.072857 0.817326
0.091439 -0.072996 0.818892
0.093002 -0.073137 0.820464
0.094571 -0.073277 0.822042
0.096152 -0.073424 0.823690
0.097760 -0.073586 0.825501
0.099340 -0.073723 0.827043
0.100943 -0.073873 0.828723
0.115449 -0.079006 0.886304
0.117307 -0.079249 0.889030
0.118938 -0.079334 0.889988
0.120652 -0.079472 0.891541
0.122399 -0.079628 0.893289
0.124157 -0.079788 0.895076
0.125911 -0.079940 0.896788
0.004678 -0.079312 0.906988
0.006206 -0.079242 0.906195
0.007727 -0.079129 0.904897
0.009240 -0.078984 0.903244
0.010739 -0.078785 0.900964
0.012229 -0.078571 0.898512
0.013710 -0.078351 0.895998
0.015189 -0.078170 0.893924
0.016661 -0.077986 0.891822
0.018137 -0.077849 0.890253
0.019604 -0.077698 0.888531
0.021071 -0.077568 0.887041
0.022530 -0.077431 0.885472
0.023997 -0.077333 0.884354
0.025462 -0.077241 0.883310
0.026934 -0.077181 0.882617
0.028414 -0.077148 0.882239
0.029574 -0.076292 0.872450
0.033720 -0.072521 0.829331
0.035088 -0.072452 0.828537
0.036434 -0.072343 0.827292
0.037774 -0.072231 0.826015
0.039094 -0.072090 0.824403
0.040392 -0.071919 0.822445
0.041690 -0.071760 0.820626
0.042994 -0.071622 0.819044
0.044306 -0.071505 0.817707
0.045633 -0.071417 0.816704
0.046969 -0.071350 0.815933
0.048303 -0.071283 0.815173
0.049639 -0.071222 0.814474
0.050972 -0.071160 0.813768
0.052308 -0.071106 0.813151
0.053652 -0.071067 0.812700
0.055001 -0.071034 0.812329
0.056343 -0.070995 0.811883
0.057687 -0.070960 0.811480
0.059025 -0.070920 0.811016
0.060368 -0.070886 0.810635
0.061706 -0.070849 0.810205
0.063041 -0.070810 0.809762
0.064350 -0.070743 0.809002
0.065647 -0.070668 0.808134
0.066941 -0.070592 0.807270
0.068247 -0.070531 0.806572
0.069578 -0.070498 0.806196
0.070959 -0.070516 0.806403
0.072363 -0.070555 0.806851
0.073763 -0.070590 0.807250
0.075176 -0.070635 0.807767
0.076596 -0.070686 0.808346
0.078015 -0.070733 0.808885
0.079459 -0.070802 0.809671
0.080936 -0.070897 0.810753
0.082411 -0.070986 0.811779
0.083917 -0.071099 0.813073
0.085428 -0.071213 0.814370
0.086946 -0.071329 0.815700
0.088471 -0.071447 0.817049
0.090023 -0.071583 0.818598
0.091573 -0.071713 0.820084
0.093128 -0.071843 0.821575
0.094690 -0.071974 0.823077
0.096265 -0.072112 0.824655
0.097856 -0.072257 0.826315
0.099428 -0.072385 0.827772
0.101031 -0.072531 0.829445
0.103548 -0.074742 0.838475
0.103377 -0.073200 0.837090
0.115228 -0.077355 0.884614
0.117319 -0.077750 0.889126
0.118913 -0.077809 0.889807
0.120591 -0.077921 0.891086
0.122310 -0.078057 0.892639
0.124040 -0.078197 0.894233
0.125791 -0.078345 0.895935
0.127641 -0.080075 0.898298
0.127520 -0.078477 0.897445
0.003146 -0.077808 0.907375
0.004676 -0.077746 0.906658
0.006201 -0.077641 0.905426
0.007717 -0.077499 0.903772
0.009227 -0.077349 0.902029
0.010724 -0.077148 0.899681
0.012213 -0.076947 0.897334
0.013696 -0.076754 0.895090
0.015177 -0.076593 0.893208
0.016653 -0.076436 0.891378
0.018132 -0.076318 0.890002
0.019602 -0.076186 0.888467
0.021071 -0.076067 0.887082
0.022536 -0.075948 0.885690
0.024005 -0.075860 0.884662
0.025473 -0.075777 0.883693
0.026948 -0.075724 0.883072
0.028426 -0.075684 0.882608
0.033717 -0.071109 0.829255
0.035085 -0.071041 0.828465
0.036432 -0.070936 0.827235
0.037778 -0.070838 0.826093
0.039105 -0.070713 0.824636
0.040414 -0.070564 0.822902
0.041729 -0.070435 0.821396
0.043047 -0.070320 0.820056
0.044370 -0.070220 0.818886
0.045698 -0.070133 0.817877
0.047036 -0.070066 0.817098
0.048368 -0.069994 0.816257
0.049704 -0.069933 0.815546
0.051039 -0.069873 0.814843
0.052381 -0.069826 0.814289
0.053732 -0.069793 0.813907
0.055088 -0.069768 0.813616
0.056444 -0.069743 0.813324
0.057802 -0.069723 0.813089
0.059154 -0.069696 0.812781
0.060507 -0.069672 0.812498
0.061854 -0.069642 0.812146
0.063198 -0.069610 0.811778
0.064516 -0.069552 0.811097
0.065829 -0.069490 0.810381
0.067133 -0.069422 0.809582
0.068442 -0.069362 0.808881
0.069770 -0.069322 0.808415
0.071152 -0.069338 0.808599
0.072548 -0.069365 0.808918
0.073953 -0.069400 0.809329
0.075365 -0.069440 0.809800
0.076788 -0.069489 0.810364
0.078208 -0.069534 0.810891
0.079663 -0.069608 0.811748
0.081139 -0.069696 0.812783
0.082624 -0.069790 0.813879
0.084133 -0.069900 0.815164
0.085632 -0.070000 0.816320
0.087147 -0.070108 0.817585
0.088666 -0.070217 0.818853
0.090213 -0.070343 0.820326
0.091747 -0.070457 0.821650
0.093297 -0.070578 0.823065
0.094836 -0.070688 0.824349
0.096396 -0.070810 0.825774
0.097969 -0.070939 0.827269
0.099541 -0.071062 0.828710
0.101146 -0.071206 0.830385
0.103244 -0.071688 0.836014
0.115010 -0.075712 0.882940
0.117344 -0.076259 0.889315
0.118915 -0.076302 0.889817
0.120555 -0.076388 0.890819
0.122245 -0.076504 0.892169
0.123948 -0.076624 0.893572
0.125684 -0.076761 0.895175
0.127412 -0.076891 0.896684
0.129413 -0.078706 0.900056
0.129339 -0.077136 0.899544
0.003145 -0.076248 0.907118
0.004674 -0.076171 0.906202
0.006196 -0.076053 0.904798
0.007711 -0.075907 0.903067
0.009218 -0.075747 0.901165
0.010715 -0.075559 0.898920
0.012204 -0.075370 0.896672
0.013688 -0.075196 0.894599
0.015169 -0.075039 0.892742
0.016647 -0.074901 0.891092
0.018128 -0.074794 0.889818
0.019602 -0.074680 0.888466
0.021072 -0.074567 0.887115
0.022541 -0.074464 0.885899
0.024013 -0.074385 0.884953
0.025483 -0.074310 0.884061
0.026959 -0.074258 0.883445
0.028440 -0.074226 0.883063
0.033723 -0.069716 0.829415
0.035095 -0.069656 0.828698
0.036445 -0.069559 0.827544
0.037793 -0.069464 0.826409
0.039121 -0.069343 0.824966
0.040441 -0.069215 0.823452
0.041766 -0.069104 0.822123
0.043094 -0.069005 0.820952
0.044428 -0.068921 0.819947
0.045761 -0.068842 0.819009
0.047101 -0.068775 0.818220
0.048433 -0.068704 0.817363
0.049772 -0.068644 0.816658
0.051108 -0.068585 0.815950
0.052457 -0.068544 0.815471
0.053810 -0.068512 0.815086
0.055178 -0.068499 0.814935
0.056546 -0.068488 0.814799
0.057928 -0.068493 0.814864
0.059295 -0.068481 0.814721
0.060666 -0.068474 0.814636
0.062016 -0.068444 0.814272
0.063368 -0.068417 0.813960
0.064701 -0.068372 0.813419
0.066038 -0.068332 0.812946
0.067355 -0.068274 0.812259
0.068670 -0.068217 0.811571
0.070000 -0.068176 0.811083
0.071369 -0.068174 0.811059
0.072764 -0.068196 0.811323
0.074177 -0.068234 0.811780
0.075600 -0.068280 0.812329
0.077027 -0.068328 0.812895
0.078450 -0.068370 0.813392
0.079901 -0.068435 0.814167
0.081366 -0.068510 0.815061
0.082848 -0.068596 0.816086
0.084360 -0.068704 0.817365
0.085848 -0.068789 0.818375
0.087350 -0.068882 0.819491
0.088855 -0.068976 0.820600
0.090387 -0.069086 0.821912
0.091899 -0.069178 0.823013
0.093442 -0.069291 0.824349
0.094974 -0.069392 0.825553
0.096526 -0.069504 0.826890
0.098099 -0.069629 0.828372
0.099672 -0.069749 0.829805
0.101280 -0.069891 0.831490
0.103132 -0.070195 0.835105
0.114800 -0.074080 0.881325
0.117369 -0.074767 0.889501
0.118915 -0.074794 0.889821
0.120520 -0.074856 0.890561
0.122183 -0.074953 0.891716
0.123858 -0.075054 0.892920
0.125579 -0.075181 0.894425
0.127317 -0.075315 0.896019
0.129287 -0.075581 0.899184
0.131441 -0.077479 0.903542
0.131422 -0.075936 0.903409
0.001614 -0.074813 0.908368
0.003145 -0.074696 0.906948
0.004672 -0.074602 0.905811
0.006193 -0.074482 0.904346
0.007707 -0.074335 0.902558
0.009211 -0.074165 0.900493
0.010708 -0.073987 0.898336
0.012197 -0.073809 0.896179
0.013682 -0.073647 0.894207
0.015162 -0.073495 0.892359
0.016642 -0.073367 0.890808
0.018124 -0.073268 0.889612
0.019602 -0.073171 0.888435
0.021074 -0.073068 0.887182
0.022545 -0.072977 0.886070
0.024018 -0.072900 0.885136
0.025491 -0.072833 0.884319
0.026967 -0.072783 0.883712
0.028391 -0.072603 0.881535
0.029595 -0.073388 0.873088
0.032659 -0.069025 0.838085
0.033739 -0.068343 0.829807
0.035112 -0.068284 0.829095
0.036466 -0.068195 0.828012
0.037814 -0.068102 0.826886
0.039144 -0.067984 0.825449
0.040469 -0.067866 0.824021
0.041806 -0.067774 0.822904
0.043141 -0.067686 0.821838
0.044488 -0.067623 0.821064
0.045832 -0.067558 0.820273
0.047177 -0.067498 0.819546
0.048511 -0.067427 0.818684
0.049857 -0.067375 0.818056
0.051193 -0.067313 0.817298
0.052548 -0.067279 0.816886
0.053903 -0.067246 0.816494
0.055278 -0.067240 0.816413
0.056650 -0.067230 0.816295
0.058041 -0.067243 0.816452
0.059411 -0.067232 0.816315
0.060789 -0.067229 0.816288
0.062139 -0.067197 0.815895
0.063504 -0.067182 0.815710
0.064859 -0.067157 0.815404
0.066219 -0.067139 0.815184
0.067561 -0.067102 0.814744
0.068893 -0.067058 0.814211
0.070234 -0.067024 0.813791
0.071601 -0.067016 0.813694
0.072993 -0.067031 0.813881
0.074411 -0.067069 0.814341
0.075839 -0.067114 0.814892
0.077265 -0.067157 0.815407
0.078698 -0.067203 0.815972
0.080154 -0.067267 0.816744
0.081608 -0.067328 0.817486
0.083079 -0.067400 0.818363
0.084586 -0.067499 0.819558
0.086054 -0.067564 0.820348
0.087543 -0.067643 0.821304
0.089042 -0.067727 0.822324
0.090567 -0.067828 0.823551
0.092067 -0.067907 0.824510
0.093603 -0.068010 0.825767
0.095119 -0.068096 0.826814
0.096656 -0.068194 0.828001
0.098213 -0.068304 0.829332
0.099789 -0.068423 0.830781
0.101402 -0.068564 0.832489
0.103032 -0.068712 0.834290
0.114617 -0.072470 0.879919
0.117403 -0.073281 0.889764
0.118927 -0.073293 0.889911
0.120507 -0.073339 0.890470
0.122156 -0.073425 0.891513
0.123803 -0.073508 0.892524
0.125523 -0.073632 0.894025
0.127276 -0.073772 0.895731
0.129255 -0.074039 0.898964
0.131395 -0.074389 0.903222
0.133596 -0.076306 0.907804
0.133579 -0.074757 0.907688
0.004677 -0.073139 0.906705
0.006194 -0.072953 0.904394
0.007705 -0.072789 0.902361
0.009208 -0.072608 0.900120
0.010704 -0.072434 0.897962
0.012191 -0.072253 0.895719
0.013677 -0.072101 0.893836
0.015157 -0.071953 0.892005
0.016637 -0.071835 0.890537
0.018118 -0.071738 0.889335
0.019597 -0.071649 0.888237
0.021069 -0.071548 0.886977
0.022543 -0.071466 0.885963
0.024013 -0.071385 0.884953
0.025488 -0.071326 0.884228
0.026965 -0.071278 0.883627
0.028333 -0.070964 0.879736
0.029542 -0.071778 0.871510
0.029482 -0.070158 0.869750
0.032626 -0.067536 0.837243
0.033778 -0.067013 0.830761
0.035146 -0.066943 0.829892
0.036494 -0.066842 0.828644
0.037840 -0.066746 0.827446
0.039170 -0.066630 0.826006
0.040503 -0.066526 0.824716
0.041848 -0.066447 0.823747
0.043197 -0.066379 0.822904
0.044551 -0.066324 0.822221
0.045901 -0.066267 0.821514
0.047252 -0.066214 0.820857
0.048593 -0.066151 0.820068
0.049942 -0.066101 0.819454
0.051285 -0.066046 0.818775
0.052648 -0.066020 0.818443
0.054005 -0.065987 0.818041
0.055383 -0.065981 0.817960
0.056762 -0.065977 0.817910
0.058157 -0.065991 0.818092
0.059530 -0.065980 0.817949
0.060911 -0.065978 0.817926
0.062263 -0.065945 0.817521
0.063626 -0.065926 0.817281
0.064996 -0.065913 0.817126
0.066373 -0.065909 0.817075
0.067733 -0.065889 0.816819
0.069082 -0.065858 0.816436
0.070443 -0.065840 0.816221
0.071819 -0.065836 0.816170
0.073214 -0.065851 0.816348
0.074640 -0.065891 0.816845
0.076072 -0.065935 0.817401
0.077497 -0.065972 0.817851
0.078924 -0.066009 0.818306
0.080368 -0.066059 0.818931
0.081804 -0.066101 0.819450
0.083269 -0.066164 0.820228
0.084756 -0.066243 0.821207
0.086212 -0.066294 0.821851
0.087694 -0.066365 0.822721
0.089194 -0.066445 0.823723
0.090706 -0.066533 0.824814
0.092208 -0.066611 0.825774
0.093738 -0.066707 0.826960
0.095256 -0.066790 0.827999
0.096785 -0.066880 0.829106
0.098337 -0.066983 0.830380
0.099916 -0.067100 0.831834
0.101532 -0.067239 0.833556
0.103164 -0.067384 0.835364
0.114682 -0.071019 0.880423
0.117439 -0.071794 0.890032
0.118951 -0.071799 0.890086
0.120506 -0.071829 0.890463
0.122130 -0.071899 0.891327
0.123764 -0.071972 0.892241
0.125495 -0.072100 0.893825
0.127264 -0.072247 0.895642
0.129293 -0.072536 0.899226
0.131421 -0.072873 0.903404
0.133585 -0.073222 0.907732
0.135705 -0.075085 0.911666
0.135663 -0.073517 0.911383
0.004681 -0.071678 0.907662
0.006198 -0.071469 0.905012
0.007708 -0.071289 0.902744
0.009210 -0.071104 0.900396
0.010706 -0.070926 0.898142
0.012191 -0.070735 0.895718
0.013675 -0.070579 0.893743
0.015153 -0.070427 0.891820
0.016634 -0.070311 0.890357
0.018113 -0.070210 0.889074
0.019593 -0.070129 0.888053
0.021066 -0.070036 0.886869
0.022542 -0.069963 0.885944
0.024013 -0.069883 0.884937
0.025490 -0.069832 0.884290
0.026926 -0.069681 0.882373
0.028230 -0.069219 0.876533
0.031512 -0.066755 0.845329
0.032606 -0.066075 0.836717
0.033835 -0.065715 0.832157
0.035201 -0.065638 0.831186
0.036548 -0.065536 0.829888
0.037886 -0.065422 0.828446
0.039211 -0.065297 0.826860
0.040549 -0.065201 0.825640
0.041899 -0.065130 0.824744
0.043253 -0.065069 0.823980
0.044610 -0.065017 0.823315
0.045971 -0.064973 0.822757
0.047325 -0.064922 0.822112
0.048672 -0.064866 0.821399
0.050028 -0.064823 0.820858
0.051378 -0.064775 0.820254
0.052739 -0.064744 0.819859
0.054098 -0.064712 0.819452
0.055473 -0.064700 0.819299
0.056849 -0.064689 0.819162
0.058240 -0.064697 0.819260
0.059615 -0.064685 0.819115
0.060998 -0.064683 0.819093
0.062359 -0.064659 0.818783
0.063731 -0.064646 0.818623
0.065115 -0.064647 0.818627
0.066507 -0.064654 0.818720
0.067881 -0.064645 0.818606
0.069245 -0.064626 0.818368
0.070618 -0.064617 0.818246
0.071985 -0.064602 0.818067
0.073376 -0.064609 0.818155
0.074796 -0.064641 0.818552
0.076224 -0.064678 0.819027
0.077652 -0.064715 0.819491
0.079090 -0.064757 0.820028
0.080530 -0.064801 0.820576
0.081959 -0.064834 0.821001
0.083417 -0.064888 0.821685
0.084891 -0.064954 0.822513
0.086341 -0.064998 0.823081
0.087818 -0.065062 0.823879
0.089320 -0.065141 0.824888
0.090827 -0.065222 0.825915
0.092325 -0.065294 0.826825
0.093849 -0.065382 0.827934
0.095366 -0.065463 0.828960
0.096897 -0.065550 0.830069
0.098452 -0.065651 0.831347
0.100042 -0.065773 0.832883
0.101659 -0.065908 0.834598
0.103510 -0.066190 0.838165
0.114949 -0.069688 0.882470
0.117454 -0.070294 0.890146
0.118964 -0.070298 0.890185
0.120496 -0.070314 0.890388
0.122107 -0.070374 0.891157
0.123728 -0.070439 0.891980
0.125458 -0.070565 0.893567
0.127240 -0.070716 0.895478
0.129245 -0.070985 0.898892
0.131352 -0.071304 0.902928
0.133491 -0.071633 0.907092
0.135538 -0.071905 0.910540
0.137721 -0.073793 0.914815
0.137558 -0.072157 0.913735
0.003158 -0.070377 0.910741
0.004686 -0.070209 0.908562
0.006203 -0.069988 0.905709
0.007713 -0.069806 0.903345
0.009216 -0.069616 0.900894
0.010711 -0.069434 0.898537
0.012195 -0.069238 0.896004
0.013678 -0.069077 0.893921
0.015155 -0.068921 0.891897
0.016634 -0.068801 0.890347
0.018113 -0.068702 0.889067
0.019593 -0.068624 0.888053
0.021065 -0.068527 0.886794
0.022540 -0.068455 0.885867
0.024008 -0.068371 0.884777
0.025483 -0.068314 0.884039
0.026873 -0.068049 0.880616
0.028122 -0.067475 0.873189
0.029372 -0.068427 0.866499
0.029263 -0.066711 0.863292
0.030356 -0.065914 0.852991
0.031439 -0.065170 0.843352
0.032607 -0.064659 0.836743
0.033903 -0.064434 0.833837
0.035264 -0.064345 0.832676
0.036609 -0.064235 0.831259
0.037937 -0.064104 0.829560
0.039260 -0.063975 0.827893
0.040603 -0.063887 0.826753
0.041956 -0.063818 0.825867
0.043313 -0.063760 0.825112
0.044675 -0.063713 0.824506
0.046042 -0.063676 0.824027
0.047398 -0.063626 0.823382
0.048748 -0.063572 0.822681
0.050106 -0.063530 0.822134
0.051457 -0.063483 0.821525
0.052815 -0.063446 0.821046
0.054177 -0.063415 0.820645
0.055553 -0.063401 0.820471
0.056930 -0.063391 0.820328
0.058321 -0.063396 0.820398
0.059703 -0.063390 0.820327
0.061094 -0.063394 0.820380
0.062459 -0.063372 0.820093
0.063833 -0.063360 0.819941
0.065219 -0.063360 0.819936
0.066606 -0.063361 0.819944
0.067982 -0.063351 0.819819
0.069355 -0.063339 0.819668
0.070744 -0.063342 0.819701
0.072115 -0.063330 0.819544
0.073516 -0.063343 0.819710
0.074931 -0.063368 0.820031
0.076360 -0.063403 0.820492
0.077778 -0.063428 0.820813
0.079209 -0.063463 0.821271
0.080637 -0.063494 0.821672
0.082059 -0.063520 0.821998
0.083503 -0.063561 0.822532
0.084971 -0.063619 0.823288
0.086424 -0.063664 0.823870
0.087894 -0.063720 0.824595
0.089397 -0.063798 0.825605
0.090907 -0.063878 0.826635
0.092407 -0.063949 0.827554
0.093932 -0.064035 0.828667
0.095468 -0.064126 0.829842
0.097009 -0.064217 0.831024
0.098567 -0.064317 0.832317
0.100159 -0.064436 0.833856
0.101766 -0.064561 0.835477
0.103834 -0.064971 0.840787
0.115233 -0.068361 0.884648
0.117480 -0.068801 0.890346
0.118988 -0.068803 0.890366
0.120508 -0.068811 0.890472
0.122107 -0.068864 0.891157
0.123727 -0.068927 0.891974
0.125469 -0.069056 0.893640
0.127251 -0.069204 0.895555
0.129217 -0.069446 0.898699
0.131293 -0.069742 0.902525
0.133412 -0.070054 0.906554
0.135433 -0.070307 0.909834
0.137442 -0.070549 0.912962
0.139345 -0.072283 0.915328
0.139270 -0.070693 0.914831
0.001624 -0.070617 0.913850
0.001626 -0.069177 0.915291
0.003163 -0.068943 0.912198
0.004692 -0.068753 0.909674
0.006208 -0.068512 0.906492
0.007718 -0.068312 0.903848
0.009220 -0.068121 0.901315
0.010714 -0.067935 0.898863
0.012197 -0.067731 0.896153
0.013679 -0.067570 0.894029
0.015155 -0.067409 0.891898
0.016632 -0.067285 0.890259
0.018111 -0.067189 0.888992
0.019593 -0.067119 0.888062
0.021067 -0.067030 0.886889
0.022543 -0.066961 0.885968
0.024011 -0.066879 0.884882
0.025485 -0.066821 0.884123
0.026829 -0.066447 0.879168
0.028021 -0.065756 0.870030
0.029158 -0.065012 0.860189
0.030264 -0.064274 0.850419
0.031365 -0.063591 0.841386
0.032604 -0.063235 0.836666
0.033968 -0.063142 0.835435
0.035321 -0.063036 0.834032
0.036661 -0.062915 0.832437
0.037986 -0.062779 0.830634
0.039311 -0.062652 0.828960
0.040656 -0.062567 0.827833
0.042015 -0.062506 0.827025
0.043381 -0.062459 0.826407
0.044745 -0.062413 0.825797
0.046117 -0.062381 0.825377
0.047480 -0.062338 0.824806
0.048833 -0.062285 0.824105
0.050187 -0.062237 0.823471
0.051549 -0.062201 0.822987
0.052905 -0.062159 0.822437
0.054264 -0.062124 0.821969
0.055631 -0.062099 0.821637
0.057009 -0.062086 0.821473
0.058382 -0.062070 0.821258
0.059766 -0.062065 0.821189
0.061154 -0.062064 0.821181
0.062531 -0.062053 0.821032
0.063906 -0.062041 0.820879
0.065293 -0.062040 0.820861
0.066674 -0.062034 0.820784
0.068050 -0.062024 0.820642
0.069425 -0.062012 0.820490
0.070816 -0.062016 0.820544
0.072204 -0.062017 0.820553
0.073607 -0.062030 0.820730
0.075031 -0.062060 0.821122
0.076462 -0.062095 0.821589
0.077881 -0.062119 0.821905
0.079307 -0.062148 0.822285
0.080734 -0.062176 0.822661
0.082149 -0.062195 0.822904
0.083587 -0.062229 0.823364
0.085043 -0.062276 0.823987
0.086498 -0.062321 0.824574
0.087969 -0.062376 0.825302
0.089474 -0.062452 0.826307
