1691
0.055543 -0.063588 0.841342
0.057105 -0.063744 0.843401
0.058659 -0.063883 0.845250
0.060177 -0.063978 0.846506
0.061711 -0.064085 0.847911
0.063262 -0.064204 0.849495
0.064797 -0.064302 0.850793
0.066329 -0.064393 0.851991
0.067861 -0.064480 0.853142
0.069370 -0.064543 0.853972
0.070891 -0.064613 0.854900
0.072416 -0.064684 0.855844
0.073979 -0.064786 0.857196
0.075556 -0.064896 0.858642
0.077147 -0.065013 0.860200
0.078745 -0.065132 0.861771
0.080347 -0.065250 0.863335
0.081916 -0.065337 0.864482
0.083493 -0.065427 0.865680
0.085113 -0.065548 0.867278
0.086714 -0.065651 0.868633
0.088330 -0.065760 0.870080
0.090224 -0.066070 0.874181
0.092353 -0.066539 0.880389
-0.052714 -0.065920 0.892206
-0.051178 -0.065883 0.891710
-0.049618 -0.065814 0.890768
-0.048047 -0.065725 0.889572
-0.046457 -0.065603 0.887920
-0.044833 -0.065423 0.885486
-0.043169 -0.065171 0.882073
-0.041492 -0.064882 0.878153
-0.039829 -0.064592 0.874230
-0.038187 -0.064316 0.870503
-0.036588 -0.064093 0.867479
-0.035002 -0.063875 0.864531
-0.033433 -0.063670 0.861755
-0.031871 -0.063461 0.858926
-0.030318 -0.063250 0.856072
-0.028775 -0.063040 0.853225
-0.027267 -0.062889 0.851188
-0.025769 -0.062745 0.849241
-0.024276 -0.062597 0.847238
-0.022792 -0.062456 0.845317
-0.021320 -0.062331 0.843634
-0.019861 -0.062227 0.842221
-0.018411 -0.062138 0.841017
-0.016971 -0.062073 0.840138
-0.015539 -0.062024 0.839477
-0.014106 -0.061965 0.838670
-0.012676 -0.061904 0.837849
-0.011248 -0.061843 0.837019
-0.009824 -0.061787 0.836271
-0.008402 -0.061727 0.835462
-0.006983 -0.061669 0.834665
-0.005567 -0.061614 0.833929
-0.004155 -0.061571 0.833339
-0.002744 -0.061535 0.832861
-0.001335 -0.061491 0.832258
0.000072 -0.061461 0.831851
0.001476 -0.061401 0.831043
0.002878 -0.061329 0.830071
0.004276 -0.061257 0.829095
0.005673 -0.061203 0.828369
0.007067 -0.061152 0.827672
0.008464 -0.061133 0.827417
0.009862 -0.061126 0.827324
0.011260 -0.061127 0.827328
0.012657 -0.061117 0.827200
0.014055 -0.061117 0.827199
0.015452 -0.061109 0.827096
0.016848 -0.061102 0.827004
0.018240 -0.061081 0.826709
0.019635 -0.061074 0.826620
0.021032 -0.061073 0.826605
0.022430 -0.061074 0.826613
0.023835 -0.061092 0.826863
0.025247 -0.061128 0.827347
0.026662 -0.061164 0.827839
0.028077 -0.061199 0.828315
0.029502 -0.061250 0.829005
0.030922 -0.061287 0.829498
0.032341 -0.061319 0.829927
0.033760 -0.061348 0.830324
0.035174 -0.061365 0.830549
0.036584 -0.061375 0.830697
0.037986 -0.061371 0.830640
0.039390 -0.061371 0.830642
0.040787 -0.061360 0.830485
0.042193 -0.061363 0.830531
0.043597 -0.061363 0.830536
0.045019 -0.061387 0.830856
0.046447 -0.061418 0.831274
0.047894 -0.061471 0.831996
0.049362 -0.061548 0.833032
0.050850 -0.061645 0.834344
0.052397 -0.061806 0.836524
0.053966 -0.061984 0.838930
0.055539 -0.062157 0.841272
0.057106 -0.062315 0.843416
0.058660 -0.062451 0.845258
0.060177 -0.062543 0.846496
0.061699 -0.062635 0.847744
0.063244 -0.062746 0.849246
0.064778 -0.062842 0.850542
0.066309 -0.062930 0.851742
0.067835 -0.063010 0.852818
0.069350 -0.063076 0.853719
0.070876 -0.063151 0.854725
0.072396 -0.063216 0.855604
0.073958 -0.063315 0.856952
0.075527 -0.063416 0.858314
0.077109 -0.063524 0.859774
0.078698 -0.063633 0.861253
0.080298 -0.063747 0.862800
0.081873 -0.063838 0.864032
0.083458 -0.063934 0.865324
0.085071 -0.064047 0.866857
0.086671 -0.064146 0.868201
0.088276 -0.064246 0.869553
0.090116 -0.064511 0.873135
0.091984 -0.064787 0.876871
-0.054153 -0.064325 0.891059
-0.052636 -0.064311 0.890876
-0.051107 -0.064283 0.890484
-0.049561 -0.064231 0.889755
-0.047987 -0.064137 0.888460
-0.046394 -0.064011 0.886720
-0.044768 -0.063831 0.884217
-0.043112 -0.063593 0.880925
-0.041448 -0.063325 0.877216
-0.039795 -0.063056 0.873478
-0.038162 -0.062799 0.869919
-0.036567 -0.062586 0.866968
-0.034984 -0.062377 0.864080
-0.033419 -0.062183 0.861398
-0.031862 -0.061986 0.858668
-0.030313 -0.061788 0.855914
-0.028775 -0.061593 0.853225
-0.027270 -0.061452 0.851268
-0.025772 -0.061313 0.849335
-0.024283 -0.061180 0.847492
-0.022801 -0.061047 0.845650
-0.021329 -0.060925 0.843966
-0.019865 -0.060811 0.842386
-0.018412 -0.060716 0.841075
-0.016969 -0.060641 0.840028
-0.015535 -0.060588 0.839294
-0.014103 -0.060530 0.838497
-0.012674 -0.060477 0.837758
-0.011247 -0.060417 0.836929
-0.009822 -0.060357 0.836096
-0.008401 -0.060299 0.835295
-0.006982 -0.060242 0.834505
-0.005566 -0.060190 0.833785
-0.004154 -0.060153 0.833275
-0.002744 -0.060119 0.832795
-0.001335 -0.060069 0.832111
0.000072 -0.060039 0.831696
0.001476 -0.059981 0.830887
0.002877 -0.059906 0.829845
0.004275 -0.059834 0.828857
0.005671 -0.059780 0.828104
0.007064 -0.059724 0.827328
0.008460 -0.059701 0.827010
0.009857 -0.059695 0.826923
0.011255 -0.059695 0.826926
0.012652 -0.059691 0.826869
0.014050 -0.059691 0.826868
0.015446 -0.059685 0.826785
0.016842 -0.059679 0.826701
0.018235 -0.059663 0.826485
0.019630 -0.059658 0.826409
0.021031 -0.059668 0.826550
0.022433 -0.059680 0.826714
0.023840 -0.059704 0.827052
0.025253 -0.059739 0.827531
0.026667 -0.059773 0.828003
0.028078 -0.059796 0.828320
0.029499 -0.059839 0.828926
0.030919 -0.059874 0.829409
0.032338 -0.059905 0.829843
0.033754 -0.059930 0.830177
0.035167 -0.059946 0.830402
0.036571 -0.059945 0.830395
0.037968 -0.059935 0.830248
0.039368 -0.059929 0.830171
0.040763 -0.059918 0.830010
0.042166 -0.059916 0.829990
0.043568 -0.059916 0.829982
0.044989 -0.059939 0.830299
0.046411 -0.059962 0.830629
0.047851 -0.060008 0.831261
0.049317 -0.060082 0.832280
0.050817 -0.060191 0.833801
0.052370 -0.060357 0.836089
0.053954 -0.060548 0.838742
0.055538 -0.060730 0.841267
0.057116 -0.060896 0.843561
0.058660 -0.061019 0.845263
0.060176 -0.061107 0.846490
0.061687 -0.061186 0.847582
0.063225 -0.061288 0.848995
0.064758 -0.061381 0.850281
0.066294 -0.061472 0.851547
0.067814 -0.061546 0.852561
0.069335 -0.061616 0.853542
0.070868 -0.061694 0.854619
0.072388 -0.061758 0.855510
0.073945 -0.061851 0.856793
0.075519 -0.061954 0.858226
0.077093 -0.062054 0.859598
0.078673 -0.062154 0.860986
0.080264 -0.062259 0.862442
0.081845 -0.062353 0.863742
0.083423 -0.062440 0.864958
0.085029 -0.062546 0.866424
0.086627 -0.062643 0.867758
0.088230 -0.062739 0.869097
0.089816 -0.062821 0.870234
0.091420 -0.062912 0.871496
-0.054074 -0.062722 0.889759
-0.052559 -0.062709 0.889570
-0.051032 -0.062681 0.889171
-0.049490 -0.062632 0.888475
-0.047918 -0.062541 0.887182
-0.046327 -0.062418 0.885442
-0.044708 -0.062248 0.883029
-0.043071 -0.062040 0.880077
-0.041421 -0.061799 0.876655
-0.039783 -0.061556 0.873217
-0.038151 -0.061306 0.869666
-0.036555 -0.061096 0.866690
-0.034969 -0.060885 0.863696
-0.033404 -0.060696 0.861013
-0.031849 -0.060506 0.858322
-0.030309 -0.060330 0.855822
-0.028780 -0.060158 0.853380
-0.027278 -0.060027 0.851513
-0.025782 -0.059897 0.849672
-0.024298 -0.059779 0.848004
-0.022815 -0.059651 0.846186
-0.021341 -0.059527 0.844433
-0.019873 -0.059408 0.842742
-0.018416 -0.059303 0.841246
-0.016969 -0.059216 0.840011
-0.015534 -0.059158 0.839198
-0.014101 -0.059103 0.838407
-0.012673 -0.059051 0.837676
-0.011246 -0.058993 0.836857
-0.009822 -0.058935 0.836029
-0.008401 -0.058883 0.835291
-0.006983 -0.058833 0.834579
-0.005567 -0.058783 0.833869
-0.004155 -0.058752 0.833431
-0.002745 -0.058717 0.832938
-0.001335 -0.058668 0.832245
0.000072 -0.058634 0.831762
0.001476 -0.058578 0.830958
0.002877 -0.058504 0.829911
0.004275 -0.058428 0.828844
0.005670 -0.058365 0.827939
0.007064 -0.058314 0.827226
0.008458 -0.058288 0.826847
0.009854 -0.058277 0.826703
0.011253 -0.058282 0.826771
0.012652 -0.058288 0.826847
0.014048 -0.058283 0.826787
0.015447 -0.058288 0.826855
0.016845 -0.058288 0.826847
0.018240 -0.058277 0.826703
0.019636 -0.058272 0.826631
0.021037 -0.058283 0.826777
0.022437 -0.058290 0.826875
0.023844 -0.058313 0.827200
0.025255 -0.058341 0.827604
0.026667 -0.058370 0.828010
0.028075 -0.058387 0.828252
0.029494 -0.058424 0.828779
0.030913 -0.058457 0.829254
0.032329 -0.058483 0.829617
0.033742 -0.058501 0.829877
0.035154 -0.058516 0.830092
0.036553 -0.058510 0.829998
0.037946 -0.058493 0.829764
0.039345 -0.058487 0.829677
0.040739 -0.058475 0.829511
0.042141 -0.058475 0.829504
0.043543 -0.058475 0.829498
0.044962 -0.058497 0.829811
0.046379 -0.058515 0.830067
0.047814 -0.058553 0.830616
0.049269 -0.058614 0.831477
0.050767 -0.058720 0.832981
0.052323 -0.058887 0.835349
0.053918 -0.059087 0.838185
0.055514 -0.059278 0.840893
0.057106 -0.059456 0.843423
0.058660 -0.059586 0.845263
0.060171 -0.059667 0.846416
0.061675 -0.059738 0.847420
0.063200 -0.059826 0.848665
0.064725 -0.059909 0.849852
0.066261 -0.059999 0.851124
0.067781 -0.060071 0.852146
0.069309 -0.060147 0.853218
0.070854 -0.060233 0.854450
0.072380 -0.060302 0.855421
0.073938 -0.060393 0.856712
0.075519 -0.060500 0.858224
0.077086 -0.060591 0.859517
0.078658 -0.060682 0.860814
0.080241 -0.060779 0.862187
0.081821 -0.060870 0.863480
0.083397 -0.060956 0.864693
0.085003 -0.061059 0.866155
0.086599 -0.061152 0.867476
0.088200 -0.061245 0.868804
0.089770 -0.061315 0.869786
0.091356 -0.061392 0.870887
0.093760 -0.063499 0.879624
0.093425 -0.061786 0.876480
-0.053985 -0.061114 0.888303
-0.052475 -0.061104 0.888152
-0.050956 -0.061083 0.887843
-0.049414 -0.061032 0.887111
-0.047853 -0.060955 0.885986
-0.046269 -0.060841 0.884337
-0.044665 -0.060692 0.882171
-0.043042 -0.060507 0.879486
-0.041399 -0.060280 0.876181
-0.039766 -0.060052 0.872857
-0.038136 -0.059809 0.869327
-0.036534 -0.059592 0.866184
-0.034947 -0.059385 0.863167
-0.033387 -0.059205 0.860557
-0.031836 -0.059028 0.857975
-0.030304 -0.058868 0.855660
-0.028783 -0.058718 0.853468
-0.027283 -0.058595 0.851692
-0.025790 -0.058475 0.849942
-0.024311 -0.058372 0.848440
-0.022834 -0.058263 0.846862
-0.021357 -0.058139 0.845060
-0.019885 -0.058012 0.843218
-0.018423 -0.057900 0.841591
-0.016972 -0.057802 0.840166
-0.015532 -0.057731 0.839122
-0.014100 -0.057677 0.838339
-0.012671 -0.057622 0.837550
-0.011243 -0.057560 0.836644
-0.009818 -0.057498 0.835734
-0.008398 -0.057446 0.834989
-0.006981 -0.057403 0.834362
-0.005567 -0.057365 0.833806
-0.004155 -0.057340 0.833450
-0.002745 -0.057311 0.833021
-0.001336 -0.057268 0.832394
0.000072 -0.057229 0.831835
0.001476 -0.057175 0.831043
0.002878 -0.057103 0.829999
0.004275 -0.057024 0.828859
0.005670 -0.056961 0.827944
0.007064 -0.056918 0.827308
0.008460 -0.056897 0.827010
0.009856 -0.056888 0.826873
0.011256 -0.056897 0.827010
0.012655 -0.056902 0.827083
0.014052 -0.056898 0.827022
0.015452 -0.056904 0.827104
0.016852 -0.056908 0.827170
0.018247 -0.056898 0.827020
0.019641 -0.056887 0.826863
0.021042 -0.056896 0.826996
0.022443 -0.056902 0.827085
0.023847 -0.056916 0.827276
0.025257 -0.056943 0.827671
0.026671 -0.056974 0.828131
0.028077 -0.056987 0.828312
0.029494 -0.057019 0.828776
0.030916 -0.057056 0.829322
0.032329 -0.057076 0.829601
0.033735 -0.057083 0.829706
0.035143 -0.057091 0.829830
0.036538 -0.057078 0.829645
0.037926 -0.057057 0.829333
0.039324 -0.057051 0.829246
0.040718 -0.057041 0.829094
0.042120 -0.057040 0.829085
0.043521 -0.057040 0.829087
0.044936 -0.057057 0.829324
0.046348 -0.057069 0.829512
0.047778 -0.057102 0.829991
0.049223 -0.057151 0.830693
0.050718 -0.057253 0.832184
0.052286 -0.057430 0.834760
0.053897 -0.057644 0.837863
0.055509 -0.057847 0.840816
0.057118 -0.058038 0.843590
0.058676 -0.058169 0.845497
0.060176 -0.058237 0.846489
0.061668 -0.058295 0.847325
0.063175 -0.058364 0.848329
0.064693 -0.058439 0.849421
0.066221 -0.058521 0.850616
0.067742 -0.058592 0.851648
0.069276 -0.058672 0.852811
0.070833 -0.058768 0.854206
0.072367 -0.058841 0.855265
0.073931 -0.058936 0.856637
0.075513 -0.059040 0.858150
0.077079 -0.059128 0.859440
0.078644 -0.059213 0.860666
0.080219 -0.059301 0.861951
0.081798 -0.059390 0.863239
0.083374 -0.059473 0.864449
0.084971 -0.059568 0.865829
0.086573 -0.059664 0.867221
0.088174 -0.059755 0.868546
0.089736 -0.059817 0.869454
0.091321 -0.059893 0.870554
0.093127 -0.060109 0.873691
-0.053902 -0.059516 0.886929
-0.052394 -0.059506 0.886781
-0.050881 -0.059490 0.886537
-0.049346 -0.059447 0.885898
-0.047798 -0.059384 0.884962
-0.046222 -0.059281 0.883431
-0.044624 -0.059143 0.881373
-0.043015 -0.058980 0.878937
-0.041385 -0.058775 0.875891
-0.039758 -0.058560 0.872680
-0.038136 -0.058335 0.869322
-0.036533 -0.058123 0.866167
-0.034942 -0.057914 0.863048
-0.033379 -0.057733 0.860363
-0.031829 -0.057561 0.857794
-0.030298 -0.057407 0.855504
-0.028786 -0.057277 0.853555
-0.027289 -0.057164 0.851872
-0.025801 -0.057057 0.850279
-0.024325 -0.056966 0.848929
-0.022853 -0.056876 0.847591
-0.021373 -0.056752 0.845729
-0.019897 -0.056618 0.843738
-0.018431 -0.056497 0.841932
-0.016975 -0.056389 0.840335
-0.015530 -0.056299 0.838982
-0.014098 -0.056246 0.838199
-0.012669 -0.056192 0.837398
-0.011240 -0.056126 0.836405
-0.009814 -0.056059 0.835405
-0.008394 -0.056008 0.834649
-0.006978 -0.055967 0.834035
-0.005565 -0.055936 0.833577
-0.004155 -0.055919 0.833318
-0.002745 -0.055895 0.832965
-0.001336 -0.055863 0.832485
0.000072 -0.055826 0.831936
0.001477 -0.055773 0.831149
0.002878 -0.055707 0.830169
0.004276 -0.055635 0.829097
0.005672 -0.055575 0.828196
0.007067 -0.055537 0.827637
0.008464 -0.055523 0.827417
0.009861 -0.055514 0.827283
0.011262 -0.055523 0.827417
0.012661 -0.055528 0.827490
0.014059 -0.055524 0.827439
0.015459 -0.055525 0.827455
0.016857 -0.055524 0.827443
0.018251 -0.055509 0.827212
0.019645 -0.055497 0.827033
0.021045 -0.055501 0.827091
0.022445 -0.055506 0.827175
0.023849 -0.055518 0.827347
0.025261 -0.055549 0.827802
0.026676 -0.055580 0.828269
0.028082 -0.055593 0.828465
0.029500 -0.055624 0.828931
0.030919 -0.055656 0.829402
0.032325 -0.055663 0.829511
0.033725 -0.055660 0.829458
0.035126 -0.055657 0.829420
0.036513 -0.055635 0.829089
0.037897 -0.055609 0.828701
0.039291 -0.055598 0.828543
0.040688 -0.055593 0.828470
0.042092 -0.055598 0.828543
0.043497 -0.055604 0.828624
0.044914 -0.055624 0.828928
0.046330 -0.055641 0.829177
0.047755 -0.055668 0.829585
0.049190 -0.055705 0.830139
0.050705 -0.055829 0.831976
0.052288 -0.056017 0.834788
0.053915 -0.056243 0.838145
0.055541 -0.056455 0.841308
0.057166 -0.056656 0.844302
0.058705 -0.056763 0.845909
0.060187 -0.056813 0.846648
0.061662 -0.056853 0.847237
0.063155 -0.056908 0.848061
0.064666 -0.056976 0.849070
0.066187 -0.057050 0.850174
0.067713 -0.057124 0.851285
0.069248 -0.057204 0.852466
0.070812 -0.057303 0.853953
0.072353 -0.057380 0.855102
0.073924 -0.057478 0.856556
0.075499 -0.057575 0.857999
0.077072 -0.057666 0.859358
0.078629 -0.057743 0.860499
0.080202 -0.057828 0.861777
0.081774 -0.057910 0.862990
0.083350 -0.057991 0.864200
0.084939 -0.058079 0.865506
0.086549 -0.058178 0.866982
0.088149 -0.058266 0.868304
0.089728 -0.058338 0.869373
0.091322 -0.058418 0.870561
0.092886 -0.058476 0.871424
-0.055304 -0.057910 0.885367
-0.053817 -0.057922 0.885538
-0.052315 -0.057915 0.885442
-0.050802 -0.057897 0.885161
-0.049275 -0.057862 0.884624
-0.047744 -0.057819 0.883966
-0.046180 -0.057732 0.882631
-0.044590 -0.057605 0.880693
-0.042994 -0.057462 0.878516
-0.041374 -0.057275 0.875657
-0.039751 -0.057071 0.872530
-0.038129 -0.056852 0.869181
-0.036527 -0.056645 0.866017
-0.034936 -0.056440 0.862887
-0.033373 -0.056264 0.860196
-0.031824 -0.056097 0.857635
-0.030295 -0.055952 0.855426
-0.028789 -0.055835 0.853631
-0.027292 -0.055725 0.851948
-0.025804 -0.055622 0.850373
-0.024329 -0.055538 0.849097
-0.022864 -0.055466 0.847989
-0.021382 -0.055340 0.846069
-0.019905 -0.055211 0.844087
-0.018436 -0.055086 0.842179
-0.016977 -0.054969 0.840400
-0.015525 -0.054861 0.838743
-0.014093 -0.054805 0.837882
-0.012661 -0.054737 0.836851
-0.011231 -0.054666 0.835760
-0.009806 -0.054598 0.834721
-0.008387 -0.054549 0.833973
-0.006973 -0.054515 0.833451
-0.005563 -0.054501 0.833247
-0.004154 -0.054495 0.833154
-0.002744 -0.054478 0.832893
-0.001336 -0.054457 0.832570
0.000072 -0.054427 0.832103
0.001477 -0.054376 0.831323
0.002879 -0.054316 0.830414
0.004278 -0.054250 0.829410
0.005674 -0.054192 0.828518
0.007070 -0.054157 0.827974
0.008468 -0.054148 0.827839
0.009865 -0.054134 0.827630
0.011266 -0.054143 0.827763
0.012667 -0.054147 0.827825
0.014065 -0.054143 0.827776
0.015464 -0.054140 0.827721
0.016864 -0.054143 0.827776
0.018256 -0.054123 0.827457
0.019651 -0.054111 0.827277
0.021051 -0.054114 0.827328
0.022456 -0.054129 0.827560
0.023860 -0.054142 0.827748
0.025276 -0.054176 0.828279
0.026691 -0.054207 0.828740
0.028098 -0.054219 0.828934
0.029512 -0.054241 0.829266
0.030925 -0.054261 0.829574
0.032325 -0.054257 0.829517
0.033715 -0.054238 0.829218
0.035106 -0.054220 0.828950
0.036486 -0.054189 0.828465
0.037868 -0.054163 0.828069
0.039258 -0.054148 0.827844
0.040657 -0.054148 0.827844
0.042064 -0.054158 0.827998
0.043473 -0.054169 0.828163
0.044890 -0.054189 0.828472
0.046308 -0.054210 0.828785
0.047735 -0.054240 0.829248
0.049170 -0.054276 0.829801
0.050704 -0.054417 0.831954
0.052299 -0.054614 0.834962
0.053940 -0.054846 0.838523
0.055572 -0.055060 0.841785
0.057203 -0.055260 0.844842
0.058725 -0.055349 0.846202
0.060195 -0.055385 0.846748
0.061661 -0.055416 0.847231
0.063148 -0.055464 0.847963
0.064652 -0.055525 0.848892
0.066167 -0.055591 0.849911
0.067697 -0.055668 0.851088
0.069225 -0.055740 0.852184
0.070784 -0.055834 0.853614
0.072331 -0.055914 0.854843
0.073909 -0.056015 0.856383
0.075484 -0.056109 0.857829
0.077057 -0.056199 0.859192
0.078611 -0.056271 0.860308
0.080177 -0.056350 0.861507
0.081740 -0.056423 0.862625
0.083316 -0.056503 0.863849
0.084913 -0.056594 0.865237
0.086531 -0.056696 0.866800
0.088148 -0.056794 0.868295
0.089745 -0.056875 0.869539
0.091349 -0.056959 0.870819
0.092922 -0.057021 0.871769
-0.055233 -0.056338 0.884234
-0.053743 -0.056343 0.884313
-0.052239 -0.056333 0.884161
-0.050729 -0.056316 0.883892
-0.049215 -0.056293 0.883537
-0.047696 -0.056263 0.883072
-0.046147 -0.056195 0.882002
-0.044576 -0.056094 0.880414
-0.042990 -0.055967 0.878428
-0.041375 -0.055791 0.875663
-0.039756 -0.055598 0.872626
-0.038130 -0.055380 0.869205
-0.036521 -0.055168 0.865875
-0.034930 -0.054968 0.862736
-0.033366 -0.054796 0.860035
-0.031818 -0.054633 0.857480
-0.030292 -0.054497 0.855344
-0.028791 -0.054392 0.853696
-0.027294 -0.054285 0.852017
-0.025806 -0.054185 0.850450
-0.024332 -0.054104 0.849176
-0.022869 -0.054039 0.848155
-0.021384 -0.053912 0.846161
-0.019907 -0.053785 0.844177
-0.018436 -0.053658 0.842180
-0.016975 -0.053539 0.840305
-0.015516 -0.053408 0.838257
-0.014079 -0.053333 0.837078
-0.012644 -0.053246 0.835718
-0.011214 -0.053167 0.834468
-0.009790 -0.053096 0.833363
-0.008376 -0.053064 0.832851
-0.006966 -0.053050 0.832637
-0.005560 -0.053057 0.832746
-0.004152 -0.053066 0.832893
-0.002744 -0.053065 0.832872
-0.001336 -0.053055 0.832710
0.000072 -0.053031 0.832335
0.001477 -0.052982 0.831564
0.002880 -0.052928 0.830722
0.004279 -0.052864 0.829720
0.005676 -0.052808 0.828837
0.007073 -0.052774 0.828305
0.008472 -0.052770 0.828239
0.009869 -0.052752 0.827956
0.011270 -0.052755 0.828008
0.012669 -0.052754 0.827992
0.014067 -0.052746 0.827862
0.015465 -0.052742 0.827795
0.016867 -0.052750 0.827923
0.018261 -0.052734 0.827671
0.019658 -0.052728 0.827576
0.021061 -0.052736 0.827713
0.022467 -0.052753 0.827976
0.023872 -0.052766 0.828173
0.025289 -0.052800 0.828717
0.026705 -0.052830 0.829185
0.028113 -0.052842 0.829374
0.029524 -0.052858 0.829618
0.030932 -0.052866 0.829756
0.032326 -0.052852 0.829528
0.033709 -0.052821 0.829050
0.035092 -0.052795 0.828625
0.036468 -0.052758 0.828055
0.037849 -0.052732 0.827647
0.039237 -0.052717 0.827412
0.040636 -0.052717 0.827412
0.042047 -0.052732 0.827647
0.043459 -0.052749 0.827908
0.044877 -0.052770 0.828234
0.046294 -0.052790 0.828548
0.047721 -0.052819 0.829004
0.049151 -0.052849 0.829486
0.050692 -0.052994 0.831751
0.052298 -0.053198 0.834953
0.053953 -0.053438 0.838729
0.055595 -0.053655 0.842126
0.057229 -0.053852 0.845231
0.058744 -0.053931 0.846468
0.060207 -0.053960 0.846918
0.061667 -0.053985 0.847310
0.063148 -0.054027 0.847968
0.064647 -0.054081 0.848826
0.066155 -0.054141 0.849761
0.067684 -0.054215 0.850925
0.069205 -0.054279 0.851932
0.070756 -0.054365 0.853275
0.072301 -0.054442 0.854491
0.073880 -0.054541 0.856037
0.075447 -0.054628 0.857409
0.077019 -0.054715 0.858773
0.078572 -0.054786 0.859883
0.080137 -0.054862 0.861071
0.081697 -0.054932 0.862180
0.083273 -0.055010 0.863400
0.084868 -0.055098 0.864785
0.086495 -0.055204 0.866442
0.088130 -0.055310 0.868116
0.089746 -0.055402 0.869553
0.091370 -0.055496 0.871022
0.092963 -0.055568 0.872151
-0.056708 -0.054820 0.883932
-0.055190 -0.054795 0.883537
-0.053692 -0.054791 0.883467
-0.052183 -0.054775 0.883217
-0.050671 -0.054755 0.882891
-0.049160 -0.054734 0.882548
-0.047647 -0.054710 0.882167
-0.046110 -0.054656 0.881286
-0.044549 -0.054568 0.879879
-0.042969 -0.054452 0.878004
-0.041363 -0.054291 0.875411
-0.039749 -0.054109 0.872468
-0.038126 -0.053901 0.869111
-0.036517 -0.053694 0.865784
-0.034929 -0.053504 0.862712
-0.033366 -0.053337 0.860019
-0.031817 -0.053179 0.857469
-0.030292 -0.053046 0.855339
-0.028791 -0.052945 0.853696
-0.027294 -0.052841 0.852017
-0.025806 -0.052743 0.850447
-0.024332 -0.052664 0.849172
-0.022868 -0.052600 0.848142
-0.021384 -0.052477 0.846157
-0.019905 -0.052350 0.844102
-0.018430 -0.052212 0.841879
-0.016961 -0.052071 0.839614
-0.015493 -0.051909 0.836997
-0.014050 -0.051805 0.835317
-0.012611 -0.051695 0.833555
-0.011182 -0.051604 0.832086
-0.009763 -0.051542 0.831072
-0.008357 -0.051534 0.830956
-0.006954 -0.051547 0.831156
-0.005553 -0.051583 0.831741
-0.004150 -0.051621 0.832352
-0.002744 -0.051639 0.832639
-0.001336 -0.051638 0.832633
0.000072 -0.051625 0.832414
0.001478 -0.051578 0.831653
0.002881 -0.051526 0.830823
0.004280 -0.051468 0.829885
0.005678 -0.051417 0.829071
0.007074 -0.051380 0.828469
0.008475 -0.051380 0.828471
0.009872 -0.051362 0.828182
0.011270 -0.051356 0.828076
0.012668 -0.051345 0.827896
0.014065 -0.051335 0.827750
0.015461 -0.051327 0.827612
0.016865 -0.051340 0.827826
0.018263 -0.051335 0.827743
0.019664 -0.051340 0.827821
0.021071 -0.051358 0.828113
0.022482 -0.051384 0.828531
0.023891 -0.051402 0.828819
0.025309 -0.051437 0.829382
0.026726 -0.051465 0.829841
0.028130 -0.051467 0.829869
0.029536 -0.051472 0.829948
0.030935 -0.051466 0.829854
0.032323 -0.051441 0.829457
0.033699 -0.051401 0.828814
0.035075 -0.051365 0.828228
0.036446 -0.051324 0.827567
0.037827 -0.051299 0.827162
0.039214 -0.051284 0.826926
0.040612 -0.051285 0.826931
0.042030 -0.051308 0.827310
0.043446 -0.051329 0.827647
0.044864 -0.051351 0.827998
0.046282 -0.051371 0.828323
0.047712 -0.051403 0.828844
0.049146 -0.051438 0.829396
0.050706 -0.051598 0.831978
0.052324 -0.051808 0.835368
0.053989 -0.052051 0.839291
0.055636 -0.052266 0.842749
0.057265 -0.052452 0.845758
0.058759 -0.052510 0.846695
0.060223 -0.052538 0.847148
0.061679 -0.052559 0.847472
0.063161 -0.052600 0.848144
0.064661 -0.052654 0.849008
0.066164 -0.052708 0.849872
0.067685 -0.052774 0.850938
0.069198 -0.052830 0.851851
0.070735 -0.052903 0.853022
0.072272 -0.052973 0.854146
0.073848 -0.053067 0.855669
0.075402 -0.053143 0.856896
0.076966 -0.053223 0.858181
0.078511 -0.053287 0.859213
0.080073 -0.053359 0.860384
0.081633 -0.053429 0.861503
0.083206 -0.053504 0.862715
0.084809 -0.053595 0.864182
0.086451 -0.053707 0.865991
0.088103 -0.053822 0.867848
0.089739 -0.053924 0.869482
0.091392 -0.054032 0.871230
0.093004 -0.054113 0.872532
0.095386 -0.056126 0.880913
0.095139 -0.054491 0.878632
-0.056663 -0.053278 0.883217
-0.055148 -0.053257 0.882871
-0.053643 -0.053245 0.882666
-0.052130 -0.053224 0.882313
-0.050619 -0.053204 0.881978
-0.049104 -0.053178 0.881552
-0.047589 -0.053151 0.881098
-0.046058 -0.053103 0.880302
-0.044499 -0.053018 0.878906
-0.042931 -0.052916 0.877214
-0.041338 -0.052776 0.874883
-0.039732 -0.052608 0.872106
-0.038118 -0.052416 0.868924
-0.036516 -0.052225 0.865755
-0.034928 -0.052040 0.862690
-0.033365 -0.051878 0.859997
-0.031820 -0.051729 0.857533
-0.030298 -0.051606 0.855497
-0.028797 -0.051508 0.853868
-0.027299 -0.051407 0.852191
-0.025811 -0.051311 0.850606
-0.024332 -0.051224 0.849170
-0.022864 -0.051152 0.847973
-0.021364 -0.050993 0.845338
-0.019873 -0.050836 0.842737
-0.018388 -0.050669 0.839957
-0.016911 -0.050499 0.837136
-0.015437 -0.050308 0.833978
-0.013999 -0.050207 0.832300
-0.012565 -0.050101 0.830553
-0.011142 -0.050017 0.829152
-0.009732 -0.049972 0.828403
-0.008333 -0.049981 0.828559
-0.006938 -0.050023 0.829244
-0.005543 -0.050083 0.830253
-0.004144 -0.050146 0.831286
-0.002741 -0.050183 0.831899
-0.001335 -0.050200 0.832187
0.000072 -0.050200 0.832187
0.001477 -0.050164 0.831582
0.002881 -0.050119 0.830841
0.004281 -0.050071 0.830048
0.005679 -0.050026 0.829300
0.007075 -0.049985 0.828618
0.008475 -0.049980 0.828547
0.009873 -0.049967 0.828317
0.011270 -0.049951 0.828066
0.012666 -0.049935 0.827797
0.014063 -0.049925 0.827621
0.015459 -0.049916 0.827483
0.016862 -0.049927 0.827655
0.018263 -0.049933 0.827761
0.019668 -0.049947 0.827995
0.021078 -0.049971 0.828384
0.022491 -0.050000 0.828868
0.023905 -0.050026 0.829305
0.025324 -0.050060 0.829861
0.026737 -0.050079 0.830177
0.028138 -0.050075 0.830108
0.029538 -0.050069 0.830016
0.030929 -0.050050 0.829694
0.032311 -0.050017 0.829145
0.033686 -0.049977 0.828491
0.035055 -0.049933 0.827757
0.036425 -0.049893 0.827093
0.037805 -0.049868 0.826689
0.039189 -0.049851 0.826396
0.040586 -0.049851 0.826404
0.042010 -0.049883 0.826924
0.043429 -0.049907 0.827337
0.044852 -0.049934 0.827774
0.046278 -0.049962 0.828247
0.047712 -0.049998 0.828841
0.049163 -0.050049 0.829681
0.050737 -0.050218 0.832491
0.052358 -0.050424 0.835900
0.054023 -0.050660 0.839818
0.055664 -0.050863 0.843171
0.057272 -0.051025 0.845871
0.058753 -0.051069 0.846599
0.060223 -0.051102 0.847145
0.061680 -0.051123 0.847491
0.063175 -0.051174 0.848329
0.064675 -0.051226 0.849189
0.066177 -0.051277 0.850048
0.067692 -0.051337 0.851027
0.069198 -0.051387 0.851856
0.070716 -0.051443 0.852785
0.072244 -0.051504 0.853809
0.073803 -0.051586 0.855156
0.075342 -0.051649 0.856210
0.076896 -0.051721 0.857404
0.078447 -0.051788 0.858511
0.080001 -0.051854 0.859613
0.081561 -0.051923 0.860742
0.083140 -0.052000 0.862029
0.084749 -0.052093 0.863574
0.086398 -0.052207 0.865461
0.088075 -0.052335 0.867572
0.089746 -0.052454 0.869550
0.091420 -0.052571 0.871495
0.093060 -0.052665 0.873056
0.094908 -0.052873 0.876498
-0.056618 -0.051741 0.882525
-0.055102 -0.051717 0.882129
-0.053595 -0.051703 0.881884
-0.052073 -0.051672 0.881347
-0.050558 -0.051646 0.880916
-0.049040 -0.051615 0.880390
-0.047521 -0.051583 0.879832
-0.045992 -0.051536 0.879032
-0.044444 -0.051464 0.877812
-0.042886 -0.051375 0.876290
-0.041303 -0.051250 0.874152
-0.039711 -0.051102 0.871640
-0.038106 -0.050927 0.868653
-0.036509 -0.050747 0.865588
-0.034925 -0.050573 0.862617
-0.033365 -0.050421 0.860010
-0.031823 -0.050280 0.857619
-0.030304 -0.050166 0.855672
-0.028803 -0.050072 0.854056
-0.027306 -0.049974 0.852387
-0.025814 -0.049875 0.850706
-0.024331 -0.049785 0.849167
-0.022861 -0.049709 0.847874
-0.021343 -0.049514 0.844545
-0.019838 -0.049321 0.841261
-0.018342 -0.049122 0.837858
-0.016853 -0.048914 0.834306
-0.015373 -0.048692 0.830536
-0.013942 -0.048598 0.828917
-0.012517 -0.048505 0.827332
-0.011101 -0.048429 0.826044
-0.009698 -0.048400 0.825544
-0.008307 -0.048423 0.825935
-0.006919 -0.048483 0.826959
-0.005530 -0.048563 0.828319
-0.004137 -0.048652 0.829853
-0.002738 -0.048713 0.830881
-0.001334 -0.048753 0.831558
0.000072 -0.048774 0.831928
0.001477 -0.048753 0.831563
0.002881 -0.048715 0.830920
0.004282 -0.048673 0.830208
0.005680 -0.048629 0.829455
0.007077 -0.048589 0.828765
0.008476 -0.048580 0.828624
0.009874 -0.048567 0.828401
0.011271 -0.048552 0.828145
0.012667 -0.048536 0.827864
0.014062 -0.048521 0.827610
0.015460 -0.048517 0.827545
0.016864 -0.048532 0.827796
0.018268 -0.048544 0.827996
0.019674 -0.048558 0.828241
0.021086 -0.048585 0.828700
0.022500 -0.048613 0.829178
0.023914 -0.048639 0.829617
0.025329 -0.048663 0.830030
0.026740 -0.048676 0.830255
0.028137 -0.048666 0.830085
0.029532 -0.048651 0.829830
0.030917 -0.048623 0.829357
0.032297 -0.048591 0.828801
0.033669 -0.048549 0.828087
0.035035 -0.048501 0.827273
0.036408 -0.048467 0.826690
0.037787 -0.048444 0.826290
0.039171 -0.048427 0.826016
0.040571 -0.048432 0.826094
0.041998 -0.048467 0.826684
0.043417 -0.048491 0.827105
0.044844 -0.048522 0.827622
0.046278 -0.048558 0.828247
0.047721 -0.048602 0.828991
0.049199 -0.048678 0.830292
0.050773 -0.048842 0.833079
0.052390 -0.049038 0.836422
0.054044 -0.049256 0.840152
0.055678 -0.049445 0.843376
0.057256 -0.049577 0.845628
0.058741 -0.049625 0.846435
0.060217 -0.049662 0.847068
0.061680 -0.049687 0.847494
0.063182 -0.049741 0.848414
0.064682 -0.049791 0.849278
0.066184 -0.049842 0.850136
0.067693 -0.049894 0.851032
0.069192 -0.049938 0.851775
0.070689 -0.049978 0.852466
0.072202 -0.050028 0.853319
0.073739 -0.050092 0.854415
0.075267 -0.050148 0.855361
0.076805 -0.050208 0.856383
0.078352 -0.050272 0.857473
0.079898 -0.050332 0.858503
0.081471 -0.050408 0.859789
0.083058 -0.050489 0.861178
0.084682 -0.050589 0.862888
0.086338 -0.050705 0.864869
0.088047 -0.050848 0.867295
0.089728 -0.050970 0.869379
0.091421 -0.051094 0.871502
0.093096 -0.051206 0.873400
0.094681 -0.051264 0.874398
-0.055039 -0.050165 0.881132
-0.053531 -0.050147 0.880818
-0.052006 -0.050113 0.880215
-0.050486 -0.050082 0.879665
-0.048964 -0.050046 0.879032
-0.047439 -0.050005 0.878313
-0.045912 -0.049958 0.877499
-0.044378 -0.049902 0.876516
-0.042827 -0.049822 0.875102
-0.041260 -0.049716 0.873248
-0.039687 -0.049595 0.871110
-0.038098 -0.049444 0.868470
-0.036506 -0.049277 0.865525
-0.034929 -0.049117 0.862722
-0.033369 -0.048969 0.860112
-0.031829 -0.048836 0.857793
-0.030313 -0.048730 0.855927
-0.028812 -0.048639 0.854333
-0.027317 -0.048548 0.852733
-0.025824 -0.048452 0.851039
-0.024338 -0.048359 0.849403
-0.022840 -0.048227 0.847090
-0.021300 -0.047985 0.842832
-0.019775 -0.047743 0.838582
-0.018266 -0.047504 0.834393
-0.016770 -0.047264 0.830172
-0.015303 -0.047068 0.826727
-0.013883 -0.046992 0.825405
-0.012469 -0.046923 0.824177
-0.011061 -0.046860 0.823077
-0.009666 -0.046842 0.822755
-0.008280 -0.046872 0.823290
-0.006898 -0.046942 0.824511
-0.005515 -0.047032 0.826094
-0.004128 -0.047143 0.828049
-0.002733 -0.047230 0.829571
-0.001333 -0.047296 0.830739
0.000072 -0.047340 0.831507
0.001477 -0.047337 0.831461
0.002881 -0.047311 0.830996
0.004283 -0.047280 0.830454
0.005682 -0.047241 0.829770
0.007080 -0.047206 0.829151
0.008479 -0.047193 0.828934
0.009878 -0.047181 0.828716
0.011275 -0.047163 0.828394
0.012670 -0.047143 0.828055
0.014064 -0.047125 0.827725
0.015464 -0.047125 0.827725
0.016867 -0.047135 0.827908
0.018272 -0.047150 0.828163
0.019678 -0.047163 0.828401
0.021089 -0.047189 0.828849
0.022502 -0.047212 0.829254
0.023914 -0.047232 0.829617
0.025324 -0.047247 0.829877
0.026732 -0.047255 0.830014
0.028126 -0.047240 0.829754
0.029514 -0.047217 0.829343
0.030899 -0.047190 0.828866
0.032275 -0.047154 0.828240
0.033647 -0.047113 0.827527
0.035011 -0.047067 0.826717
0.036387 -0.047038 0.826212
0.037765 -0.047016 0.825821
0.039152 -0.047005 0.825617
0.040555 -0.047013 0.825767
0.041985 -0.047051 0.826430
0.043409 -0.047080 0.826941
0.044843 -0.047118 0.827615
0.046290 -0.047167 0.828471
0.047747 -0.047223 0.829456
0.049252 -0.047322 0.831184
0.050835 -0.047487 0.834096
0.052451 -0.047675 0.837396
0.054093 -0.047875 0.840911
0.055704 -0.048039 0.843780
0.057255 -0.048143 0.845617
0.058735 -0.048184 0.846341
0.060211 -0.048221 0.846979
0.061674 -0.048245 0.847409
0.063175 -0.048298 0.848329
0.064669 -0.048342 0.849115
0.066171 -0.048391 0.849968
0.067667 -0.048434 0.850715
0.069159 -0.048471 0.851372
0.070654 -0.048509 0.852043
0.072159 -0.048552 0.852806
0.073674 -0.048601 0.853654
0.075192 -0.048649 0.854502
0.076718 -0.048701 0.855415
0.078249 -0.048754 0.856346
0.079793 -0.048813 0.857379
0.081372 -0.048891 0.858747
0.082966 -0.048975 0.860218
0.084598 -0.049078 0.862027
0.086271 -0.049201 0.864188
0.087988 -0.049344 0.866713
0.089685 -0.049472 0.868963
0.091394 -0.049603 0.871251
0.093090 -0.049722 0.873339
0.094720 -0.049802 0.874759
-0.054951 -0.048594 0.879720
-0.053445 -0.048576 0.879406
-0.051922 -0.048542 0.878790
-0.050399 -0.048507 0.878149
-0.048874 -0.048466 0.877412
-0.047351 -0.048426 0.876682
-0.045827 -0.048381 0.875876
-0.044301 -0.048333 0.874997
-0.042763 -0.048265 0.873779
-0.041211 -0.048178 0.872196
-0.039651 -0.048075 0.870330
-0.038080 -0.047949 0.868056
-0.036506 -0.047810 0.865531
-0.034940 -0.047670 0.862993
-0.033386 -0.047534 0.860534
-0.031850 -0.047414 0.858362
-0.030336 -0.047315 0.856570
-0.028832 -0.047223 0.854912
-0.027338 -0.047139 0.853391
-0.025848 -0.047054 0.851840
-0.024332 -0.046908 0.849197
-0.022804 -0.046717 0.845741
-0.021243 -0.046431 0.840572
-0.019699 -0.046143 0.835352
-0.018177 -0.045865 0.830324
-0.016694 -0.045648 0.826394
-0.015242 -0.045486 0.823461
-0.013834 -0.045434 0.822513
-0.012432 -0.045390 0.821719
-0.011032 -0.045344 0.820896
-0.009643 -0.045339 0.820804
-0.008260 -0.045367 0.821314
-0.006882 -0.045432 0.822491
-0.005502 -0.045519 0.824051
-0.004119 -0.045638 0.826216
-0.002729 -0.045742 0.828092
-0.001331 -0.045830 0.829697
0.000071 -0.045896 0.830883
0.001477 -0.045915 0.831238
0.002881 -0.045899 0.830937
0.004283 -0.045874 0.830488
0.005684 -0.045844 0.829949
0.007082 -0.045814 0.829409
0.008482 -0.045803 0.829196
0.009882 -0.045795 0.829058
0.011280 -0.045781 0.828800
0.012676 -0.045762 0.828465
0.014071 -0.045745 0.828145
0.015470 -0.045741 0.828074
0.016872 -0.045746 0.828163
0.018275 -0.045755 0.828325
0.019679 -0.045763 0.828477
0.021088 -0.045779 0.828773
0.022497 -0.045797 0.829099
0.023907 -0.045813 0.829375
0.025315 -0.045822 0.829551
0.026717 -0.045822 0.829537
0.028107 -0.045803 0.829196
0.029492 -0.045776 0.828712
0.030872 -0.045746 0.828162
0.032245 -0.045707 0.827464
0.033617 -0.045671 0.826810
0.034984 -0.045631 0.826081
0.036362 -0.045607 0.825653
0.037744 -0.045590 0.825347
0.039133 -0.045583 0.825212
0.040539 -0.045595 0.825429
0.041972 -0.045636 0.826178
0.043404 -0.045673 0.826850
0.044851 -0.045724 0.827763
0.046320 -0.045792 0.829009
0.047802 -0.045869 0.830405
0.049339 -0.045993 0.832644
0.050927 -0.046157 0.835607
0.052536 -0.046331 0.838753
0.054152 -0.046500 0.841822
0.055730 -0.046630 0.844176
0.057249 -0.046705 0.845531
0.058724 -0.046741 0.846182
0.060199 -0.046776 0.846814
0.061668 -0.046804 0.847319
0.063168 -0.046854 0.848226
0.064655 -0.046893 0.848933
0.066151 -0.046935 0.849703
0.067634 -0.046968 0.850290
0.069117 -0.046999 0.850855
0.070603 -0.047031 0.851434
0.072107 -0.047073 0.852190
0.073614 -0.047116 0.852962
0.075123 -0.047157 0.853721
0.076640 -0.047203 0.854544
0.078162 -0.047250 0.855388
0.079695 -0.047302 0.856329
0.081265 -0.047373 0.857620
0.082872 -0.047462 0.859242
0.084520 -0.047572 0.861233
0.086209 -0.047702 0.863576
0.087936 -0.047847 0.866200
0.089656 -0.047984 0.868675
0.091373 -0.048115 0.871050
0.093720 -0.048568 0.879252
-0.054839 -0.047006 0.877930
-0.053337 -0.046990 0.877626
-0.051825 -0.046965 0.877149
-0.050305 -0.046930 0.876504
-0.048778 -0.046887 0.875700
-0.047255 -0.046845 0.874905
-0.045739 -0.046806 0.874191
-0.044221 -0.046764 0.873405
-0.042690 -0.046705 0.872293
-0.041153 -0.046634 0.870983
-0.039612 -0.046553 0.869462
-0.038057 -0.046450 0.867533
-0.036499 -0.046333 0.865360
-0.034944 -0.046212 0.863095
-0.033397 -0.046090 0.860815
-0.031870 -0.045986 0.858877
-0.030357 -0.045895 0.857167
-0.028855 -0.045810 0.855592
-0.027365 -0.045738 0.854241
-0.025881 -0.045668 0.852926
-0.024333 -0.045470 0.849234
-0.022774 -0.045224 0.844630
-0.021188 -0.044889 0.838379
-0.019622 -0.044552 0.832091
-0.018092 -0.044250 0.826454
-0.016628 -0.044074 0.823164
-0.015195 -0.043954 0.820925
-0.013801 -0.043932 0.820515
-0.012410 -0.043918 0.820254
-0.011016 -0.043891 0.819743
-0.009630 -0.043891 0.819736
-0.008248 -0.043910 0.820104
-0.006869 -0.043959 0.821017
-0.005490 -0.044028 0.822311
-0.004110 -0.044136 0.824314
-0.002723 -0.044245 0.826348
-0.001329 -0.044349 0.828295
0.000071 -0.044435 0.829895
0.001476 -0.044478 0.830712
0.002880 -0.044479 0.830718
0.004283 -0.044463 0.830425
0.005684 -0.044439 0.829978
0.007083 -0.044414 0.829514
0.008483 -0.044403 0.829310
0.009885 -0.044403 0.829310
0.011285 -0.044394 0.829133
0.012683 -0.044380 0.828871
0.014081 -0.044370 0.828687
0.015479 -0.044362 0.828540
0.016877 -0.044355 0.828409
0.018277 -0.044355 0.828407
0.019677 -0.044354 0.828394
0.021080 -0.044358 0.828464
0.022487 -0.044371 0.828709
0.023893 -0.044381 0.828895
0.025297 -0.044386 0.828991
0.026696 -0.044381 0.828887
0.028086 -0.044363 0.828552
0.029469 -0.044337 0.828073
0.030849 -0.044308 0.827526
0.032223 -0.044274 0.826888
0.033597 -0.044242 0.826305
0.034966 -0.044207 0.825652
0.036344 -0.044186 0.825248
0.037729 -0.044174 0.825022
0.039120 -0.044170 0.824953
0.040533 -0.044190 0.825324
0.041971 -0.044235 0.826164
0.043416 -0.044284 0.827077
0.044884 -0.044353 0.828377
0.046377 -0.044442 0.830034
0.047882 -0.044536 0.831794
0.049437 -0.044670 0.834299
0.051019 -0.044822 0.837127
0.052609 -0.044971 0.839918
0.054194 -0.045108 0.842478
0.055740 -0.045207 0.844324
0.057238 -0.045263 0.845363
0.058711 -0.045297 0.846000
0.060188 -0.045332 0.846651
0.061662 -0.045363 0.847243
0.063161 -0.045412 0.848143
0.064642 -0.045444 0.848758
0.066129 -0.045480 0.849424
0.067598 -0.045502 0.849840
0.069074 -0.045528 0.850324
0.070552 -0.045555 0.850819
0.072049 -0.045592 0.851508
0.073549 -0.045629 0.852207
0.075056 -0.045670 0.852965
0.076565 -0.045710 0.853709
0.078084 -0.045754 0.854536
0.079616 -0.045804 0.855477
0.081176 -0.045868 0.856674
0.082787 -0.045959 0.858368
0.084441 -0.046070 0.860434
0.086139 -0.046200 0.862875
0.087875 -0.046346 0.865597
0.089617 -0.046491 0.868305
0.091971 -0.046943 0.876745
-0.054739 -0.045435 0.876330
-0.053235 -0.045416 0.875953
-0.051724 -0.045389 0.875440
-0.050202 -0.045351 0.874710
-0.048679 -0.045310 0.873918
-0.047159 -0.045270 0.873132
-0.045650 -0.045237 0.872507
-0.044140 -0.045201 0.871817
-0.042617 -0.045148 0.870798
-0.041094 -0.045093 0.869728
-0.039570 -0.045032 0.868545
-0.038032 -0.044950 0.866970
-0.036494 -0.044861 0.865248
-0.034958 -0.044766 0.863424
-0.033420 -0.044662 0.861422
-0.031899 -0.044571 0.859659
-0.030388 -0.044487 0.858034
-0.028887 -0.044409 0.856538
-0.027401 -0.044347 0.855348
-0.025923 -0.044293 0.854306
-0.024372 -0.044101 0.850599
-0.022776 -0.043796 0.844705
-0.021167 -0.043426 0.837575
-0.019586 -0.043063 0.830581
-0.018045 -0.042739 0.824325
-0.016601 -0.042607 0.821785
-0.015183 -0.042527 0.820240
-0.013789 -0.042506 0.819831
-0.012400 -0.042496 0.819643
-0.011009 -0.042474 0.819218
-0.009624 -0.042475 0.819229
-0.008242 -0.042490 0.819516
-0.006861 -0.042518 0.820060
-0.005481 -0.042567 0.821010
-0.004102 -0.042657 0.822747
-0.002717 -0.042758 0.824685
-0.001327 -0.042867 0.826788
0.000071 -0.042970 0.828783
0.001474 -0.043029 0.829920
0.002879 -0.043046 0.830244
0.004282 -0.043042 0.830176
0.005683 -0.043023 0.829809
0.007082 -0.043003 0.829422
0.008484 -0.043001 0.829373
0.009887 -0.043005 0.829462
0.011288 -0.043001 0.829381
0.012687 -0.042991 0.829190
0.014086 -0.042982 0.829010
0.015483 -0.042970 0.828779
0.016877 -0.042951 0.828420
0.018272 -0.042939 0.828180
0.019668 -0.042929 0.827997
0.021065 -0.042925 0.827908
0.022468 -0.042930 0.828005
0.023873 -0.042939 0.828180
0.025273 -0.042939 0.828190
0.026667 -0.042930 0.828014
0.028056 -0.042913 0.827677
0.029438 -0.042888 0.827197
0.030816 -0.042860 0.826659
0.032192 -0.042831 0.826100
0.033565 -0.042801 0.825520
0.034940 -0.042775 0.825025
0.036321 -0.042759 0.824710
0.037712 -0.042755 0.824642
0.039113 -0.042764 0.824801
0.040537 -0.042795 0.825399
0.041984 -0.042847 0.826408
0.043445 -0.042911 0.827637
0.044933 -0.042995 0.829265
0.046446 -0.043099 0.831269
0.047973 -0.043208 0.833374
0.049527 -0.043335 0.835825
0.051096 -0.043468 0.838387
0.052664 -0.043593 0.840797
0.054218 -0.043699 0.842850
0.055743 -0.043778 0.844367
0.057236 -0.043828 0.845329
0.058710 -0.043862 0.845978
0.060182 -0.043892 0.846574
0.061662 -0.043927 0.847245
0.063151 -0.043967 0.848005
0.064624 -0.043994 0.848523
0.066103 -0.044023 0.849094
0.067564 -0.044040 0.849410
0.069026 -0.044056 0.849731
0.070497 -0.044078 0.850152
0.071986 -0.044110 0.850762
0.073478 -0.044142 0.851384
0.074991 -0.044185 0.852223
0.076499 -0.044224 0.852971
0.078016 -0.044267 0.853797
0.079554 -0.044320 0.854813
0.081111 -0.044381 0.855996
0.082722 -0.044469 0.857688
0.084381 -0.044579 0.859818
0.086087 -0.044710 0.862348
0.087822 -0.044852 0.865076
0.090199 -0.045311 0.873937
-0.054630 -0.043862 0.874581
-0.053120 -0.043836 0.874061
-0.051612 -0.043810 0.873541
-0.050095 -0.043775 0.872853
-0.048577 -0.043736 0.872077
-0.047060 -0.043697 0.871299
-0.045558 -0.043670 0.870746
-0.044055 -0.043638 0.870119
-0.042542 -0.043596 0.869270
-0.041034 -0.043555 0.868463
-0.039528 -0.043514 0.867634
-0.038008 -0.043453 0.866425
-0.036490 -0.043389 0.865138
-0.034968 -0.043315 0.863681
-0.033441 -0.043229 0.861955
-0.031925 -0.043150 0.860375
-0.030421 -0.043080 0.858984
-0.028922 -0.043009 0.857574
-0.027438 -0.042957 0.856525
-0.025964 -0.042912 0.855644
-0.024371 -0.042657 0.850547
-0.022723 -0.042267 0.842772
-0.021090 -0.041853 0.834529
-0.019519 -0.041512 0.827731
-0.017998 -0.041234 0.822181
-0.016577 -0.041157 0.820641
-0.015176 -0.041119 0.819881
-0.013782 -0.041094 0.819391
-0.012394 -0.041085 0.819201
-0.011004 -0.041067 0.818844
-0.009620 -0.041068 0.818863
-0.008238 -0.041079 0.819080
-0.006856 -0.041097 0.819455
-0.005475 -0.041129 0.820080
-0.004095 -0.041195 0.821397
-0.002712 -0.041279 0.823073
-0.001324 -0.041376 0.825014
0.000071 -0.041484 0.827171
0.001472 -0.041554 0.828564
0.002875 -0.041586 0.829207
0.004278 -0.041596 0.829390
0.005679 -0.041589 0.829248
0.007078 -0.041569 0.828865
0.008480 -0.041574 0.828953
0.009883 -0.041583 0.829135
0.011285 -0.041584 0.829161
0.012686 -0.041580 0.829072
0.014086 -0.041578 0.829030
0.015481 -0.041559 0.828650
0.016871 -0.041532 0.828127
0.018262 -0.041511 0.827702
0.019652 -0.041493 0.827339
0.021043 -0.041477 0.827025
0.022442 -0.041478 0.827043
0.023843 -0.041484 0.827155
0.025239 -0.041480 0.827087
0.026629 -0.041467 0.826828
0.028015 -0.041450 0.826484
0.029396 -0.041426 0.826017
0.030775 -0.041403 0.825559
0.032153 -0.041380 0.825087
0.033530 -0.041359 0.824665
0.034913 -0.041345 0.824402
0.036303 -0.041341 0.824318
0.037708 -0.041353 0.824560
0.039124 -0.041377 0.825033
0.040560 -0.041420 0.825879
0.042021 -0.041483 0.827137
0.043500 -0.041560 0.828680
0.045003 -0.041655 0.830563
0.046529 -0.041764 0.832753
0.048068 -0.041878 0.835029
0.049610 -0.041989 0.837233
0.051160 -0.042099 0.839435
0.052702 -0.042198 0.841397
0.054230 -0.042280 0.843036
0.055736 -0.042342 0.844263
0.057229 -0.042390 0.845237
0.058704 -0.042424 0.845901
0.060177 -0.042454 0.846503
0.061657 -0.042488 0.847176
0.063140 -0.042521 0.847851
0.064606 -0.042543 0.848286
0.066078 -0.042568 0.848772
0.067532 -0.042580 0.849011
0.068993 -0.042595 0.849324
0.070456 -0.042612 0.849658
0.071943 -0.042642 0.850249
0.073433 -0.042672 0.850860
0.074945 -0.042714 0.851695
0.076453 -0.042753 0.852459
0.077978 -0.042799 0.853373
0.079515 -0.042849 0.854388
0.081065 -0.042905 0.855505
0.082667 -0.042986 0.857115
0.084316 -0.043088 0.859156
0.086020 -0.043215 0.861674
0.088376 -0.043659 0.870539
-0.053007 -0.042264 0.872203
-0.051508 -0.042244 0.871782
-0.049999 -0.042214 0.871174
-0.048483 -0.042177 0.870398
-0.046973 -0.042143 0.869692
-0.045478 -0.042119 0.869215
-0.043974 -0.042086 0.868526
-0.042468 -0.042049 0.867761
-0.040972 -0.042019 0.867138
-0.039477 -0.041989 0.866516
-0.037972 -0.041944 0.865593
-0.036476 -0.041907 0.864823
-0.034972 -0.041857 0.863787
-0.033461 -0.041793 0.862486
-0.031954 -0.041729 0.861163
-0.030455 -0.041670 0.859937
-0.028956 -0.041605 0.858603
-0.027475 -0.041560 0.857671
-0.026005 -0.041528 0.857000
-0.024370 -0.041214 0.850523
-0.022703 -0.040801 0.841998
-0.019478 -0.040026 0.826002
-0.017980 -0.039801 0.821360
-0.016579 -0.039769 0.820704
-0.015177 -0.039732 0.819935
-0.013780 -0.039701 0.819301
-0.012391 -0.039688 0.819034
-0.011002 -0.039670 0.818671
-0.009617 -0.039667 0.818610
-0.008234 -0.039671 0.818690
-0.006851 -0.039681 0.818900
-0.005469 -0.039696 0.819206
-0.004089 -0.039740 0.820117
-0.002707 -0.039805 0.821458
-0.001321 -0.039884 0.823081
0.000071 -0.039984 0.825154
0.001468 -0.040053 0.826575
0.002869 -0.040097 0.827472
0.004269 -0.040111 0.827762
0.005669 -0.040115 0.827853
0.007066 -0.040100 0.827546
0.008469 -0.040119 0.827920
0.009874 -0.040139 0.828340
0.011278 -0.040152 0.828614
0.012681 -0.040160 0.828765
0.014085 -0.040168 0.828944
0.015477 -0.040143 0.828419
0.016862 -0.040105 0.827653
0.018247 -0.040076 0.827050
0.019631 -0.040046 0.826434
0.021014 -0.040020 0.825894
0.022407 -0.040015 0.825776
0.023806 -0.040020 0.825877
0.025200 -0.040016 0.825802
0.026588 -0.040004 0.825547
0.027972 -0.039987 0.825200
0.029355 -0.039971 0.824874
0.030736 -0.039953 0.824500
0.032118 -0.039938 0.824193
0.033503 -0.039929 0.824009
0.034895 -0.039928 0.823978
0.036295 -0.039935 0.824139
0.037715 -0.039963 0.824707
0.039143 -0.039998 0.825437
0.040593 -0.040052 0.826542
0.042066 -0.040124 0.828039
0.043560 -0.040211 0.829822
0.045074 -0.040310 0.831880
0.046612 -0.040424 0.834223
0.048152 -0.040534 0.836489
0.049682 -0.040629 0.838444
0.051213 -0.040719 0.840303
0.052735 -0.040797 0.841925
0.054239 -0.040858 0.843175
0.055736 -0.040910 0.844257
0.057230 -0.040958 0.845242
0.058706 -0.040991 0.845927
0.060178 -0.041019 0.846514
0.061656 -0.041051 0.847165
0.063126 -0.041075 0.847665
0.064586 -0.041093 0.848027
0.066052 -0.041113 0.848440
0.067506 -0.041125 0.848690
0.068967 -0.041140 0.849005
0.070423 -0.041152 0.849254
0.071906 -0.041179 0.849815
0.073394 -0.041208 0.850406
0.074905 -0.041249 0.851251
0.076414 -0.041287 0.852026
0.077947 -0.041335 0.853034
0.079483 -0.041385 0.854049
0.081033 -0.041439 0.855166
0.082619 -0.041509 0.856620
0.084258 -0.041604 0.858570
0.085959 -0.041725 0.861066
-0.052904 -0.040707 0.870511
-0.051413 -0.040691 0.870179
-0.049917 -0.040671 0.869742
-0.048399 -0.040631 0.868890
-0.046888 -0.040594 0.868112
-0.045396 -0.040572 0.867634
-0.043894 -0.040540 0.866949
-0.042396 -0.040509 0.866283
-0.040914 -0.040492 0.865926
-0.039435 -0.040476 0.865573
-0.037946 -0.040449 0.864996
-0.036462 -0.040425 0.864492
-0.034969 -0.040389 0.863713
-0.033469 -0.040340 0.862675
-0.031971 -0.040290 0.861607
-0.030477 -0.040241 0.860557
-0.028982 -0.040186 0.859378
-0.027503 -0.040148 0.858560
-0.026034 -0.040120 0.857972
-0.021025 -0.038903 0.831945
-0.019446 -0.038561 0.824629
-0.017977 -0.038401 0.821204
-0.016574 -0.038367 0.820477
-0.015171 -0.038328 0.819635
-0.013775 -0.038298 0.818991
-0.012384 -0.038278 0.818578
-0.010995 -0.038261 0.818199
-0.009610 -0.038254 0.818066
-0.008227 -0.038254 0.818065
-0.006845 -0.038257 0.818126
-0.005463 -0.038264 0.818267
-0.004082 -0.038288 0.818791
-0.002701 -0.038335 0.819804
-0.001318 -0.038399 0.821164
0.000071 -0.038488 0.823067
0.001465 -0.038554 0.824472
0.002862 -0.038607 0.825603
0.004261 -0.038631 0.826129
0.005659 -0.038640 0.826326
0.007054 -0.038630 0.826099
0.008454 -0.038648 0.826484
0.009857 -0.038668 0.826909
0.011258 -0.038678 0.827137
0.012659 -0.038686 0.827310
0.014062 -0.038699 0.827578
0.015452 -0.038678 0.827120
0.016835 -0.038642 0.826349
0.018220 -0.038616 0.825794
0.019603 -0.038590 0.825246
0.020984 -0.038564 0.824695
0.022372 -0.038555 0.824493
0.023767 -0.038555 0.824509
0.025156 -0.038548 0.824355
0.026544 -0.038540 0.824170
0.027928 -0.038528 0.823912
0.029315 -0.038520 0.823747
0.030702 -0.038513 0.823599
0.032091 -0.038509 0.823518
0.033483 -0.038508 0.823502
0.034881 -0.038515 0.823650
0.036295 -0.038538 0.824126
0.037729 -0.038580 0.825020
